# .PCD v0.7 - Point Cloud Data file format
VERSION 0.7
FIELDS x y z rgb
SIZE 4 4 4 4
TYPE F F F U
COUNT 1 1 1 1
WIDTH 1132
HEIGHT 1
VIEWPOINT 0 0 0 1 0 0 0
POINTS 1132
DATA ascii
2.2708573 0.51725411 1.2582777 4294967295
2.2631905 0.49674967 1.2520335 4294967295
2.253 0.47808802 1.2659252 4294967295
2.2618001 -0.92329365 1.2604378 4294967295
2.2662001 -0.93981367 1.2450478 4294967295
2.276 0.54105639 1.2207329 4294967295
2.2607501 0.51908785 1.234392 4294967295
2.2652667 0.50205094 1.228286 4294967295
2.2673335 -0.94975376 1.2259417 4294967295
2.2615001 0.49999988 1.192637 4294967295
2.2621667 -0.94233203 1.1928437 4294967295
2.27075 0.6109314 1.1664313 4294967295
2.263 0.5904575 1.1694895 4294967295
2.2604287 0.49389398 1.1657386 4294967295
2.26125 -0.93998086 1.1676581 4294967295
2.276 0.48824933 1.1388819 4294967295
2.2640002 -0.92206627 1.1277127 4294967295
2.266 -0.93340808 1.1440344 4294967295
2.2640002 0.49618083 1.0988338 4294967295
2.2620001 -0.91459054 1.105238 4294967295
2.2698333 0.49657917 1.0740201 4294967295
2.2637146 -0.92309064 1.0762658 4294967295
2.2626667 0.48770952 1.0445361 4294967295
2.2615001 -0.9230352 1.0470395 4294967295
2.2648335 0.48935112 1.0149908 4294967295
2.2663336 -0.92304355 1.0153068 4294967295
2.2748334 0.4932771 0.98549592 4294967295
2.2631114 -0.91938853 0.98456049 4294967295
2.2628751 -0.90915596 0.9567973 4294967295
2.2606668 0.49893519 0.91705739 4294967295
2.2630002 -0.90942693 0.92533839 4294967295
2.2641668 0.49796137 0.89225733 4294967295
2.2550001 -0.92104125 0.90296674 4294967295
2.2676668 -0.93410927 0.88669765 4294967295
2.2550001 0.4942084 0.87157482 4294967295
2.2536669 0.49391615 0.83475852 4294967295
2.2644289 -0.92376524 0.8343972 4294967295
2.257 0.4946467 0.80904478 4294967295
2.2647004 -0.91973948 0.80477142 4294967295
2.263 0.49071112 0.76781577 4294967295
2.2641251 -0.90965748 0.77383959 4294967295
2.2635 0.49081954 0.74683142 4294967295
2.2648752 -0.91653544 0.74435723 4294967295
2.276 0.49353006 0.72962707 4294967295
2.2631431 -0.92623526 0.72094244 4294967295
2.2640002 -0.93363559 0.70541012 4294967295
2.253 0.49377006 0.67000788 4294967295
2.2634165 -0.94284821 0.68558246 4294967295
2.2678001 0.49490458 0.65835953 4294967295
2.257 -0.92971539 0.64409113 4294967295
2.26425 -0.93925434 0.65564883 4294967295
2.2596667 0.94438291 0.62676686 4294967295
2.2670002 0.92025667 0.6183418 4294967295
2.266 -0.91555154 0.62829739 4294967295
2.253 0.93286699 0.58637041 4294967295
2.2673333 -0.90942383 0.59905553 4294967295
2.253 0.92241228 0.57068837 4294967295
2.2610002 -0.92873555 0.55775821 4294967295
2.2627501 0.50115675 0.53151065 4294967295
2.2603335 -0.93982852 0.53676116 4294967295
2.2620001 0.50623888 0.500027 4294967295
2.2604287 -0.92213076 0.50117975 4294967295
2.2670002 -0.93646228 0.51577282 4294967295
2.2633336 0.51528245 0.46676451 4294967295
2.2690001 0.50780553 0.48681685 4294967295
2.266 -0.91063249 0.47370458 4294967295
2.2673333 0.5284602 0.45527762 4294967295
2.2640002 -0.91158742 0.44484013 4294967295
2.2620001 0.55172426 0.41169852 4294967295
2.2617502 0.52191752 0.40952837 4294967295
2.2650001 0.49901599 0.40804756 4294967295
2.2686 0.47084853 0.40260607 4294967295
2.263 -0.89280087 0.40289587 4294967295
2.2641251 -0.91162294 0.41924909 4294967295
2.2646668 0.43325618 0.3975552 4294967295
2.2650001 0.40178993 0.39228201 4294967295
2.2627501 0.37513387 0.39372903 4294967295
2.257 0.34803045 0.39796972 4294967295
2.2583334 0.30629972 0.39789763 4294967295
2.2683334 0.28397837 0.39735696 4294967295
2.2713335 0.25273854 0.39719474 4294967295
2.2718 0.22380665 0.39716953 4294967295
2.2713335 0.20266922 0.39719474 4294967295
2.2579999 0.16612142 0.39136988 4294967295
2.2618003 0.13778308 0.38721466 4294967295
2.2646668 0.10923351 0.39055836 4294967295
2.2616 0.07589975 0.39772099 4294967295
2.2562001 0.0442775 0.398013 4294967295
2.2570002 0.015509395 0.39796972 4294967295
2.2657502 -0.010745618 0.39749664 4294967295
2.257 -0.047344025 0.3927331 4294967295
2.2546 -0.07606636 0.39286843 4294967295
2.26775 -0.10020173 0.39212692 4294967295
2.2623334 -0.14456858 0.38718337 4294967295
2.266 -0.16451293 0.38696808 4294967295
2.253 -0.18055741 0.38773131 4294967295
2.2718 -0.25585753 0.39189857 4294967295
2.2746 -0.28783113 0.39174068 4294967295
2.2583334 -0.31457445 0.39265791 4294967295
2.2550001 -0.34552291 0.39284587 4294967295
2.2594001 -0.37505189 0.39259773 4294967295
2.2576003 -0.4050833 0.38851738 4294967295
2.253 -0.42885625 0.38773131 4294967295
2.2667501 -0.49460226 0.38692406 4294967295
2.276 -0.59429592 0.38638103 4294967295
2.2690001 -0.61352599 0.38679197 4294967295
2.2725 -0.65401274 0.39185908 4294967295
2.266 -0.66791511 0.39222562 4294967295
2.2667501 -0.73126835 0.38692409 4294967295
2.2550001 -0.77455032 0.38238192 4294967295
2.2556667 -0.78785777 0.38234121 4294967295
2.2646668 -0.83827627 0.38704637 4294967295
2.2590001 -0.85453397 0.39262033 4294967295
2.266 -0.87557542 0.39748311 4294967295
2.2964287 -0.91246337 1.7902584 4294967295
2.2928002 -0.91945177 1.7631617 4294967295
2.2926002 -0.91776937 1.7354054 4294967295
2.2940001 -0.91087794 1.7052819 4294967295
2.2906923 -0.91087455 1.6749511 4294967295
2.2944617 -0.91318905 1.6453115 4294967295
2.292778 -0.91134584 1.6147984 4294967295
2.2936668 -0.92293936 1.5832987 4294967295
2.3050001 -0.93344384 1.571933 4294967295
2.3025 -0.92975277 1.5414023 4294967295
2.2977779 -0.93347037 1.5567862 4294967295
2.2961001 -0.92449194 1.5252291 4294967295
2.2931669 -0.92065722 1.4946765 4294967295
2.2928331 -0.9196406 1.4679275 4294967295
2.29 0.50454253 1.4296081 4294967295
2.2952499 -0.9254995 1.4423265 4294967295
2.3050001 -0.93611783 1.4275372 4294967295
2.2892857 -0.93618083 1.4046522 4294967295
2.3014998 -0.92668134 1.3647518 4294967295
2.2950001 -0.9364804 1.3765565 4294967295
2.2940001 -0.89323771 1.3395677 4294967295
2.2920001 -0.9135201 1.3515109 4294967295
2.2914 -0.89177251 1.3206259 4294967295
2.293875 -0.90630561 1.3067303 4294967295
2.2880001 0.53595084 1.2748632 4294967295
2.2839999 0.47936696 1.2814879 4294967295
2.2970831 -0.92090327 1.2849448 4294967295
2.2944443 0.53184378 1.2612997 4294967295
2.2965002 0.48997959 1.2563419 4294967295
2.2850001 -0.92666698 1.2645848 4294967295
2.2976665 -0.94469595 1.2531559 4294967295
2.2941113 0.49863285 1.2256927 4294967295
2.2941666 -0.95389032 1.2236478 4294967295
2.3050001 -0.96018386 1.2323354 4294967295
2.3050001 0.6014303 1.1868775 4294967295
2.2944 0.49910206 1.196039 4294967295
2.2917142 -0.94628352 1.1944214 4294967295
2.28 0.59490716 1.1743546 4294967295
2.2946 0.492226 1.1689434 4294967295
2.294111 -0.94499189 1.165392 4294967295
2.28 0.4891074 1.1479046 4294967295
2.2931111 -0.92210466 1.1314027 4294967295
2.296 -0.93512625 1.1469839 4294967295
2.2957501 0.49647337 1.1069497 4294967295
2.2944703 -0.91444176 1.1042758 4294967295
2.2951 0.49286965 1.0737877 4294967295
2.2957058 -0.92371136 1.0760722 4294967295
2.2815998 0.48521498 1.0467031 4294967295
2.2949412 -0.92402297 1.0455186 4294967295
2.296375 0.49128583 1.0151922 4294967295
2.2910833 -0.92425239 1.0171751 4294967295
2.2926366 -0.92116451 0.98743486 4294967295
2.2901666 -0.91237932 0.95677114 4294967295
2.2965999 0.50011289 0.91907817 4294967295
2.293875 -0.91762495 0.92485976 4294967295
2.2934287 0.49882072 0.89997804 4294967295
2.28 -0.92596465 0.90721011 4294967295
2.2993333 -0.9382472 0.90249121 4294967295
2.2833335 0.49512026 0.86539674 4294967295
2.2964001 -0.93848222 0.86259329 4294967295
2.2976665 0.49822828 0.83555663 4294967295
2.2926366 -0.926009 0.83368731 4294967295
2.3021998 0.49921128 0.80684292 4294967295
2.2964001 -0.92195261 0.80555493 4294967295
2.2921665 0.49348542 0.77632415 4294967295
2.2927501 -0.91450924 0.77571356 4294967295
2.2897999 0.49120972 0.74681306 4294967295
2.2938182 -0.92019486 0.74529612 4294967295
2.2904 0.49665257 0.71500361 4294967295
2.2949998 -0.92849004 0.72161567 4294967295
2.2947142 -0.93306369 0.7069999 4294967295
2.2892501 0.49506387 0.68369579 4294967295
2.2933123 -0.9439919 0.68599087 4294967295
2.2940001 0.49848145 0.65254247 4294967295
2.2998333 -0.92510951 0.64289081 4294967295
2.2929165 -0.94005847 0.65759128 4294967295
2.309 0.96408999 0.62016374 4294967295
2.2888331 0.94414169 0.62016398 4294967295
2.2904 0.5019666 0.62466913 4294967295
2.2927501 -0.91517282 0.62809044 4294967295
2.28 0.95462644 0.59245574 4294967295
2.309 0.91855317 0.60944915 4294967295
2.2819998 0.50012565 0.5951643 4294967295
2.3033333 -0.92029488 0.60032713 4294967295
2.2985001 0.94102561 0.574386 4294967295
2.2866666 0.92027956 0.57675123 4294967295
2.2920001 0.50231731 0.56358904 4294967295
2.28 -0.92860967 0.56600583 4294967295
2.2949998 -0.94002134 0.55568135 4294967295
2.2962 0.50323772 0.53434962 4294967295
2.2943332 -0.94863451 0.53258759 4294967295
2.2919998 0.50763512 0.50507432 4294967295
2.2936666 -0.92441225 0.49887675 4294967295
2.2964001 -0.9395439 0.5141241 4294967295
2.2938752 0.51202714 0.4744952 4294967295
2.2947142 -0.91633689 0.4750239 4294967295
2.2980001 0.54627001 0.44907048 4294967295
2.3011429 0.52490294 0.45202515 4294967295
2.293 -0.91705257 0.44655621 4294967295
2.2937999 0.5569908 0.41514325 4294967295
2.2943335 0.52410805 0.41637295 4294967295
2.2943749 0.49550322 0.41059417 4294967295
2.2896669 0.46288821 0.40329862 4294967295
2.2985001 0.44773877 0.40105882 4294967295
2.2969999 0.34354225 0.40113646 4294967295
2.2992501 0.3198494 0.40102002 4294967295
2.3021998 0.071907751 0.40086737 4294967295
2.3040001 0.045207288 0.40077421 4294967295
2.309 0.013173843 0.4005155 4294967295
2.2965 -0.8900106 0.40116233 4294967295
2.2970002 -0.91572863 0.41636407 4294967295
2.286 0.42408872 0.39640176 4294967295
2.3050001 0.41959855 0.39537448 4294967295
2.2985001 0.37844279 0.39572591 4294967295
2.2866666 0.18811411 0.39636573 4294967295
2.2990003 0.16461976 0.39250588 4294967295
2.3076668 0.13809194 0.38987613 4294967295
2.2937999 0.10570508 0.39385104 4294967295
2.2820001 -0.026692245 0.39661804 4294967295
2.3032 -0.045653302 0.39547178 4294967295
2.2974999 -0.074851759 0.39577997 4294967295
2.2934999 -0.10658261 0.39335126 4294967295
2.2896669 -0.13039105 0.39089108 4294967295
2.2969999 -0.19737549 0.3904776 4294967295
2.2832 -0.22535326 0.39125574 4294967295
2.28 -0.2409111 0.39143616 4294967295
2.28 -0.27265102 0.39143616 4294967295
2.3040001 -0.31559271 0.39542854 4294967295
2.302 -0.34738579 0.39553666 4294967295
2.3040001 -0.37710086 0.39542854 4294967295
2.2946 -0.4064137 0.39168435 4294967295
2.2913332 -0.43613359 0.39079711 4294967295
2.2904 -0.46521041 0.39084974 4294967295
2.3005002 -0.49129078 0.39028025 4294967295
2.2816002 -0.52377164 0.38605225 4294967295
2.2920001 -0.55593103 0.38544169 4294967295
2.2906668 -0.58040255 0.38551998 4294967295
2.28 -0.60856533 0.38614619 4294967295
2.2964001 -0.642214 0.39051142 4294967295
2.286 -0.71094805 0.39109784 4294967295
2.2936668 -0.73367059 0.38890222 4294967295
2.2920001 -0.76688725 0.38544169 4294967295
2.3074002 -0.79522866 0.38453761 4294967295
2.2932856 -0.82225621 0.3853662 4294967295
2.2956667 -0.85774517 0.39233041 4294967295
2.28 -0.8704198 0.39672616 4294967295
2.3280001 -0.91304237 1.8173851 4294967295
2.3283846 -0.91838938 1.7945176 4294967295
2.326684 -0.91919321 1.7647865 4294967295
2.3277273 -0.91144699 1.7349848 4294967295
2.3284543 -0.90829879 1.7044259 4294967295
2.3280909 -0.91085529 1.6750276 4294967295
2.3276668 -0.91236794 1.6463509 4294967295
2.3263333 -0.91958481 1.6122456 4294967295
2.3306 -0.92649508 1.5857595 4294967295
2.3234 -0.93226409 1.5760127 4294967295
2.3311336 -0.92454529 1.5524871 4294967295
2.3209999 -0.93273854 1.5603932 4294967295
2.3275878 -0.92128891 1.5247258 4294967295
2.3278236 -0.92138577 1.4943323 4294967295
2.3257999 -0.92566907 1.4713427 4294967295
2.332 -0.93220103 1.4571037 4294967295
2.3329999 0.51130289 1.4493873 4294967295
2.3210001 0.50328785 1.4365339 4294967295
2.3286002 -0.93975514 1.431953 4294967295
2.3356667 -0.92418301 1.3944508 4294967295
2.3265998 -0.93919998 1.4041864 4294967295
2.335 -0.89683431 1.3662137 4294967295
2.327261 -0.91591346 1.3757401 4294967295
2.3202 -0.93635708 1.3850706 4294967295
2.3256154 -0.89156091 1.3447549 4294967295
2.3169999 -0.9006725 1.3570001 4294967295
2.326714 -0.89518523 1.3227129 4294967295
2.3258572 -0.90834004 1.3081524 4294967295
2.3289998 0.54825199 1.2802644 4294967295
2.3298001 0.48897946 1.2805152 4294967295
2.3285556 -0.92105711 1.2876318 4294967295
2.3316667 -0.93161571 1.2721288 4294967295
2.313 0.53911901 1.2643237 4294967295
2.3243332 0.49502003 1.2508838 4294967295
2.3269999 -0.9467355 1.2593668 4294967295
2.3263333 -0.96186876 1.243422 4294967295
2.3296669 0.49976194 1.2237403 4294967295
2.3269999 -0.95583671 1.220233 4294967295
2.3303335 -0.96172142 1.2356567 4294967295
2.3369999 0.63146877 1.1907134 4294967295
2.3225999 0.61358207 1.1930428 4294967295
2.3263333 0.49634349 1.1957514 4294967295
2.3282938 -0.94762743 1.1936125 4294967295
2.3150001 0.49124444 1.176345 4294967295
2.3340001 -0.92623085 1.1546543 4294967295
2.3278236 -0.94203776 1.1658463 4294967295
2.325 0.49336648 1.1225367 4294967295
2.3273156 -0.91546154 1.1336484 4294967295
2.319 -0.9310357 1.1478841 4294967295
2.326 0.49254987 1.104238 4294967295
2.3278332 -0.90936476 1.103914 4294967295
2.3229997 0.48754305 1.0745876 4294967295
2.3347144 0.47685319 1.0708861 4294967295
2.3282309 -0.91706663 1.0759925 4294967295
2.3235457 0.4852097 1.0451989 4294967295
2.3316667 0.47855151 1.053933 4294967295
2.3299654 -0.91556954 1.0449653 4294967295
2.3295 0.49296582 1.0155969 4294967295
2.3255711 -0.9229964 1.016053 4294967295
2.3227141 0.49594802 0.98874897 4294967295
2.3271539 -0.92080498 0.98436761 4294967295
2.3235455 -0.91644078 0.95356435 4294967295
2.3256667 0.49619582 0.91766357 4294967295
2.3276668 -0.9219135 0.93150556 4294967295
2.3329999 -0.93395227 0.91621101 4294967295
2.3275452 0.49635017 0.89490658 4294967295
2.3265998 -0.94866151 0.89406186 4294967295
2.3267777 0.49733484 0.86746049 4294967295
2.3286364 -0.93907648 0.86169016 4294967295
2.3336666 0.50061995 0.83509976 4294967295
2.3279474 -0.92509675 0.83390617 4294967295
2.3316667 0.49928728 0.80327964 4294967295
2.3268666 -0.92104703 0.80629182 4294967295
2.3232858 0.49377069 0.77635616 4294967295
2.3273335 -0.91818225 0.77485561 4294967295
2.3236666 0.49397793 0.74299872 4294967295
2.32775 -0.92204773 0.74350923 4294967295
2.3285 0.49815613 0.71555078 4294967295
2.3309999 -0.92429239 0.71673959 4294967295
2.3196666 -0.93220162 0.70762396 4294967295
2.325 0.49538124 0.68694031 4294967295
2.3356667 -0.92599046 0.68634713 4294967295
2.3244779 -0.93826151 0.68366981 4294967295
2.3255715 0.49887809 0.65711141 4294967295
2.3286002 -0.92083555 0.65371037 4294967295
2.3210001 -0.93742508 0.6637702 4294967295
2.3329999 0.96599138 0.61308306 4294967295
2.3244286 0.94703114 0.61235213 4294967295
2.335 0.50632358 0.62399036 4294967295
2.3276668 -0.91741049 0.62726307 4294967295
2.3369999 0.96629202 0.5929116 4294967295
2.3302 0.94804907 0.58811814 4294967295
2.3369999 0.92969191 0.59155601 4294967295
2.336 0.50654042 0.5955863 4294967295
2.3329999 -0.93395692 0.58872706 4294967295
2.3210001 0.9529497 0.57760334 4294967295
2.3329999 0.50588995 0.56438112 4294967295
2.3259997 -0.94733787 0.55614519 4294967295
2.3278 0.50205493 0.53456682 4294967295
2.3289998 -0.94999146 0.53169054 4294967295
2.3290002 0.5065558 0.50638956 4294967295
2.3300667 -0.92411822 0.5007062 4294967295
2.3237998 -0.93511033 0.51459736 4294967295
2.3255713 0.51120949 0.47289282 4294967295
2.3369999 0.50675726 0.48582238 4294967295
2.3302498 -0.91831094 0.47544044 4294967295
2.329 0.57527035 0.44270995 4294967295
2.3282728 0.55005509 0.43732452 4294967295
2.3233075 0.5199371 0.44227928 4294967295
2.3369999 0.50675726 0.4316 4294967295
2.3279333 -0.92147398 0.44598758 4294967295
2.3369999 0.57724637 0.42617774 4294967295
2.3245001 0.55528653 0.42129564 4294967295
2.3178887 0.52172315 0.42515615 4294967295
2.3275454 0.497336 0.41674256 4294967295
2.3263333 0.46665165 0.40682137 4294967295
2.3259997 0.44230866 0.40234691 4294967295
2.326 0.36675698 0.40234691 4294967295
2.3303335 0.34581816 0.40481833 4294967295
2.3299999 0.31197792 0.403492 4294967295
2.3169999 0.28738707 0.40010151 4294967295
2.3272219 0.22266883 0.40258491 4294967295
2.3303332 0.20613189 0.40302637 4294967295
2.3301427 0.077395812 0.40405974 4294967295
2.3346 0.045814358 0.40460742 4294967295
2.3140001 0.017227285 0.40025675 4294967295
2.3150001 -0.0055934275 0.40020502 4294967295
2.329 -0.89128393 0.40380904 4294967295
2.3281429 -0.91618603 0.41457933 4294967295
2.3309999 0.42702407 0.39937705 4294967295
2.3257999 0.40448782 0.39696008 4294967295
2.3290002 0.38074419 0.39948055 4294967295
2.3210001 0.27172789 0.39989451 4294967295
2.3210001 0.25557253 0.39989451 4294967295
2.3210001 0.23672464 0.39989451 4294967295
2.3281999 0.19152863 0.39952195 4294967295
2.3298001 0.1646456 0.39511806 4294967295
2.3295 0.13489789 0.39270818 4294967295
2.3258002 0.10500042 0.39749208 4294967295
2.326 -0.021815946 0.39963579 4294967295
2.3322001 -0.046219625 0.39931494 4294967295
2.3296669 -0.075890578 0.39944604 4294967295
2.3272858 -0.10627657 0.39726532 4294967295
2.3255713 -0.13627058 0.3927263 4294967295
2.3250003 -0.16476111 0.38889873 4294967295
2.329 -0.19475207 0.39317936 4294967295
2.3262 -0.2268984 0.39639717 4294967295
2.325 -0.25497672 0.39724734 4294967295
2.3246362 -0.28484681 0.39677745 4294967295
2.3323333 -0.31407952 0.39930806 4294967295
2.3306 -0.34359619 0.39939773 4294967295
2.3316667 -0.3735052 0.39934254 4294967295
2.3285 -0.40540475 0.39681268 4294967295
2.329 -0.43521726 0.39407688 4294967295
2.327667 -0.46467131 0.39414895 4294967295
2.3276665 -0.49706241 0.39325452 4294967295
2.3232856 -0.5219202 0.39054465 4294967295
2.3274 -0.5537231 0.38876343 4294967295
2.3303335 -0.58415574 0.38859802 4294967295
2.3216667 -0.61430556 0.38908672 4294967295
2.3313999 -0.64664489 0.39287379 4294967295
2.3209999 -0.67334294 0.3945094 4294967295
2.3185999 -0.7022568 0.39463919 4294967295
2.3272858 -0.7357282 0.39263493 4294967295
2.325 -0.76354283 0.38889873 4294967295
2.3329999 -0.79321998 0.38844764 4294967295
2.3307145 -0.82487291 0.38857654 4294967295
2.326 -0.85559249 0.39289629 4294967295
2.3309999 -0.87635738 0.39937705 4294967295
2.3670003 1.5951558 1.8418691 4294967295
2.3670003 1.5786803 1.8418691 4294967295
2.3670003 1.5429833 1.8418691 4294967295
2.3670001 1.2272023 1.8418691 4294967295
2.3650002 1.6541672 1.8380063 4294967295
2.358238 1.6324977 1.82393 4294967295
2.3590858 1.6065326 1.8260179 4294967295
2.3670006 1.5731884 1.8314347 4294967295
2.3658004 1.550981 1.8357071 4294967295
2.3599997 1.2097032 1.827727 4294967295
2.3566363 1.1919955 1.8306062 4294967295
2.3522999 -0.91438472 1.8221989 4294967295
2.3527498 -0.91637713 1.7938664 4294967295
2.3519998 -0.90880483 1.7652698 4294967295
2.3590002 -0.89463663 1.7324886 4294967295
2.3470001 -0.9026475 1.7363183 4294967295
2.3556817 -0.89184612 1.7046164 4294967295
2.346 -0.90105933 1.7049496 4294967295
2.3564 -0.89520377 1.6801271 4294967295
2.3493571 -0.90389913 1.6715771 4294967295
2.3520911 -0.91232061 1.6445159 4294967295
2.3533332 -0.91878581 1.6147318 4294967295
2.3534641 -0.91365135 1.5840963 4294967295
2.3521304 -0.91312164 1.5559386 4294967295
2.3537085 -0.91036808 1.5247533 4294967295
2.3530455 -0.91367692 1.4973136 4294967295
2.3522501 0.52372062 1.4625136 4294967295
2.3565001 0.50823981 1.4560032 4294967295
2.3500001 -0.92803705 1.4761517 4294967295
2.3561997 -0.93668115 1.4629937 4294967295
2.359 -0.92794549 1.421432 4294967295
2.3526666 -0.93817842 1.4344714 4294967295
2.342 0.48610619 1.4149358 4294967295
2.3521109 -0.91824198 1.4051557 4294967295
2.346 -0.93371803 1.4137428 4294967295
2.3552003 -0.89474463 1.368603 4294967295
2.3481667 -0.90460479 1.3845968 4294967295
2.3540001 -0.89101464 1.3457835 4294967295
2.3528001 -0.89710593 1.3229859 4294967295
2.3553336 -0.90584594 1.308908 4294967295
2.359 0.48963472 1.2818632 4294967295
2.3539474 -0.91847336 1.2849662 4294967295
2.350857 0.49417356 1.25858 4294967295
2.3547146 -0.94654989 1.2609556 4294967295
2.3525 -0.96085942 1.2442782 4294967295
2.3501666 0.49779153 1.2244661 4294967295
2.3560667 -0.9497332 1.221694 4294967295
2.346 -0.96093363 1.2368413 4294967295
2.359 0.63194001 1.2025006 4294967295
2.3525 0.49646068 1.2087951 4294967295
2.3630002 -0.92342216 1.1878194 4294967295
2.3503685 -0.93773699 1.19484 4294967295
2.3539999 -0.91883427 1.1654344 4294967295
2.3451998 -0.93774849 1.1745676 4294967295
2.3573332 -0.89629084 1.1236222 4294967295
2.3516004 -0.90610456 1.1377983 4294967295
2.346 0.48149329 1.1116495 4294967295
2.3525715 -0.89733207 1.1058789 4294967295
2.346 -0.90241772 1.0953178 4294967295
2.3471429 0.4723902 1.0753791 4294967295
2.3605001 -0.89840585 1.0879226 4294967295
2.3502631 -0.90468925 1.0731118 4294967295
2.3670001 2.1663077 1.0345681 4294967295
2.3543999 0.48429805 1.0383898 4294967295
2.3473332 0.47450328 1.0502601 4294967295
2.3591669 -0.89789832 1.0492861 4294967295
2.3478334 -0.90266258 1.0412838 4294967295
2.3670001 2.1937668 1.0126007 4294967295
2.3648331 2.172555 1.0155774 4294967295
2.3543334 0.49230099 1.0163447 4294967295
2.350842 -0.91496074 1.0164086 4294967295
2.3670001 2.1882751 0.99612516 4294967295
2.3629999 0.49594754 0.99805719 4294967295
2.3546669 -0.9189471 0.98545289 4294967295
2.3496997 -0.91610265 0.9544791 4294967295
2.3573334 0.49475822 0.91943336 4294967295
2.3501999 -0.92338556 0.93167567 4294967295
2.3556669 -0.93756926 0.91732395 4294967295
2.3606 0.49544379 0.8962574 4294967295
2.3517499 -0.95032728 0.89618552 4294967295
2.3566251 0.49664956 0.86350596 4294967295
2.353857 -0.92357272 0.85539114 4294967295
2.3542857 -0.94168955 0.86949325 4294967295
2.3514998 0.49807444 0.83661735 4294967295
2.3525386 -0.91909283 0.83618474 4294967295
2.3540001 0.49677899 0.80780774 4294967295
2.3512499 -0.91670799 0.80475342 4294967295
2.342 0.49154004 0.77374279 4294967295
2.3499999 -0.91622198 0.77460951 4294967295
2.3573334 0.49475816 0.73710805 4294967295
2.3525002 -0.91514289 0.74349397 4294967295
2.3493998 0.49744579 0.71676254 4294967295
2.3533041 -0.91024911 0.71419048 4294967295
2.3629999 0.49594754 0.6855464 4294967295
2.3525767 -0.91616231 0.68566638 4294967295
2.3522501 0.50187272 0.65205944 4294967295
2.3480833 -0.91138589 0.6559127 4294967295
2.342 0.97515172 0.61072755 4294967295
2.3629999 0.50691259 0.63895392 4294967295
2.3548889 -0.91782206 0.62761706 4294967295
2.347667 0.97024596 0.60095954 4294967295
2.346 0.94633573 0.59455222 4294967295
2.3499999 -0.92985761 0.6055851 4294967295
2.3555 0.50393069 0.55523354 4294967295
2.348 -0.95085728 0.55375618 4294967295
2.3524549 0.49521151 0.53224212 4294967295
2.3565001 -0.92238861 0.52472335 4294967295
2.3505001 -0.94484621 0.53432083 4294967295
2.3543572 0.49919331 0.50585645 4294967295
2.3615716 -0.89607298 0.4948594 4294967295
2.3503225 -0.91149443 0.50621653 4294967295
2.3505001 0.50585634 0.47472572 4294967295
2.3560588 -0.8926912 0.47364897 4294967295
2.3475003 -0.90775836 0.4754566 4294967295
2.3513334 0.5807898 0.43105781 4294967295
2.342 0.56761372 0.43141085 4294967295
2.3529999 0.50441247 0.44327456 4294967295
2.3613157 -0.89280212 0.44681871 4294967295
2.35131 -0.91079682 0.44308838 4294967295
2.3502729 0.49078259 0.42168522 4294967295
2.3559091 0.46563998 0.41350308 4294967295
2.3567779 0.43327126 0.40655711 4294967295
2.3617275 0.40651625 0.4062613 4294967295
2.3517499 0.37763554 0.40717503 4294967295
2.3475997 0.34565088 0.40941173 4294967295
2.3558333 0.3167817 0.40902388 4294967295
2.3531108 0.28762278 0.40613225 4294967295
2.3537271 0.25519967 0.4061583 4294967295
2.3601668 0.22430241 0.40881974 4294967295
2.3551667 0.19468047 0.4054215 4294967295
2.3629999 0.17795883 0.4032037 4294967295
2.357167 0.1018746 0.40531954 4294967295
2.3499997 0.076116562 0.40929866 4294967295
2.3568001 0.046233822 0.40897831 4294967295
2.346 0.016097223 0.40404397 4294967295
2.3492 -0.013853236 0.40388578 4294967295
2.3513334 -0.04386732 0.40378034 4294967295
2.3494999 -0.073814936 0.40478626 4294967295
2.3558333 -0.10410614 0.40355793 4294967295
2.3670001 -0.12379135 0.40300599 4294967295
2.3581111 -0.22727808 0.40527594 4294967295
2.3508 -0.25384995 0.40380669 4294967295
2.3513334 -0.28390905 0.40378034 4294967295
2.3499999 -0.31373626 0.40384626 4294967295
2.3506668 -0.34382585 0.4038133 4294967295
2.3499999 -0.37371269 0.40384626 4294967295
2.3543334 -0.40445921 0.40363204 4294967295
2.3629999 -0.4360882 0.4032037 4294967295
2.3614001 -0.46318164 0.40328279 4294967295
2.3670001 -0.48625305 0.40300599 4294967295
2.3629999 -0.86921072 0.4032037 4294967295
2.3583531 -0.8871336 0.41182244 4294967295
2.3548884 -0.91143453 0.41969565 4294967295
2.3525999 0.16078638 0.39825931 4294967295
2.3587999 0.13387017 0.39793846 4294967295
2.3439999 0.11398774 0.39870432 4294967295
2.342 -0.11705004 0.39880782 4294967295
2.3494999 -0.13650866 0.39751408 4294967295
2.353375 -0.16264522 0.39481726 4294967295
2.350857 -0.19462012 0.39757323 4294967295
2.342 -0.21485914 0.39880782 4294967295
2.342 -0.4159112 0.39880782 4294967295
2.346 -0.43567246 0.39860082 4294967295
2.3435998 -0.46513331 0.39872503 4294967295
2.3476002 -0.49316689 0.39851803 4294967295
2.355 -0.52612466 0.39609626 4294967295
2.3527501 -0.55290556 0.39416572 4294967295
2.3524003 -0.58696073 0.39281169 4294967295
2.350143 -0.61598974 0.3937183 4294967295
2.3555 -0.64513838 0.39538997 4294967295
2.352 -0.67413449 0.39829034 4294967295
2.3435998 -0.70438743 0.39872503 4294967295
2.3533998 -0.73465014 0.39821792 4294967295
2.3501666 -0.76360178 0.39384776 4294967295
2.3532002 -0.7946319 0.39276844 4294967295
2.3529999 -0.82456851 0.39277923 4294967295
2.352 -0.85580528 0.3967365 4294967295
2.3937504 1.6909378 1.8526368 4294967295
2.3798003 1.672253 1.844596 4294967295
2.3710003 1.5813482 1.844103 4294967295
2.385308 1.5363792 1.8461226 4294967295
2.3930001 1.3572732 1.8536083 4294967295
2.3943336 1.3487712 1.8552798 4294967295
2.3862221 1.2494837 1.846442 4294967295
2.3878751 1.1881537 1.8472838 4294967295
2.3893332 1.1246866 1.8483306 4294967295
2.3778334 1.0976639 1.8423939 4294967295
2.3804445 1.0623124 1.8438355 4294967295
2.3930001 -0.91911119 1.8480514 4294967295
2.3970003 1.6821107 1.836377 4294967295
2.3839004 1.6624036 1.8286123 4294967295
2.3873079 1.6348004 1.8156942 4294967295
2.3810868 1.6039065 1.8148849 4294967295
2.3786454 1.5764472 1.8223494 4294967295
2.3802104 1.5508476 1.82831 4294967295
2.3867779 1.241151 1.8325974 4294967295
2.3807857 1.2173533 1.8258702 4294967295
2.3800001 1.1945893 1.8325487 4294967295
2.3930001 1.1185346 1.8369516 4294967295
2.3841302 1.0917802 1.8304803 4294967295
2.380286 1.0642817 1.8265376 4294967295
2.382 -0.91832745 1.8246591 4294967295
2.3829 -0.91355646 1.7959943 4294967295
2.3852501 -0.89813119 1.7579694 4294967295
2.3801999 -0.90424412 1.769709 4294967295
2.3846362 -0.88871866 1.7345077 4294967295
2.3824165 -0.88647878 1.7049029 4294967295
2.3803332 -0.89399266 1.6854694 4294967295
2.3817999 -0.90485501 1.6744012 4294967295
2.3835714 -0.91785514 1.6456894 4294967295
2.3807778 -0.91378355 1.6138636 4294967295
2.3824444 -0.90583658 1.5857655 4294967295
2.3821816 -0.90690786 1.5563902 4294967295
2.3836668 -0.90445334 1.5273206 4294967295
2.383111 -0.91408312 1.5000577 4294967295
2.3830001 -0.93553859 1.4840449 4294967295
2.3710001 0.51412988 1.4700265 4294967295
2.3885 -0.94646674 1.4631847 4294967295
2.38325 -0.92364365 1.4265413 4294967295
2.38325 -0.93748164 1.4403794 4294967295
2.3970003 2.2030332 1.3914611 4294967295
2.3970003 2.1770797 1.3914611 4294967295
2.3805714 -0.90958887 1.403622 4294967295
2.3951538 2.2036126 1.3792406 4294967295
2.3930001 2.1824656 1.3837548 4294967295
2.3852501 -0.8981266 1.3719196 4294967295
2.3889999 -0.9009462 1.3830097 4294967295
2.3970003 2.2215712 1.3580924 4294967295
2.3970003 2.2160099 1.3580924 4294967295
2.3840001 -0.89720684 1.3443483 4294967295
2.3970001 -0.90396321 1.3358467 4294967295
2.3851666 -0.90872598 1.3124282 4294967295
2.3916667 0.49086592 1.2840958 4294967295
2.3833334 -0.92153662 1.2857208 4294967295
2.3813334 -0.934883 1.2715719 4294967295
2.3889999 0.57900476 1.2555232 4294967295
2.3805001 0.49778172 1.2556499 4294967295
2.384778 -0.95222521 1.2566588 4294967295
2.3800001 -0.96104473 1.2499914 4294967295
2.3796666 0.49944553 1.2305748 4294967295
2.3930001 -0.92743486 1.2123375 4294967295
2.3843634 -0.94293505 1.2249231 4294967295
2.3816924 -0.91899872 1.1958792 4294967295
2.3807998 -0.91054702 1.1668159 4294967295
2.3800001 -0.89753705 1.1284846 4294967295
2.3864999 -0.90276438 1.1440089 4294967295
2.3805001 -0.89681387 1.1102158 4294967295
2.3930001 -0.90245467 1.0929611 4294967295
2.3753335 -0.89945966 1.0694265 4294967295
2.3851666 -0.90225685 1.0754076 4294967295
2.3970003 2.2299135 1.0383091 4294967295
2.3889167 2.2043657 1.0421183 4294967295
2.3829999 2.1759028 1.0390553 4294967295
2.3813334 0.48690137 1.0376801 4294967295
2.3710001 0.47562209 1.0519409 4294967295
2.3796666 -0.8992601 1.0483742 4294967295
2.38975 -0.9039976 1.0395137 4294967295
2.3897502 2.2287173 1.0256559 4294967295
2.3739998 2.2019083 1.0162673 4294967295
2.379941 2.1745493 1.0156126 4294967295
2.3830001 0.49461615 1.0159204 4294967295
2.3841999 -0.91738647 1.0156125 4294967295
2.3860002 2.196964 0.99329883 4294967295
2.3726666 2.1824999 0.99726498 4294967295
2.3759999 0.49867594 0.99242282 4294967295
2.3900001 -0.92165029 0.98319411 4294967295
2.3819001 -0.91925788 0.95711446 4294967295
2.3840001 -0.92671704 0.93870056 4294967295
2.37675 -0.93767661 0.92364949 4294967295
2.3801999 -0.95616359 0.89715266 4294967295
2.3889999 -0.96191794 0.89523554 4294967295
2.3710001 0.49762657 0.85940164 4294967295
2.384625 -0.92279124 0.86065161 4294967295
2.3875999 -0.94251084 0.8750757 4294967295
2.3730001 0.49804634 0.83216143 4294967295
2.3789997 -0.9184593 0.8369 4294967295
2.3930001 0.49669173 0.80426234 4294967295
2.386091 -0.91896021 0.8046869 4294967295
2.3743331 0.49281728 0.77724981 4294967295
2.3775713 -0.9179073 0.7760303 4294967295
2.3864999 0.49534261 0.75364429 4294967295
2.3852501 -0.91543418 0.74453908 4294967295
2.3710001 0.49762657 0.71637237 4294967295
2.3829999 -0.90328252 0.71460348 4294967295
2.3734999 0.49815124 0.68627685 4294967295
2.3823075 -0.90946555 0.68668926 4294967295
2.3889999 0.50694722 0.65134853 4294967295
2.3791251 -0.91239172 0.6563369 4294967295
2.3840001 0.51141757 0.61788595 4294967295
2.3734999 0.50916511 0.63121921 4294967295
2.3889999 -0.92311776 0.62917697 4294967295
2.3889999 0.51249009 0.59314823 4294967295
2.3759999 0.50970137 0.60653198 4294967295
2.3864999 -0.94151938 0.60415804 4294967295
2.3889999 0.51249009 0.57929099 4294967295
2.3769999 0.50807214 0.56611311 4294967295
2.3734999 -0.95567697 0.55412805 4294967295
2.3842223 0.48933005 0.53184921 4294967295
2.385 -0.91838217 0.52701539 4294967295
2.3831429 -0.94691145 0.53965133 4294967295
2.3856666 0.49072576 0.50761974 4294967295
2.3970001 0.2869814 0.50480723 4294967295
2.3833079 -0.89368194 0.50259 4294967295
2.38325 -0.90429509 0.51694512 4294967295
2.3776002 0.50341958 0.47420549 4294967295
2.392333 0.4355053 0.47022012 4294967295
2.3938003 0.41465601 0.46500018 4294967295
2.3970001 0.1805194 0.47104129 4294967295
2.3969998 0.16383506 0.47104129 4294967295
2.3853076 -0.88761872 0.47532836 4294967295
2.3840001 0.59438688 0.43535346 4294967295
2.3844666 0.49564126 0.44197875 4294967295
2.396111 0.45965976 0.43924898 4294967295
2.3832798 0.43386248 0.4464373 4294967295
2.3858747 0.40708521 0.44589749 4294967295
2.3832002 -0.88510233 0.44239867 4294967295
2.3775001 0.4824422 0.42731747 4294967295
2.3812776 0.46263874 0.42410553 4294967295
2.3805711 0.43414947 0.42128381 4294967295
2.3814089 0.4043642 0.42215246 4294967295
2.3818233 0.37604365 0.41887331 4294967295
2.3818185 0.34515414 0.41685247 4294967295
2.3912001 0.31821346 0.41512671 4294967295
2.3710001 0.274831 0.4083094 4294967295
2.3970001 0.22223027 0.41264606 4294967295
2.3902857 0.19427748 0.40978438 4294967295
2.3869998 0.16312973 0.40201744 4294967295
2.3948333 0.13406108 0.40255716 4294967295
2.3873076 0.1026611 0.4139488 4294967295
2.3842857 0.075237721 0.4183653 4294967295
2.390125 0.046916645 0.41365525 4294967295
2.3864999 0.021918744 0.40757924 4294967295
2.3970001 -0.015985139 0.40708464 4294967295
2.3873332 -0.044515751 0.40753999 4294967295
2.3840001 -0.073508479 0.41047773 4294967295
2.3851669 -0.10540513 0.40764207 4294967295
2.3865001 -0.1386736 0.40204215 4294967295
2.3853331 -0.19976257 0.40518332 4294967295
2.3840768 -0.22468236 0.41451702 4294967295
2.386375 -0.25492445 0.41313702 4294967295
2.3904996 -0.28586507 0.41017154 4294967295
2.3871665 -0.31406969 0.41079047 4294967295
2.3838747 -0.34174263 0.40978843 4294967295
2.3859999 -0.37390867 0.40760279 4294967295
2.3887143 -0.40599445 0.40826941 4294967295
2.3903639 -0.43407208 0.41042906 4294967295
2.3891249 -0.46307972 0.40884596 4294967295
2.3770001 -0.49562827 0.40435934 4294967295
2.3843999 -0.52304637 0.40214595 4294967295
2.3970001 -0.54246902 0.40152317 4294967295
2.3883333 -0.68457246 0.40195155 4294967295
2.3759997 -0.70585454 0.40256113 4294967295
2.3883333 -0.7344647 0.40195155 4294967295
2.3916667 -0.82702696 0.4017868 4294967295
2.3881538 -0.85670298 0.40537909 4294967295
2.3827775 -0.87984246 0.4185105 4294967295
2.3710001 -0.17351066 0.39730716 4294967295
2.3743331 -0.5593785 0.39713466 4294967295
2.3792 -0.58260185 0.39688283 4294967295
2.3782001 -0.6110236 0.39693457 4294967295
2.38325 -0.64164543 0.39667326 4294967295
2.3743334 -0.7687152 0.39713466 4294967295
2.3770001 -0.79437232 0.39699668 4294967295
2.3743334 -0.8265543 0.39713466 4294967295
2.3710001 -0.84739846 0.39730716 4294967295
2.3970001 2.2215712 -0.082322896 4294967295
2.4290001 2.2315042 1.8764933 4294967295
2.4200003 2.2148139 1.8714674 4294967295
2.425143 2.1367209 1.871924 4294967295
2.4290001 2.1244261 1.8736756 4294967295
2.4290001 1.7383809 1.8764933 4294967295
2.4200003 1.5213845 1.8714674 4294967295
2.4200003 1.4933105 1.8714674 4294967295
2.4260001 1.4519829 1.8720001 4294967295
2.4290001 1.4209036 1.8746148 4294967295
2.4245002 1.4032705 1.8711625 4294967295
2.4230001 1.3236905 1.8731426 4294967295
2.4289999 1.308941 1.8753662 4294967295
2.4200001 1.2883697 1.8714674 4294967295
2.4271998 1.1807038 1.8732338 4294967295
2.4289999 1.0620975 1.8764933 4294967295
2.4245 0.82106191 1.8739803 4294967295
2.4259999 0.80373573 1.8729393 4294967295
2.4290001 2.2230506 1.865222 4294967295
2.4220004 2.2036264 1.8583702 4294967295
2.4179339 2.1745615 1.858321 4294967295
2.4205563 2.1500897 1.8642793 4294967295
2.4290001 2.0427084 1.8426793 4294967295
2.4289999 2.0233862 1.8442894 4294967295
2.4290001 2.0060766 1.8426793 4294967295
2.4207277 1.720715 1.8590909 4294967295
2.4118001 1.7008789 1.8472779 4294967295
2.4166114 1.5397969 1.8486925 4294967295
2.4238753 1.5167788 1.8633077 4294967295
2.4221003 1.4878545 1.86532 4294967295
2.4188893 1.4636213 1.8658465 4294967295
2.4203751 1.3889443 1.8604317 4294967295
2.4153602 1.3652346 1.8518126 4294967295
2.4190001 1.3354336 1.857897 4294967295
2.4258235 1.305046 1.8598125 4294967295
2.414 1.2789237 1.8529437 4294967295
2.4219999 1.2051426 1.8416691 4294967295
2.4203186 1.1866708 1.8573406 4294967295
2.4159999 1.1562543 1.8537341 4294967295
2.402 1.1394604 1.850269 4294967295
2.4158998 1.055234 1.8517823 4294967295
2.4190772 0.82117277 1.8515111 4294967295
2.4175715 0.80507642 1.8544731 4294967295
2.4168334 -0.92265773 1.8556677 4294967295
2.4290004 2.0765226 1.8263355 4294967295
2.4225788 2.0556493 1.8226157 4294967295
2.4207933 2.024754 1.8211598 4294967295
2.425539 2.0038593 1.82824 4294967295
2.4176669 1.6872575 1.833683 4294967295
2.4186368 1.6656474 1.8237537 4294967295
2.4195838 1.6361703 1.8183565 4294967295
2.4136 1.6047149 1.8174809 4294967295
2.4148827 1.5726867 1.8227887 4294967295
2.4124448 1.5542459 1.8348932 4294967295
2.4168892 1.2673963 1.8366896 4294967295
2.4118001 1.244827 1.8305027 4294967295
2.4133329 1.2163783 1.8322744 4294967295
2.402 1.1951909 1.8391229 4294967295
2.419857 1.1455209 1.8352823 4294967295
2.4125791 1.1238432 1.8307663 4294967295
2.414077 1.0960586 1.8233316 4294967295
2.4133334 1.0638156 1.825182 4294967295
2.4254 0.8196708 1.8373375 4294967295
2.4153335 0.80767488 1.8371018 4294967295
2.4147143 -0.92103767 1.8252827 4294967295
2.4290001 2.2362008 1.7863222 4294967295
2.4245002 2.0417316 1.8092847 4294967295
2.4200003 2.0351398 1.8097044 4294967295
2.4171252 -0.91013342 1.794832 4294967295
2.4290001 2.2380791 1.7731723 4294967295
2.4178891 -0.89437205 1.7618186 4294967295
2.4064999 -0.90474886 1.7773788 4294967295
2.4121249 -0.88586944 1.7348398 4294967295
2.4153333 -0.8931278 1.7082064 4294967295
2.4200001 -0.90514362 1.6955365 4294967295
2.4182 -0.91925329 1.6757493 4294967295
2.4154446 -0.9233591 1.6466055 4294967295
2.4162998 -0.91178316 1.6159725 4294967295
2.4164002 -0.90846574 1.5863076 4294967295
2.4149997 -0.90794301 1.5576987 4294967295
2.4127002 -0.90707892 1.524222 4294967295
2.402 0.5487172 1.4824476 4294967295
2.414 0.52904797 1.4928569 4294967295
2.411 -0.92043084 1.5056274 4294967295
2.418875 -0.94518149 1.4913044 4294967295
2.402 0.51527888 1.4768746 4294967295
2.4187143 -0.94741541 1.4626839 4294967295
2.4290001 2.2061436 1.4200022 4294967295
2.4159999 -0.92372769 1.4333978 4294967295
2.402 -0.93650055 1.4462228 4294967295
2.4128337 2.199832 1.4079547 4294967295
2.4163337 2.1858952 1.3978546 4294967295
2.4142499 -0.91186708 1.4061466 4294967295
2.4117506 2.2018139 1.3708327 4294967295
2.407445 2.1853123 1.3816044 4294967295
2.4130001 -0.90439862 1.3832841 4294967295
2.421 2.2295964 1.3506095 4294967295
2.4170003 2.2092228 1.3554423 4294967295
2.4093332 -0.90488702 1.3428259 4294967295
2.4171247 -0.91505015 1.3167522 4294967295
2.4063332 0.49387607 1.2831721 4294967295
2.4134288 -0.92454982 1.2910333 4294967295
2.4164445 -0.9393127 1.2758029 4294967295
2.4144001 0.5011335 1.2577273 4294967295
2.4171999 -0.95344418 1.2563444 4294967295
2.4063332 -0.96144634 1.2571344 4294967295
2.4190001 -0.92459953 1.218735 4294967295
2.4145999 -0.93915051 1.2325925 4294967295
2.4150908 -0.91586542 1.1957951 4294967295
2.4118891 -0.91018575 1.1649349 4294967295
2.4125001 -0.90140378 1.1340041 4294967295
2.414875 -0.90369499 1.1066029 4294967295
2.4290001 2.2596827 1.0677712 4294967295
2.4207001 2.2339728 1.0664663 4294967295
2.4153337 2.210536 1.0618873 4294967295
2.4123335 -0.90507752 1.0742744 4294967295
2.4155004 2.252723 1.0507264 4294967295
2.4081254 2.2339733 1.0511971 4294967295
2.414 2.1971397 1.0522232 4294967295
2.4120002 2.1865056 1.0415537 4294967295
2.4082 0.48754877 1.0435269 4294967295
2.4141428 -0.9080174 1.0424174 4294967295
2.4178569 2.2000198 1.0071542 4294967295
2.4074998 2.1852102 1.0182478 4294967295
2.4161665 0.49869126 1.0144296 4294967295
2.4136667 -0.92331153 1.0167124 4294967295
2.4267499 2.2252131 0.98139524 4294967295
2.4132497 2.2100217 0.9921245 4294967295
2.4165001 -0.92462558 0.98786032 4294967295
2.4182 -0.92541701 0.95817423 4294967295
2.4200001 -0.9350962 0.94220531 4294967295
2.402 0.49855977 0.91399658 4294967295
2.4135716 -0.94699961 0.92789662 4294967295
2.4289999 -0.96675235 0.9127897 4294967295
2.4289999 2.251229 0.88461119 4294967295
2.4116666 0.50056612 0.89598179 4294967295
2.4289999 -0.92730248 0.88461119 4294967295
2.4182501 -0.94631994 0.88510048 4294967295
2.4143999 -0.96541619 0.90032905 4294967295
2.4289999 2.2625005 0.87897551 4294967295
2.4203846 2.2341595 0.86474276 4294967295
2.4162002 0.50150704 0.86587882 4294967295
2.4178181 -0.92302233 0.86763585 4294967295
2.4064999 -0.93266636 0.87565029 4294967295
2.4289999 2.2625005 0.83388996 4294967295
2.4190004 2.2400799 0.84147793 4294967295
2.4123333 0.49976528 0.83453047 4294967295
2.4137001 -0.92369074 0.83471394 4294967295
2.402 0.49855977 0.81925476 4294967295
2.4170001 -0.92272133 0.80429304 4294967295
2.4170001 -0.92519832 0.77502227 4294967295
2.42225 0.50276279 0.74026889 4294967295
2.4170001 -0.91780752 0.74471653 4294967295
2.4230001 2.2044444 0.70569241 4294967295
2.4267499 2.1857946 0.70550722 4294967295
2.4146001 -0.90330762 0.71437907 4294967295
2.4289999 2.251229 0.67890835 4294967295
2.4267502 2.2339451 0.68129051 4294967295
2.4189999 2.2014976 0.68596411 4294967295
2.4218891 2.1846931 0.69186628 4294967295
2.4168003 -0.91142815 0.6859473 4294967295
2.4289999 2.2561603 0.65566111 4294967295
2.4272003 2.2399802 0.66020954 4294967295
2.4200001 2.2120066 0.66989738 4294967295
2.4289999 0.51543528 0.64227635 4294967295
2.4200001 0.50791067 0.66707951 4294967295
2.41325 -0.91988081 0.65408552 4294967295
2.411 -0.92602473 0.63577634 4294967295
2.4230001 -0.9418633 0.61950117 4294967295
2.4200001 -0.95755553 0.59690481 4294967295
2.411 0.51161563 0.56305522 4294967295
2.4200001 0.50791067 0.55480415 4294967295
2.411 -0.96518224 0.55186737 4294967295
2.4165001 0.49316862 0.53793257 4294967295
2.4200001 0.47561508 0.52531594 4294967295
2.4289999 0.27310041 0.52392679 4294967295
2.4289999 0.25901118 0.52392679 4294967295
2.4164002 -0.91688591 0.5283941 4294967295
2.4154 -0.94453168 0.53848195 4294967295
2.4200001 -0.96317035 0.54637146 4294967295
2.4092727 0.48939145 0.49644539 4294967295
2.4135299 0.46520138 0.50347638 4294967295
2.4191537 0.43864235 0.49671686 4294967295
2.4188638 0.34186807 0.50224125 4294967295
2.4064667 0.31523839 0.50436985 4294967295
2.4048967 0.28347296 0.50427216 4294967295
2.4069333 0.25385973 0.50434339 4294967295
2.4150665 0.22613731 0.50336927 4294967295
2.4179447 0.19674642 0.49649107 4294967295
2.4208465 0.16676226 0.49497518 4294967295
2.4248335 0.13478754 0.49298173 4294967295
2.4289999 0.11248314 0.49293047 4294967295
2.4243999 0.032961592 0.49467361 4294967295
2.4203 0.01773157 0.49471661 4294967295
2.4289999 -0.14394094 0.49011263 4294967295
2.4289999 -0.16836229 0.49105191 4294967295
2.4270003 -0.19512115 0.49264199 4294967295
2.4255385 -0.22555771 0.49362335 4294967295
2.4289999 -0.24538344 0.49011263 4294967295
2.4250002 -0.43970641 0.5001623 4294967295
2.4178462 -0.46368852 0.50125557 4294967295
2.4231765 -0.49118534 0.49812582 4294967295
2.4290001 -0.52153242 0.49480903 4294967295
2.4232502 -0.55788177 0.49545959 4294967295
2.4132607 -0.584598 0.4988443 4294967295
2.4180665 -0.61344618 0.49736512 4294967295
2.4289999 -0.63424635 0.49011263 4294967295
2.413765 -0.8898502 0.50348711 4294967295
2.411 -0.90364897 0.51830375 4294967295
2.4197407 0.49430922 0.47296646 4294967295
2.414818 0.46608987 0.47348401 4294967295
2.4073002 0.43317556 0.48200473 4294967295
2.4166429 0.40626457 0.47024125 4294967295
2.4289999 0.36327153 0.46193415 4294967295
2.4177599 0.34478351 0.47342002 4294967295
2.4052401 0.31507769 0.47365409 4294967295
2.4103332 0.28496996 0.47355595 4294967295
2.4205999 0.25529978 0.47335112 4294967295
2.4177599 0.22696561 0.47341529 4294967295
2.408107 0.19633068 0.47381228 4294967295
2.4056001 0.16442005 0.47552931 4294967295
2.4134002 0.13414627 0.47350892 4294967295
2.4252944 0.10816703 0.47228855 4294967295
2.4219999 0.033494763 0.48457929 4294967295
2.4290004 -0.14131096 0.47658694 4294967295
2.4267502 -0.1663295 0.47605836 4294967295
2.4242635 -0.19457042 0.47654858 4294967295
2.4226205 -0.22555481 0.47370735 4294967295
2.4270003 -0.24768616 0.47198704 4294967295
2.4289999 -0.4454506 0.48447692 4294967295
2.4256251 -0.46804366 0.48170844 4294967295
2.4251425 -0.4923003 0.47541285 4294967295
2.4290001 -0.52102011 0.4814029 4294967295
2.4221666 -0.55844975 0.48129556 4294967295
2.4153926 -0.58524758 0.47365156 4294967295
2.4155419 -0.61439925 0.47298697 4294967295
2.4289999 -0.63612491 0.47790194 4294967295
2.4173 -0.88637298 0.47343719 4294967295
2.4124999 0.49113449 0.44914636 4294967295
2.4086251 0.46885797 0.44950786 4294967295
2.4056666 0.39420009 0.44761848 4294967295
2.4172003 0.37551072 0.4454118 4294967295
2.4127197 0.34404984 0.4455328 4294967295
2.4075599 0.31537169 0.44568139 4294967295
2.4176333 0.28582734 0.44536954 4294967295
2.4281821 0.25559092 0.45068422 4294967295
2.4232397 0.22748587 0.44520652 4294967295
2.4144003 0.19583072 0.4454689 4294967295
2.4173999 0.16522892 0.44536424 4294967295
2.4168663 0.13434702 0.44539344 4294967295
2.4189563 0.10457263 0.44461671 4294967295
2.4217501 0.077024952 0.43823639 4294967295
2.4259999 0.044785496 0.43386221 4294967295
2.4289997 0.013053395 0.43858626 4294967295
2.4289999 -0.0049271537 0.43563426 4294967295
2.4267499 -0.20151606 0.4352445 4294967295
2.4244351 -0.22731124 0.44249019 4294967295
2.4237695 -0.2522071 0.44044089 4294967295
2.4275 -0.286529 0.43474823 4294967295
2.4232671 -0.31676668 0.43846363 4294967295
2.4245 -0.34407526 0.43602884 4294967295
2.4289999 -0.36373302 0.4337557 4294967295
2.424 -0.43720984 0.43674687 4294967295
2.4223847 -0.46347851 0.4387528 4294967295
2.4267499 -0.48304501 0.43806234 4294967295
2.424 -0.59293902 0.45205554 4294967295
2.4245002 -0.61092389 0.44726759 4294967295
2.4272003 -0.79821128 0.43720102 4294967295
2.4245002 -0.82433003 0.43673331 4294967295
2.4289999 -0.84840274 0.4337557 4294967295
2.4166 -0.8803091 0.44390711 4294967295
2.4289999 2.2568648 0.40745577 4294967295
2.4065001 0.37013423 0.42804223 4294967295
2.4064999 0.34427065 0.42618454 4294967295
2.4083333 0.31407875 0.42471671 4294967295
2.4151256 0.28552881 0.42025325 4294967295
2.4210529 0.25506508 0.41956633 4294967295
2.4122503 0.22715221 0.42246911 4294967295
2.4149046 0.1946578 0.42145887 4294967295
2.421417 0.16573691 0.41672814 4294967295
2.4175928 0.13575421 0.41838199 4294967295
2.4065001 0.10818504 0.42292839 4294967295
2.4065001 0.073280394 0.42804223 4294967295
2.4127057 0.042404491 0.42314634 4294967295
2.4197273 0.013297368 0.4177776 4294967295
2.420167 -0.012394493 0.41693109 4294967295
2.4168124 -0.04648269 0.41667747 4294967295
2.4187503 -0.07668823 0.42221105 4294967295
2.4204376 -0.10237464 0.41828078 4294967295
2.4202502 -0.13500369 0.40974304 4294967295
2.417053 -0.16714291 0.40882164 4294967295
2.4140835 -0.19345567 0.4172661 4294967295
2.4094164 -0.22197059 0.42560458 4294967295
2.4109001 -0.25475374 0.42601186 4294967295
2.4101763 -0.28459528 0.42292377 4294967295
2.4094002 -0.31532532 0.42402446 4294967295
2.4099443 -0.34596926 0.42139727 4294967295
2.4136841 -0.37410685 0.41928625 4294967295
2.4138887 -0.40565261 0.41999608 4294967295
2.4111874 -0.43482783 0.42285687 4294967295
2.4108946 -0.4658308 0.42145503 4294967295
2.4159999 -0.49295786 0.4159196 4294967295
2.4223337 -0.52196807 0.40839601 4294967295
2.4130001 -0.55541092 0.40385169 4294967295
2.4179285 -0.58647537 0.40530574 4294967295
2.4216156 -0.61416453 0.40507197 4294967295
2.419143 -0.6436944 0.40123382 4294967295
2.4087501 -0.67086631 0.40094239 4294967295
2.402 -0.74980336 0.40127605 4294967295
2.4152501 -0.76795679 0.40062112 4294967295
2.422524 -0.80249971 0.41445905 4294967295
2.4140666 -0.82488233 0.4171311 4294967295
2.4141428 -0.85520679 0.42015964 4294967295
2.4082856 -0.87468481 0.42491546 4294967295
2.4289999 2.2531075 0.39806294 4294967295
2.4210908 2.2362218 0.37735265 4294967295
2.4289999 -0.79204583 0.3999415 4294967295
2.4289999 2.2625005 0.35485595 4294967295
2.4216154 2.2387526 0.36097246 4294967295
2.4289999 2.2531075 0.19329938 4294967295
2.4289999 2.2418363 0.19329938 4294967295
2.4264286 2.2391877 0.17930156 4294967295
2.4289999 2.251229 0.15760663 4294967295
2.4289999 2.2540469 -0.062185407 4294967295
2.4254 2.2377608 -0.073700249 4294967295
2.4191539 2.2325931 -0.092208505 4294967295
2.4245 2.2569001 -0.13002145 4294967295
2.4219999 2.2459846 -0.11732382 4294967295
2.4289999 2.2549863 -0.14859939 4294967295
2.4200001 2.242888 -0.14425051 4294967295
2.4184613 2.2246115 -0.23920578 4294967295
2.4173331 2.2101777 -0.25132096 4294967295
2.415 2.2214441 -0.26054555 4294967295
2.4171114 2.2040582 -0.26434201 4294967295
2.4560003 2.2819517 1.8744768 4294967295
2.4458334 2.2611628 1.8754855 4294967295
2.4352503 2.2400713 1.8743284 4294967295
2.4390671 2.1115229 1.8764507 4294967295
