# .PCD v0.7 - Point Cloud Data file format
VERSION 0.7
FIELDS x y z rgb
SIZE 4 4 4 4
TYPE F F F U
COUNT 1 1 1 1
WIDTH 1115
HEIGHT 1
VIEWPOINT 0 0 0 1 0 0 0
POINTS 1115
DATA ascii
1.558 0.49689057 1.0900464 4294967295
1.5441902 -0.92311656 1.1053629 4294967295
1.5459999 0.49586052 1.0730979 4294967295
1.5441874 -0.92156464 1.0735605 4294967295
1.541625 0.48450258 1.0554407 4294967295
1.5451723 0.46880275 1.0430827 4294967295
1.5468048 -0.92583066 1.0479374 4294967295
1.5392727 -0.9314568 1.0387065 4294967295
1.538 0.46196461 1.0292023 4294967295
1.5442142 -0.91611135 1.0141797 4294967295
1.5376667 -0.9307043 1.0279009 4294967295
1.5454807 -0.91642469 0.98726451 4294967295
1.5443511 -0.92472529 0.95604992 4294967295
1.5355 0.78363037 0.91080809 4294967295
1.5346667 0.77904874 0.91296721 4294967295
1.5502 0.49151754 0.91959447 4294967295
1.5444419 -0.92606962 0.92354912 4294967295
1.5380588 0.81337488 0.88752127 4294967295
1.5429529 0.79375112 0.89465952 4294967295
1.5532382 0.77697271 0.89368016 4294967295
1.5445626 0.48431036 0.89519626 4294967295
1.5441493 -0.91826802 0.89471734 4294967295
1.5391774 0.81672615 0.86333513 4294967295
1.5472233 0.79299104 0.86523426 4294967295
1.5556666 0.77828103 0.87262595 4294967295
1.5441 0.48708162 0.86641699 4294967295
1.5446886 -0.92082632 0.86538148 4294967295
1.533 -0.93025446 0.85681951 4294967295
1.538623 0.81932807 0.83508885 4294967295
1.5452315 0.79566789 0.83555281 4294967295
1.5433848 0.4901503 0.83334112 4294967295
1.5446666 -0.92035556 0.83735597 4294967295
1.5383908 0.82016957 0.80507207 4294967295
1.5455997 0.7960068 0.80531096 4294967295
1.540972 0.48817986 0.80233836 4294967295
1.5369999 0.47949478 0.80955482 4294967295
1.5450555 -0.91545475 0.80369031 4294967295
1.5385208 0.81773317 0.77533847 4294967295
1.5463459 0.79360127 0.77516824 4294967295
1.553 0.77995068 0.76212507 4294967295
1.545125 -0.92172277 0.7748915 4294967295
1.5346154 0.81371391 0.75255007 4294967295
1.5439204 0.79525781 0.74576902 4294967295
1.544 0.49242559 0.730272 4294967295
1.543774 -0.91909897 0.7469961 4294967295
1.5404195 0.81789547 0.70844501 4294967295
1.5477337 0.80037326 0.71657491 4294967295
1.5427648 0.48675635 0.71326274 4294967295
1.5435833 -0.91845632 0.71185529 4294967295
1.5465941 0.82157046 0.68577117 4294967295
1.5528541 0.79983318 0.68651688 4294967295
1.5414585 0.48445231 0.68521857 4294967295
1.545 -0.92291516 0.68482512 4294967295
1.5441945 0.82427388 0.65436578 4294967295
1.5493159 0.79978043 0.65374404 4294967295
1.5400571 0.48564211 0.65510559 4294967295
1.5444466 -0.92520344 0.65393716 4294967295
1.535 -0.93146813 0.64000976 4294967295
1.5431422 0.82486629 0.62484336 4294967295
1.5475147 0.79643315 0.62450802 4294967295
1.537697 0.48521999 0.62465298 4294967295
1.5482974 -0.92573702 0.62415856 4294967295
1.5370833 -0.93272775 0.62412477 4294967295
1.5396448 0.8242293 0.5962429 4294967295
1.5475277 0.79542929 0.59580368 4294967295
1.5391872 0.48552874 0.59569734 4294967295
1.5502307 -0.92520511 0.60356379 4294967295
1.5435385 -0.93929523 0.5943796 4294967295
1.5448462 0.84395331 0.55723202 4294967295
1.5418844 0.82394111 0.56590694 4294967295
1.5492574 0.79880208 0.56497711 4294967295
1.5408001 0.48659256 0.56569088 4294967295
1.5493332 -0.92756468 0.55366188 4294967295
1.54329 -0.93763435 0.5668593 4294967295
1.5453076 0.84337729 0.54097724 4294967295
1.5453379 0.82475519 0.53491861 4294967295
1.5527091 0.80153471 0.53573948 4294967295
1.5460454 0.49062386 0.53731388 4294967295
1.5526364 -0.92676675 0.5451026 4294967295
1.5441394 -0.93482101 0.53406894 4294967295
1.5388571 0.81750399 0.50668401 4294967295
1.5496962 0.80209148 0.50408804 4294967295
1.5465 0.51475173 0.50635636 4294967295
1.5463998 -0.92633897 0.50043958 4294967295
1.5443333 -0.93233156 0.51622868 4294967295
1.5353663 0.81549704 0.47272867 4294967295
1.5473143 0.7987572 0.47295937 4294967295
1.5451163 -0.92524135 0.47522861 4294967295
1.5361818 0.81610334 0.44537184 4294967295
1.5448235 0.79436922 0.44537401 4294967295
1.553 0.77995068 0.44684288 4294967295
1.5447907 -0.92462564 0.44298089 4294967295
1.5356841 0.81250829 0.41484758 4294967295
1.545146 0.79446095 0.41528982 4294967295
1.5503334 0.77861148 0.40380713 4294967295
1.5450704 -0.92274541 0.41591698 4294967295
1.5400554 0.81711924 0.3841157 4294967295
1.5432189 0.79449975 0.38520747 4294967295
1.5479501 0.77633417 0.38441923 4294967295
1.5442497 -0.92271858 0.38492733 4294967295
1.5424254 0.81865257 0.3543691 4294967295
1.5424222 0.7944926 0.35450011 4294967295
1.546682 0.7770983 0.35661232 4294967295
1.5407369 0.48873386 0.34676754 4294967295
1.5438224 -0.91356003 0.35438177 4294967295
1.5507997 0.84145141 0.31777635 4294967295
1.5454497 0.82451612 0.32593983 4294967295
1.5405509 0.79410249 0.32393801 4294967295
1.5434445 0.77694201 0.32554126 4294967295
1.544152 0.48995623 0.3247481 4294967295
1.5450877 -0.91868925 0.32615116 4294967295
1.5419463 0.8238467 0.29602605 4294967295
1.5406481 0.79453295 0.2956242 4294967295
1.5451429 0.77616996 0.29441851 4294967295
1.5479165 0.49455532 0.29594922 4294967295
1.5458397 -0.92467165 0.29596522 4294967295
1.5354999 -0.93176532 0.28438216 4294967295
1.5436951 0.81849021 0.26492783 4294967295
1.5459198 0.7945568 0.26511046 4294967295
1.5523748 0.77783227 0.26497519 4294967295
1.5445001 0.48406389 0.27189046 4294967295
1.5433847 0.47706911 0.25999936 4294967295
1.5445573 -0.92073256 0.2647914 4294967295
1.536765 -0.93253416 0.27038473 4294967295
1.53975 0.8170594 0.23603067 4294967295
1.5404464 0.79386985 0.23531944 4294967295
1.5451999 0.7757439 0.23469818 4294967295
1.5444 0.48250309 0.24014449 4294967295
1.5485001 0.47768569 0.2476629 4294967295
1.5434165 -0.92238283 0.23692274 4294967295
1.5365289 0.81592607 0.20467207 4294967295
1.5389359 0.79476255 0.20544103 4294967295
1.5448751 0.77586657 0.20527437 4294967295
1.5427103 -0.92283803 0.20073146 4294967295
1.5384374 0.81725174 0.17446348 4294967295
1.5440986 0.79514331 0.1748074 4294967295
1.5505 0.77689493 0.17534497 4294967295
1.5435187 -0.92168403 0.17631379 4294967295
1.545 0.84323621 0.135759 4294967295
1.5430622 0.82128727 0.14261526 4294967295
1.5453463 0.79401726 0.14533821 4294967295
1.550889 0.77709019 0.1446937 4294967295
1.5434998 -0.91359568 0.14540866 4294967295
1.5440001 0.8425979 0.12575504 4294967295
1.5396495 0.82175505 0.1184704 4294967295
1.5441095 0.79468554 0.11452109 4294967295
1.5503749 0.77683222 0.12141877 4294967295
1.548 0.48291636 0.10228249 4294967295
1.5374999 0.47786421 0.10154861 4294967295
1.5480001 -0.89803863 0.1013892 4294967295
1.5434612 -0.90618908 0.11472198 4294967295
1.5351865 0.82322448 0.083455652 4294967295
1.5439768 0.79429841 0.084869117 4294967295
1.5447501 0.46338752 0.097489595 4294967295
1.5454444 0.43989304 0.093817502 4294967295
1.5441667 0.40320569 0.090484589 4294967295
1.5434998 0.37337613 0.084524304 4294967295
1.5446668 0.34569329 0.088854641 4294967295
1.5431538 0.31836563 0.089277089 4294967295
1.5455002 0.28461391 0.09011957 4294967295
1.545077 0.25725994 0.092325151 4294967295
1.5430001 0.22539605 0.08931157 4294967295
1.5424999 0.19418341 0.088379979 4294967295
1.5404 0.16747902 0.082896769 4294967295
1.5366 0.13209285 0.08112222 4294967295
1.5438334 0.10224653 0.084606528 4294967295
1.5411428 0.073411137 0.088303834 4294967295
1.5417001 0.043301873 0.087359011 4294967295
1.5438572 0.014951633 0.08584711 4294967295
1.5448126 -0.014492291 0.087019503 4294967295
1.5445454 -0.044935085 0.085953474 4294967295
1.5427272 -0.077594474 0.087124974 4294967295
1.5437059 -0.10495508 0.0871315 4294967295
1.5435383 -0.13403395 0.088897854 4294967295
1.5415881 -0.16561657 0.087817699 4294967295
1.5443199 -0.19541357 0.088958651 4294967295
1.5413043 -0.2261287 0.089334607 4294967295
1.54075 -0.25514597 0.089952439 4294967295
1.5428261 -0.28457642 0.090929508 4294967295
1.5426521 -0.3145611 0.089736402 4294967295
1.5448824 -0.34392989 0.084579647 4294967295
1.543579 -0.37571436 0.085200518 4294967295
1.5413336 -0.40484229 0.090382278 4294967295
1.5447599 -0.43560812 0.092421323 4294967295
1.5419258 -0.4642182 0.09042573 4294967295
1.5414118 -0.49555895 0.086936682 4294967295
1.5405 -0.52425903 0.090147495 4294967295
1.5404503 -0.55341929 0.09074828 4294967295
1.5413479 -0.58376747 0.089627802 4294967295
1.5447406 -0.61479539 0.088838637 4294967295
1.5429584 -0.6445238 0.08933723 4294967295
1.53995 -0.67578048 0.08695671 4294967295
1.5435767 -0.70551658 0.085447162 4294967295
1.5433928 -0.7343564 0.080140561 4294967295
1.5436294 -0.76464188 0.075352848 4294967295
1.5441763 -0.79528981 0.082992494 4294967295
1.5412555 -0.82430643 0.086327344 4294967295
1.5441819 -0.85440469 0.08693853 4294967295
1.5422609 -0.88505083 0.091632903 4294967295
1.531 -0.90062338 0.09976548 4294967295
1.5355996 0.818717 0.058923542 4294967295
1.5441253 0.79632783 0.055461913 4294967295
1.533769 0.81354004 0.024689704 4294967295
1.5432048 0.79582334 0.02339828 4294967295
1.553 0.77995068 0.010852695 4294967295
1.5391668 1.3556855 -0.016747296 4294967295
1.5429776 1.3303357 -0.009627521 4294967295
1.543926 1.3092483 -0.015876532 4294967295
1.5533999 1.2688774 -0.018108964 4294967295
1.5405 1.2479317 -0.015868485 4294967295
1.54456 1.2081445 -0.0088607073 4294967295
1.5453058 1.1855893 -0.0097888112 4294967295
1.5469248 1.1555325 -0.0086684227 4294967295
1.5477289 1.1254553 -0.0080416799 4294967295
1.5458233 1.0958169 -0.0052573681 4294967295
1.5441626 1.0652783 -0.0023867488 4294967295
1.5454874 1.0373865 -0.0058179498 4294967295
1.5448537 1.0042648 -0.0079550743 4294967295
1.5435652 0.97669905 -0.0031511188 4294967295
1.5339999 0.95726454 -0.0024946332 4294967295
1.537652 0.78804892 0.0050358176 4294967295
1.5437499 0.76543564 0.00073379278 4294967295
1.5453261 0.73593026 -0.010854423 4294967295
1.5466 1.2934455 -0.020773709 4294967295
1.5426315 1.276198 -0.021716297 4294967295
1.531 1.2555506 -0.02100867 4294967295
1.5437118 0.72635311 -0.035889626 4294967295
1.5564545 0.71832323 -0.034601033 4294967295
1.5451773 0.73117012 -0.064343214 4294967295
1.5478789 0.73360538 -0.091068208 4294967295
1.5788 -0.91993654 1.3976605 4294967295
1.5723791 -0.91814977 1.3760629 4294967295
1.5743334 -0.92050767 1.3451083 4294967295
1.5743201 -0.92594779 1.3141356 4294967295
1.5708458 -0.92741138 1.28636 4294967295
1.5882499 -0.93107522 1.2816799 4294967295
1.5748148 -0.92597127 1.2551897 4294967295
1.5714444 -0.9256168 1.2319009 4294967295
1.5793078 -0.93551123 1.2210171 4294967295
1.5762612 -0.93677026 1.1949725 4294967295
1.5599999 -0.92854124 1.1685966 4294967295
1.5759999 -0.93227679 1.164156 4294967295
1.5748461 -0.92625326 1.1338503 4294967295
1.589 -0.93105561 1.1493165 4294967295
1.5796667 0.49645656 1.0930798 4294967295
1.572238 -0.9262532 1.1056497 4294967295
1.586 -0.93113416 1.104889 4294967295
1.5736876 0.49092367 1.0786694 4294967295
1.577 0.47311649 1.0635297 4294967295
1.5719599 -0.92149347 1.0728116 4294967295
1.5675714 0.46409717 1.0525103 4294967295
1.5726665 -0.92580169 1.0450132 4294967295
1.5783333 -0.93089557 1.046213 4294967295
1.5716153 -0.91496074 1.0153331 4294967295
1.5737823 -0.92148668 0.98484528 4294967295
1.5829999 -0.93121278 0.97431719 4294967295
1.562 -0.92791736 0.95380777 4294967295
1.5784706 -0.93392396 0.95448977 4294967295
1.5803334 0.49239233 0.91671854 4294967295
1.5748146 -0.92352933 0.92377818 4294967295
1.5829999 -0.93119889 0.93941844 4294967295
1.5681331 0.77152324 0.88610768 4294967295
1.5723002 0.48648572 0.8979218 4294967295
1.5746665 -0.91465223 0.89519441 4294967295
1.574 0.7848618 0.85768056 4294967295
1.5721248 0.77569467 0.87224758 4294967295
1.5717778 0.49276948 0.86535394 4294967295
1.5745001 -0.91522795 0.86367714 4294967295
1.5760587 0.79302734 0.83594131 4294967295
1.5732 0.49223953 0.84228742 4294967295
1.5728401 -0.92069507 0.83621955 4294967295
1.5730498 0.78891176 0.804667 4294967295
1.571 0.49010167 0.79591382 4294967295
1.576842 -0.92255735 0.7999965 4294967295
1.589 -0.93105561 0.81382215 4294967295
1.5763042 0.78289187 0.77552158 4294967295
1.5599999 0.77984679 0.76864564 4294967295
1.5753143 -0.91820842 0.77693057 4294967295
1.573909 0.78622383 0.744084 4294967295
1.5599999 0.77984679 0.75778723 4294967295
1.577 0.49563241 0.73476613 4294967295
1.5725788 -0.92410898 0.74682438 4294967295
1.5736097 0.78982532 0.71372986 4294967295
1.5708333 0.4906545 0.71814686 4294967295
1.5716469 -0.92495346 0.71386433 4294967295
1.589 -0.93105561 0.71427989 4294967295
1.5732856 0.79106164 0.68619853 4294967295
1.5733159 -0.92646527 0.68527102 4294967295
1.589 -0.93105567 0.68552321 4294967295
1.5733199 0.79422778 0.65717208 4294967295
1.5704285 -0.92745239 0.65658665 4294967295
1.5833334 -0.93140888 0.649297 4294967295
1.5682665 0.78882307 0.62659544 4294967295
1.5719472 -0.92623127 0.62215042 4294967295
1.5826668 -0.9310059 0.63331693 4294967295
1.5758573 0.79071677 0.59323132 4294967295
1.5646667 0.48449558 0.59150815 4294967295
1.5742667 -0.92556375 0.60216117 4294967295
1.5764062 -0.94067401 0.58757877 4294967295
1.5726296 0.7905997 0.56471217 4294967295
1.5662501 0.48679793 0.56343955 4294967295
1.5734285 -0.92660797 0.55383545 4294967295
1.576346 -0.93923163 0.56798565 4294967295
1.5686285 0.78944409 0.53408587 4294967295
1.5741667 0.49108958 0.53894961 4294967295
1.5758919 -0.92493355 0.53518635 4294967295
1.5661538 -0.93219924 0.5286814 4294967295
1.568421 0.79169905 0.50673258 4294967295
1.567 0.49611595 0.50207716 4294967295
1.5734285 -0.92451859 0.50659007 4294967295
1.5645 -0.93121397 0.51799214 4294967295
1.5686666 0.79022747 0.47763574 4294967295
1.5737857 -0.92576927 0.477694 4294967295
1.5825 -0.93091059 0.46381506 4294967295
1.5747501 0.78722036 0.44398364 4294967295
1.5724499 -0.92461509 0.44043785 4294967295
1.5804285 -0.93073958 0.45183119 4294967295
1.5727142 0.78620267 0.41673806 4294967295
1.5599999 0.77984679 0.40307954 4294967295
1.5744827 -0.91862315 0.41383535 4294967295
1.5735385 -0.92408478 0.38592237 4294967295
1.5650001 0.78234631 0.34279102 4294967295
1.5745001 0.48661879 0.34354943 4294967295
1.5747081 -0.91353589 0.35418409 4294967295
1.56925 0.78447092 0.3241066 4294967295
1.5748235 0.48547664 0.32310292 4294967295
1.5752069 -0.91652346 0.32519788 4294967295
1.5650001 0.78234631 0.30648267 4294967295
1.5599999 0.77984679 0.30173451 4294967295
1.5732591 0.48875844 0.29475266 4294967295
1.5747499 -0.92416728 0.29351699 4294967295
1.5751429 0.48406768 0.26981488 4294967295
1.5599999 0.47943109 0.26915932 4294967295
1.5740417 -0.91984028 0.26766849 4294967295
1.5775001 0.48848683 0.23520869 4294967295
1.5700001 -0.9271934 0.24206737 4294967295
1.5780001 -0.93312144 0.23580116 4294967295
1.5698572 -0.92606443 0.19784027 4294967295
1.57625 -0.9354682 0.20711812 4294967295
1.5749131 -0.92310166 0.17461586 4294967295
1.5756818 -0.92074257 0.14583254 4294967295
1.5692501 0.78628641 0.10383251 4294967295
1.566 0.4958086 0.1046921 4294967295
1.5740952 -0.91361839 0.11507887 4294967295
1.5738635 0.78626698 0.083859861 4294967295
1.5599999 0.77984679 0.073708147 4294967295
1.5780001 0.49044672 0.097848445 4294967295
1.5723749 0.46862504 0.093881428 4294967295
1.5599999 0.43599749 0.091805458 4294967295
1.5690001 0.4094013 0.087521523 4294967295
1.5764 0.37477171 0.079988867 4294967295
1.5803334 0.34084228 0.086224288 4294967295
1.5647501 0.31027481 0.084151924 4294967295
1.5761666 0.25581747 0.087367952 4294967295
1.5666667 0.22400597 0.086340636 4294967295
1.5711428 0.19379678 0.08353585 4294967295
1.5746666 0.16972479 0.076819181 4294967295
1.5758001 0.10699093 0.079425007 4294967295
1.56925 0.07629852 0.085625559 4294967295
1.5703334 0.046551995 0.085325688 4294967295
1.5806665 0.010871042 0.08246538 4294967295
1.57075 -0.0074371584 0.085210353 4294967295
1.5649999 -0.045537002 0.083170891 4294967295
1.5744286 -0.078684852 0.085240155 4294967295
1.5746363 -0.10859467 0.088791788 4294967295
1.5752728 -0.13289821 0.088617951 4294967295
1.566 -0.16546787 0.086525172 4294967295
1.581 -0.19638245 0.086041272 4294967295
1.5783334 -0.22719103 0.086773217 4294967295
1.5691251 -0.25499034 0.089300752 4294967295
1.5723636 -0.28621122 0.089749038 4294967295
1.5755455 -0.31599966 0.088880152 4294967295
1.5742856 -0.34164649 0.083722234 4294967295
1.5723333 -0.37347487 0.081738472 4294967295
1.5685 -0.41865268 0.089472353 4294967295
1.5764999 -0.43549439 0.089119852 4294967295
1.5764 -0.46462286 0.089871675 4294967295
1.5763334 -0.49386853 0.086114228 4294967295
1.5697271 -0.522708 0.089135498 4294967295
1.566375 -0.55620676 0.090055615 4294967295
1.5648749 -0.5869875 0.090928167 4294967295
1.5752857 -0.61600763 0.087609738 4294967295
1.57725 -0.64422369 0.087070614 4294967295
1.5727144 -0.67231363 0.08571732 4294967295
1.585 -0.70378637 0.081265897 4294967295
1.5797777 -0.73501766 0.081904262 4294967295
1.572 -0.7645123 0.07617712 4294967295
1.5747499 -0.79479671 0.079309821 4294967295
1.5728123 -0.82779014 0.08943525 4294967295
1.5722142 -0.85555124 0.090285242 4294967295
1.5744739 -0.88618618 0.091300011 4294967295
1.5799999 -0.90561986 0.097319186 4294967295
1.5714582 0.78570861 0.05615288 4294967295
1.5725263 0.79013449 0.02424255 4294967295
1.574357 1.3265697 -0.01284647 4294967295
1.572 1.3087076 -0.017238021 4294967295
1.5676 1.2790241 -0.017207026 4294967295
1.5689999 1.2047913 -0.0010579228 4294967295
1.5667644 1.185846 -0.0024155974 4294967295
1.5651875 1.1558005 -0.001986742 4294967295
1.5661428 1.1275957 0.0003233552 4294967295
1.5599999 1.1019791 0.0049383044 4294967295
1.5682223 1.0552154 0.0018247366 4294967295
1.575212 1.0349487 -0.0032763481 4294967295
1.5691737 1.0068381 0.0011308193 4294967295
1.577 0.78346652 0.0078675747 4294967295
1.5740001 0.76489973 0.00031292439 4294967295
1.5740452 0.73555177 -0.012974858 4294967295
1.585 1.3255775 -0.021703243 4294967295
1.5761763 1.3063457 -0.023196042 4294967295
1.566 1.287887 -0.022476435 4294967295
1.57425 0.72212511 -0.021670759 4294967295
1.573073 0.71389472 -0.03559339 4294967295
1.57315 0.72306806 -0.069106936 4294967295
1.574625 0.7177195 -0.054677486 4294967295
1.5755882 0.72977036 -0.096323252 4294967295
1.5820001 0.73027074 -0.11365879 4294967295
1.6159999 -0.90750492 1.4224675 4294967295
1.6039599 -0.91567117 1.4042709 4294967295
1.6041398 -0.92172718 1.3770399 4294967295
1.6070434 -0.92749661 1.3449638 4294967295
1.6025715 -0.93076283 1.3435335 4294967295
1.6033895 -0.92311722 1.3143394 4294967295
1.594 -0.93028694 1.3288176 4294967295
1.6056595 -0.92430604 1.2855753 4294967295
1.5947499 -0.9302606 1.2834051 4294967295
1.602681 -0.92432958 1.2558303 4294967295
1.597 -0.93018168 1.2414124 4294967295
1.6136 -0.92749578 1.2189484 4294967295
1.6042641 -0.93638808 1.2251604 4294967295
1.6095876 -0.91773099 1.1933348 4294967295
1.5996 -0.93587494 1.1951876 4294967295
1.6104783 -0.92364371 1.1668367 4294967295
1.5983199 -0.93398511 1.1666536 4294967295
1.6044188 -0.92585695 1.1344569 4294967295
1.6 -0.93007642 1.1351117 4294967295
1.6056668 0.49096146 1.0938163 4294967295
1.6088001 -0.92785949 1.1040084 4294967295
1.5988234 -0.93156403 1.1084714 4294967295
1.5982223 0.48581204 1.083339 4294967295
1.602 0.47046724 1.0737953 4294967295
1.6029501 -0.92469966 1.0742188 4294967295
1.604381 -0.92799741 1.0479915 4294967295
1.5957144 -0.93075049 1.0530682 4294967295
1.6038826 -0.92289996 1.0107162 4294967295
1.6073513 -0.92485356 0.98682255 4294967295
1.6007057 -0.93331218 0.97523963 4294967295
1.608 0.50537533 0.94418383 4294967295
1.609158 -0.92300433 0.95265001 4294967295
1.6 -0.93493074 0.95680702 4294967295
1.6059229 0.49310192 0.92601228 4294967295
1.6043212 -0.91905916 0.92552519 4294967295
1.592 0.76875335 0.88209337 4294967295
1.6051998 0.49281812 0.8965131 4294967295
1.6034783 -0.91403031 0.8940562 4294967295
1.60384 0.78760213 0.85897779 4294967295
1.6038518 0.77239865 0.87112367 4294967295
1.6006666 0.49780107 0.86333066 4294967295
1.6034813 -0.91270936 0.86540627 4294967295
1.6042399 0.79792905 0.83628726 4294967295
1.6048419 -0.92168665 0.83457029 4294967295
1.597 -0.93018168 0.82456815 4294967295
1.60312 0.79245996 0.80586958 4294967295
1.6036001 0.50026441 0.79791498 4294967295
1.6039217 -0.91904616 0.80520272 4294967295
1.5953332 -0.93044257 0.81561196 4294967295
1.6038001 0.78628814 0.77674305 4294967295
1.6034039 -0.91865098 0.77397573 4294967295
1.6 -0.93007642 0.76017207 4294967295
1.5996428 0.78559309 0.74328643 4294967295
1.6076363 0.50016761 0.73928303 4294967295
1.6107908 -0.92390203 0.74518061 4294967295
1.6008235 -0.93186063 0.74302709 4294967295
1.5971514 0.78481442 0.71650934 4294967295
1.6042501 0.77637422 0.7045157 4294967295
1.6033334 0.49583447 0.72532851 4294967295
1.6114634 -0.92477965 0.71557069 4294967295
1.5989 -0.93184072 0.71419936 4294967295
1.598878 0.78714257 0.68153918 4294967295
1.6041906 0.7753458 0.68652248 4294967295
1.6088966 -0.9264856 0.68595028 4294967295
1.5974118 -0.93074769 0.68304265 4294967295
1.6043786 0.79456162 0.65711021 4294967295
1.6090002 -0.92676491 0.65405834 4294967295
1.5964168 -0.93168974 0.65407145 4294967295
1.6017392 0.79681802 0.62534899 4294967295
1.6058573 -0.92635435 0.62337965 4294967295
1.5966668 -0.93101323 0.63330388 4294967295
1.604375 0.79644156 0.59518367 4294967295
1.6064254 -0.9249016 0.59634399 4294967295
1.5956923 -0.93439549 0.58466381 4294967295
1.6049414 0.79639179 0.56464452 4294967295
1.6068573 -0.92605263 0.5636223 4294967295
1.596143 -0.93549103 0.5708555 4294967295
1.6046665 0.79446715 0.54096711 4294967295
1.5989999 0.49586651 0.53332967 4294967295
1.6025816 -0.91910213 0.53489393 4294967295
1.604 0.79810429 0.49547821 4294967295
1.6018571 0.49786305 0.50638753 4294967295
1.6036359 -0.91605002 0.50572538 4294967295
1.6036999 0.79721481 0.47757339 4294967295
1.6044613 -0.91980392 0.47683212 4294967295
1.5949999 -0.93086475 0.46429235 4294967295
1.6013998 0.79533339 0.44270307 4294967295
1.6064255 -0.92284578 0.4458428 4294967295
1.5970668 -0.931575 0.45192865 4294967295
1.6061999 0.79697239 0.42010912 4294967295
1.6034999 -0.91558325 0.41427663 4294967295
1.6046267 -0.91961402 0.3860659 4294967295
1.6 -0.93007642 0.37780795 4294967295
1.596 0.49049488 0.3448365 4294967295
1.6041818 -0.91674829 0.35527921 4294967295
1.6008002 0.48378679 0.32184115 4294967295
1.6113334 0.47900239 0.32258999 4294967295
1.6036551 -0.912274 0.32328314 4294967295
1.6032727 0.4866246 0.29704154 4294967295
1.604051 -0.91592389 0.29586458 4294967295
1.6050769 0.48754543 0.26851508 4294967295
1.6021214 -0.92148703 0.2672295 4294967295
1.6017779 0.49227673 0.23392209 4294967295
1.592 -0.92911971 0.24923903 4294967295
1.6048889 -0.94239795 0.23301038 4294967295
1.6043333 -0.94437951 0.20311695 4294967295
1.6045001 -0.92895192 0.17032355 4294967295
1.605091 -0.93098772 0.18032071 4294967295
1.6045556 -0.92525876 0.1452519 4294967295
1.6059196 -0.91761351 0.11311063 4294967295
1.6025262 0.79130584 0.081309378 4294967295
1.605091 0.49328205 0.093316019 4294967295
1.6064444 0.4672012 0.087346405 4294967295
1.6005001 0.43431848 0.084402323 4294967295
1.6047271 0.40651444 0.079530656 4294967295
1.6072726 0.37394994 0.078155696 4294967295
1.6046667 0.3423728 0.082649589 4294967295
1.599 0.30777767 0.077390641 4294967295
1.6070001 0.27948824 0.084509104 4294967295
1.6038001 0.2543641 0.08276403 4294967295
1.604286 0.23302045 0.080721647 4294967295
1.608 0.18638432 0.074899405 4294967295
1.6045001 0.17480294 0.072145492 4294967295
1.592 0.12358811 0.071940839 4294967295
1.603 0.09965799 0.078144968 4294967295
1.60375 0.074273512 0.081665963 4294967295
1.6031667 0.046956647 0.081514895 4294967295
1.6033999 0.016948037 0.079155028 4294967295
1.604 -0.011320898 0.079728186 4294967295
1.603 -0.077311285 0.080934793 4294967295
1.6037775 -0.1047606 0.086831629 4294967295
1.6055382 -0.13381934 0.086192131 4294967295
1.604923 -0.16300201 0.081490487 4294967295
1.6105715 -0.19367546 0.082733124 4294967295
1.6086251 -0.22594357 0.084065169 4294967295
1.6021053 -0.25653228 0.086521 4294967295
1.6034117 -0.28431216 0.087127447 4294967295
1.6033334 -0.3173838 0.086527765 4294967295
1.6032307 -0.34507436 0.081382096 4294967295
1.604 -0.37414706 0.077877253 4294967295
1.6013333 -0.40014103 0.080460131 4294967295
1.6005715 -0.43755326 0.085450828 4294967295
1.6035556 -0.46705833 0.086881369 4294967295
1.6021999 -0.49528429 0.083949357 4294967295
1.6035999 -0.52734196 0.083933562 4294967295
1.6042666 -0.55363345 0.085371852 4294967295
1.6005454 -0.58670908 0.085409522 4294967295
1.6026666 -0.61630076 0.085802972 4294967295
1.6078461 -0.64480269 0.084133118 4294967295
1.6034546 -0.67639279 0.082250834 4294967295
1.608 -0.70340472 0.079463929 4294967295
1.6044443 -0.7328788 0.079196274 4294967295
1.6032858 -0.76749849 0.075951785 4294967295
1.6035 -0.7955578 0.075224608 4294967295
1.6048695 -0.82555515 0.084839731 4294967295
1.6034168 -0.85577965 0.090907097 4294967295
1.604467 -0.88662499 0.092400253 4294967295
1.6022221 -0.90594608 0.096335948 4294967295
1.6042725 0.7894423 0.054792494 4294967295
1.609 0.16039716 0.06903097 4294967295
1.6052002 0.79970211 0.024530172 4294967295
1.5978 1.3288598 -0.016810238 4294967295
1.5976667 1.3127033 -0.017381132 4294967295
1.5948572 1.0552337 -0.00075143576 4294967295
1.5935 1.039687 -0.00011253357 4294967295
1.602923 0.7895633 0.0027859807 4294967295
1.6026666 0.76546443 -0.0071597695 4294967295
1.6030302 0.73427099 -0.014663815 4294967295
1.612 0.71981901 -0.01971066 4294967295
1.59525 1.3267403 -0.022890329 4294967295
1.5927999 1.3121445 -0.02214998 4294967295
1.5964999 0.72215283 -0.021922469 4294967295
1.6016191 0.71481413 -0.027887344 4294967295
1.5955001 0.72216225 -0.073413908 4294967295
1.6012857 0.71687722 -0.068161964 4294967295
1.5965185 0.72483319 -0.095874429 4294967295
1.6056411 0.71382004 -0.097996116 4294967295
1.5937499 0.72368294 -0.11389965 4294967295
1.5971667 0.71195406 -0.11417764 4294967295
1.6366364 -0.91235048 1.4274181 4294967295
1.6352142 -0.91855639 1.4044406 4294967295
1.6306924 -0.92519796 1.3811901 4294967295
1.6395882 -0.93292934 1.3698404 4294967295
1.6357082 -0.9215467 1.3406379 4294967295
1.63 -0.93129075 1.3557142 4294967295
1.6336448 -0.91965687 1.3156514 4294967295
1.6339598 -0.92311078 1.2852279 4294967295
1.6286668 -0.92405909 1.2638997 4294967295
1.6392499 -0.93417424 1.2500379 4294967295
1.6349444 -0.92021942 1.2185018 4294967295
1.6310713 -0.93324995 1.2319274 4294967295
1.6321921 -0.91032213 1.1930516 4294967295
1.6344544 -0.92181236 1.1645415 4294967295
1.6344615 -0.92543632 1.1381521 4294967295
1.6450001 -0.93180525 1.1279854 4294967295
1.6322 0.48571539 1.0990285 4294967295
1.6409999 0.4738577 1.0924931 4294967295
1.6277142 -0.92837298 1.1004242 4294967295
1.6403999 -0.93273813 1.1087534 4294967295
1.6300001 0.47065499 1.086118 4294967295
1.6292001 -0.92612106 1.0767825 4294967295
1.6408889 -0.93225318 1.0708992 4294967295
1.6383334 -0.9375658 1.0467649 4294967295
1.6338181 -0.92627275 1.0071328 4294967295
1.6378 -0.93227971 1.0204301 4294967295
1.6346333 -0.92477322 0.98444432 4294967295
1.64 0.51162744 0.95452553 4294967295
1.6377501 0.49997461 0.94537717 4294967295
1.6334193 -0.91988999 0.95575964 4294967295
1.6331179 0.48917463 0.92940396 4294967295
1.6358749 -0.9170692 0.92558956 4294967295
1.6344286 0.49850628 0.89752883 4294967295
1.6332916 -0.91293591 0.89526677 4294967295
1.636353 0.79254431 0.85695934 4294967295
1.6273333 0.77700907 0.86369741 4294967295
1.6351999 0.50254208 0.86866355 4294967295
1.6340526 -0.91494048 0.86384404 4294967295
1.6352942 0.8034128 0.83509588 4294967295
1.6349281 -0.91933727 0.83489919 4294967295
1.6337999 0.79676229 0.8059302 4294967295
1.63 0.50280714 0.80251265 4294967295
1.6332222 -0.91822135 0.8057946 4294967295
1.6355 0.79367375 0.77345908 4294967295
1.6338696 -0.92040914 0.7736578 4294967295
1.6386666 0.79381138 0.74445587 4294967295
1.638 0.51289904 0.75447482 4294967295
1.6366668 0.50172061 0.74205053 4294967295
1.632318 -0.91345066 0.7437582 4294967295
1.6339999 0.78651023 0.71599066 4294967295
1.62 0.77977151 0.71055275 4294967295
1.6340001 0.49838218 0.7182858 4294967295
1.6332747 -0.91860485 0.716645 4294967295
1.6365999 0.78319287 0.67453158 4294967295
1.625 0.7765193 0.679097 4294967295
1.6240001 0.49533212 0.69783306 4294967295
1.6304762 -0.9263314 0.68783921 4294967295
1.6440001 -0.93123782 0.67905438 4294967295
1.6335416 0.79512125 0.65733397 4294967295
1.638 0.49960223 0.65186298 4294967295
1.627875 -0.92714727 0.65503395 4294967295
1.6431428 -0.93118852 0.65608042 4294967295
1.6325556 0.80432892 0.62786257 4294967295
1.6339997 -0.92466575 0.62486851 4294967295
1.6344668 0.80391121 0.59570432 4294967295
1.6333332 -0.92176652 0.59564841 4294967295
1.625625 0.80085939 0.5688383 4294967295
1.648 0.49882865 0.57045853 4294967295
1.6323 -0.92686605 0.5652324 4294967295
1.6445999 -0.93081397 0.56844354 4294967295
1.648 0.80854356 0.53604925 4294967295
1.6333333 0.49817887 0.53019959 4294967295
1.634269 -0.91818261 0.53576452 4294967295
1.6441252 0.499558 0.50930446 4294967295
1.6336293 -0.9086135 0.50664407 4294967295
1.6467501 0.80888158 0.47010741 4294967295
1.6346152 -0.91575187 0.47435766 4294967295
1.6408334 0.80692154 0.44274321 4294967295
1.6338962 -0.92073786 0.44394106 4294967295
1.649 0.81286019 0.40597397 4294967295
1.6368001 0.8068462 0.42009917 4294967295
1.6340418 -0.91414779 0.41538295 4294967295
1.6335356 -0.91408145 0.38322431 4294967295
1.6359999 0.49330083 0.34234667 4294967295
1.6338888 -0.91830438 0.35542411 4294967295
1.6359999 0.48570457 0.33475041 4294967295
1.6284001 0.47928676 0.31408164 4294967295
1.6328402 -0.90883964 0.32519791 4294967295
1.6305715 0.4876017 0.29402694 4294967295
1.6313334 0.47862697 0.30816376 4294967295
1.6321579 -0.90849304 0.29563111 4294967295
1.6455001 0.49425408 0.2649394 4294967295
1.6336429 -0.92253274 0.26897293 4294967295
1.63375 -0.93165183 0.25448337 4294967295
1.628 0.49655214 0.22800732 4294967295
1.637875 -0.94162095 0.24287444 4294967295
1.6454999 -0.96224815 0.22296372 4294967295
1.6293335 -0.95152837 0.19563538 4294967295
1.6438 -0.96621466 0.20610633 4294967295
1.6349999 -0.93836325 0.17231596 4294967295
1.6275001 -0.92717284 0.14218378 4294967295
1.6428462 -0.93181103 0.14792815 4294967295
1.6338331 -0.91676426 0.11240542 4294967295
1.647 -0.93064809 0.12906653 4294967295
1.6347499 0.79918963 0.0760279 4294967295
1.6375715 0.49567005 0.087885827 4294967295
1.6292858 0.46292758 0.082514822 4294967295
1.6266667 0.43196592 0.081054777 4294967295
1.632375 0.4031972 0.073836714 4294967295
1.6357499 0.37555653 0.07576707 4294967295
1.6326666 0.35402745 0.079435796 4294967295
1.6445 0.30316725 0.074340075 4294967295
1.6266667 0.27346012 0.081054866 4294967295
1.63675 0.25906995 0.077394247 4294967295
1.6293334 0.22287549 0.076554954 4294967295
1.6309999 0.19791766 0.073590875 4294967295
1.628 0.11125994 0.071258932 4294967295
1.6441251 0.076142475 0.076343805 4294967295
1.63275 0.041566499 0.076581508 4294967295
1.6404999 0.022682181 0.073515773 4294967295
1.6345001 -0.011552141 0.075148702 4294967295
1.6293334 -0.037347112 0.072774619 4294967295
1.6333333 -0.079112113 0.076734632 4294967295
1.6380001 -0.10632429 0.083981961 4294967295
1.6368573 -0.13441117 0.082655311 4294967295
1.6415 -0.15631559 0.077052146 4294967295
1.636 -0.19563133 0.078536332 4294967295
1.6457144 -0.22624038 0.079733312 4294967295
1.6348182 -0.25584134 0.084037185 4294967295
1.6364547 -0.28473604 0.084640592 4294967295
1.6282856 -0.31563789 0.084395856 4294967295
1.6342858 -0.34655669 0.079007834 4294967295
1.6388571 -0.37472701 0.073962897 4294967295
1.6395001 -0.40336195 0.073787898 4294967295
1.6353332 -0.47063103 0.082510442 4294967295
1.6329999 -0.49458307 0.081246078 4294967295
1.63675 -0.52419412 0.078333944 4294967295
1.647 -0.55870616 0.079389393 4294967295
1.632 -0.57943779 0.080890238 4294967295
1.6367143 -0.6172232 0.082140982 4294967295
1.6405001 -0.64342183 0.08112824 4294967295
1.6313334 -0.67390078 0.079795569 4294967295
1.6321665 -0.70447236 0.077055633 4294967295
1.6342499 -0.73953474 0.0752168 4294967295
1.6288 -0.76542401 0.075947404 4294967295
1.632125 -0.79774845 0.072486579 4294967295
1.6357499 -0.82368982 0.079080015 4294967295
1.6338571 -0.85414046 0.08886379 4294967295
1.6327728 -0.88624728 0.094744354 4294967295
1.6413332 -0.90203172 0.098687112 4294967295
1.6332501 0.79529846 0.05623728 4294967295
1.6435 0.31822988 0.068886071 4294967295
1.64 0.18819566 0.069846779 4294967295
1.6398572 0.16370213 0.063363969 4294967295
1.6370001 0.13547447 0.063073993 4294967295
1.6454999 0.11627971 0.066432267 4294967295
1.647 -0.047922965 0.067925394 4294967295
1.64 0.81222874 0.016575694 4294967295
1.6306667 0.80128777 0.032068551 4294967295
1.649 0.81668615 0.0080740452 4294967295
1.6341 0.79447776 -0.0051370263 4294967295
1.6282856 0.76267928 -0.013292611 4294967295
1.6321251 0.73591429 -0.016972244 4294967295
1.6402498 0.72482121 -0.028215945 4294967295
1.6240001 0.71575528 -0.031268895 4294967295
1.628 0.71940917 -0.077948928 4294967295
1.6382499 0.72107667 -0.095044136 4294967295
1.625 0.71619791 -0.096322596 4294967295
1.6705 -0.91097826 1.4509615 4294967295
1.6677176 -0.9163422 1.4344676 4294967295
1.6661667 -0.92188102 1.4051294 4294967295
1.6691629 -0.9228881 1.3753265 4294967295
1.6584444 -0.933047 1.3762655 4294967295
1.6650425 -0.91631848 1.3447948 4294967295
1.653 -0.93020326 1.3587551 4294967295
1.66666 -0.92216134 1.3150946 4294967295
1.6653199 -0.92567515 1.2906532 4294967295
1.6682142 -0.93294477 1.275507 4294967295
1.6722 -0.92703104 1.2443441 4294967295
1.6667185 -0.93633002 1.255386 4294967295
1.6664482 -0.91894925 1.2255765 4294967295
1.6569999 -0.93244797 1.2377599 4294967295
1.6660624 -0.91808796 1.1934755 4294967295
1.6657933 -0.92485785 1.1657238 4294967295
1.6696666 0.49892369 1.1231556 4294967295
1.669903 -0.92669505 1.1377177 4294967295
1.6629443 -0.93299663 1.1269264 4294967295
1.6635714 0.48808691 1.1104798 4294967295
1.664 0.47471473 1.0998731 4294967295
1.6765001 -0.92738068 1.099859 4294967295
1.6655756 -0.93304628 1.1065674 4294967295
1.6732001 -0.92512584 1.07719 4294967295
1.6641665 -0.93582904 1.0703075 4294967295
1.678 -0.92869866 1.0463543 4294967295
1.6714513 -0.94094205 1.046165 4294967295
1.6706551 -0.92448193 1.0104399 4294967295
1.6626667 -0.93326622 1.0211873 4294967295
1.675 0.5108875 0.97546136 4294967295
1.676 0.50730389 0.97767639 4294967295
1.6666981 -0.92087913 0.98629344 4294967295
1.6605 0.51223975 0.96189272 4294967295
1.6674827 0.49750721 0.9564122 4294967295
1.6673527 -0.91746026 0.95504975 4294967295
1.6673751 0.49259508 0.92389017 4294967295
1.6669087 -0.91752183 0.92605424 4294967295
1.6685001 0.50585771 0.89376122 4294967295
1.6665756 -0.91684908 0.89435804 4294967295
1.6624782 0.79231584 0.85473835 4294967295
1.6670833 0.50653219 0.86694592 4294967295
1.6673751 -0.92146683 0.86457443 4294967295
1.6683015 0.79693782 0.83520311 4294967295
1.6764442 0.7727958 0.8416599 4294967295
1.678 0.50401598 0.82638592 4294967295
1.6668108 -0.92216998 0.83520317 4294967295
1.6681334 0.80124062 0.80729645 4294967295
1.674 0.54553819 0.80235177 4294967295
1.6738334 0.51376706 0.79713809 4294967295
1.6657777 0.50634819 0.80697185 4294967295
1.6653868 -0.92356753 0.80425912 4294967295
1.6651249 0.80148 0.77863193 4294967295
1.670625 0.51972413 0.76642251 4294967295
1.67325 0.50840825 0.76534617 4294967295
1.6661561 -0.92477882 0.77444792 4294967295
1.6646667 0.80255288 0.73639357 4294967295
1.6687371 0.5046857 0.74684304 4294967295
1.666121 -0.91226649 0.74514806 4294967295
1.6675 0.7987622 0.72193921 4294967295
1.6673 0.50350249 0.71845609 4294967295
1.6660424 -0.9186843 0.71447951 4294967295
1.6606666 0.78649682 0.67552048 4294967295
1.6615 0.50291491 0.69423014 4294967295
1.6695 -0.9252643 0.69102097 4294967295
1.664391 -0.93256074 0.67915714 4294967295
1.6670001 0.81012994 0.6425944 4294967295
1.6684583 0.79758912 0.6541419 4294967295
1.6670002 0.50457972 0.65806526 4294967295
1.6725 -0.92758578 0.64429355 4294967295
1.6644666 -0.9335472 0.65669984 4294967295
1.6652082 0.81262428 0.62491721 4294967295
1.676 0.80866855 0.63936764 4294967295
1.6766403 0.49893671 0.62494612 4294967295
1.6667144 -0.92352736 0.62457901 4294967295
1.6693529 0.81354338 0.5935626 4294967295
1.6731768 0.50027925 0.59532773 4294967295
1.6657798 -0.92051351 0.59372944 4294967295
1.653 -0.93020326 0.58020091 4294967295
1.6663334 0.81387061 0.56522769 4294967295
1.6713002 0.50063157 0.5632292 4294967295
1.6697947 -0.92423582 0.56551993 4294967295
1.659 -0.93228859 0.56854963 4294967295
1.6701818 0.8151868 0.54312199 4294967295
1.6688125 0.49930057 0.53625691 4294967295
1.6662439 -0.92009318 0.53655553 4294967295
1.6696248 0.81769502 0.49799979 4294967295
1.6698929 0.49880093 0.50416028 4294967295
1.6655667 -0.91265363 0.5054329 4294967295
1.6684211 0.81447536 0.47460848 4294967295
1.6747648 0.5014388 0.48110202 4294967295
1.6674412 -0.91942102 0.47364864 4294967295
1.6694208 0.81475651 0.44381338 4294967295
1.676 0.49952668 0.44493735 4294967295
1.6668408 -0.92091185 0.444646 4294967295
1.6700475 0.81566137 0.41659653 4294967295
1.6663514 -0.91784102 0.41705862 4294967295
1.67 0.81933725 0.39483517 4294967295
1.6676856 -0.9161135 0.38473296 4294967295
1.6705333 0.49607307 0.34441376 4294967295
1.6684896 -0.91929883 0.35433862 4294967295
1.6605 0.81852901 0.31656045 4294967295
1.6598333 0.48956829 0.33526921 4294967295
1.6666808 -0.91039389 0.32582134 4294967295
1.659 0.48829103 0.29481801 4294967295
1.666737 -0.91124272 0.29433197 4294967295
1.6694999 0.49661666 0.26802024 4294967295
1.6698787 -0.92195296 0.26862612 4294967295
1.6644614 -0.93306893 0.25503525 4294967295
1.6720001 0.4983345 0.24727091 4294967295
1.6690713 -0.94599527 0.23848772 4294967295
1.6663332 -0.96346688 0.2249974 4294967295
1.653 0.50801253 0.21585292 4294967295
1.6683999 -0.97344512 0.20580474 4294967295
1.6543335 0.81165087 0.181061 4294967295
1.6665001 -0.94502383 0.16874164 4294967295
1.6716667 -0.96268588 0.18527156 4294967295
1.6740952 -0.92579222 0.14723381 4294967295
1.6634192 -0.93281531 0.14558262 4294967295
1.668439 -0.91753471 0.10936221 4294967295
1.6668333 -0.93184924 0.12339696 4294967295
1.6689999 0.80722082 0.071573466 4294967295
1.6676998 0.51831818 0.087403029 4294967295
1.6678461 0.4932186 0.082154572 4294967295
1.6689289 0.46504411 0.076017082 4294967295
1.6692082 0.43165171 0.076851666 4294967295
1.6732777 0.40553793 0.077440858 4294967295
1.6697856 0.3778528 0.073579222 4294967295
1.6669998 0.35142294 0.07250011 4294967295
1.6683334 0.30369377 0.07239759 4294967295
1.6691333 0.28344172 0.075540841 4294967295
1.6679999 0.25655973 0.072166562 4294967295
1.6715555 0.097448215 0.072829485 4294967295
1.6719166 0.076129258 0.074020147 4294967295
1.6665001 0.044297904 0.072250336 4294967295
1.6670001 0.018793495 0.070171148 4294967295
1.6670001 -0.0078938045 0.070171148 4294967295
1.6679999 -0.083367504 0.072485179 4294967295
1.6680909 -0.10272488 0.079382509 4294967295
1.6674 -0.13478142 0.078968734 4294967295
1.6657778 -0.16438997 0.072657913 4294967295
1.6652 -0.19758871 0.07375595 4294967295
1.6687334 -0.22742845 0.079004377 4294967295
1.6674761 -0.25411803 0.082214266 4294967295
1.6678668 -0.2856203 0.083357722 4294967295
1.6660769 -0.31133103 0.080542237 4294967295
1.6679999 -0.34436762 0.075497538 4294967295
1.6702728 -0.37307599 0.071408629 4294967295
1.6689999 -0.43968067 0.071571112 4294967295
1.6657 -0.4639363 0.076327711 4294967295
1.66675 -0.49466702 0.077492893 4294967295
1.669 -0.52485645 0.073936433 4294967295
1.6681998 -0.55442238 0.076048255 4294967295
1.668 -0.58530033 0.076099902 4294967295
1.6659999 -0.61454773 0.07645902 4294967295
1.6691248 -0.64495206 0.07928592 4294967295
1.666846 -0.67440987 0.076172113 4294967295
1.6654999 -0.70806837 0.072903693 4294967295
1.6684999 -0.73296034 0.070933402 4294967295
1.6676364 -0.76784289 0.071060419 4294967295
1.6667 -0.79750937 0.071039706 4294967295
1.66675 -0.82508022 0.076464474 4294967295
1.6668999 -0.85562241 0.085095048 4294967295
1.6667999 -0.88674873 0.093283862 4294967295
1.6594999 -0.90305376 0.098187298 4294967295
1.6672 0.80324847 0.055428386 4294967295
1.6651249 0.40356442 0.069235414 4294967295
1.6662 0.33656138 0.068073809 4294967295
1.6645554 0.31931043 0.066552401 4294967295
1.6715 0.22477654 0.068956852 4294967295
1.6676923 0.19345607 0.066719353 4294967295
1.6696668 0.17178988 0.059987843 4294967295
1.67225 0.132744 0.05808574 4294967295
1.6709999 0.11343473 0.065995753 4294967295
1.67 0.011465414 0.069361627 4294967295
1.673 -0.019570632 0.068552107 4294967295
1.6727142 -0.044802465 0.064748198 4294967295
1.6676 -0.067873053 0.067692786 4294967295
1.67 -0.38568977 0.069361627 4294967295
1.67375 -0.40404186 0.068349689 4294967295
1.6740001 -0.42545015 0.068282247 4294967295
1.6708332 0.81586796 0.016798794 4294967295
1.6652 0.80498624 0.032806069 4294967295
1.6672727 0.81834435 -0.0044489503 4294967295
1.6644444 0.79773158 -0.016667128 4294967295
1.6569999 0.76682484 -0.019398928 4294967295
1.6733333 0.7860294 -0.020833492 4294967295
1.6673571 0.76525551 -0.020828187 4294967295
1.6659166 0.73680407 -0.030991137 4294967295
1.6675 0.72912633 -0.10596842 4294967295
1.663 0.72330022 -0.11395478 4294967295
1.704 -0.91639549 1.4567807 4294967295
1.6934139 -0.91553122 1.4347838 4294967295
1.692174 -0.91962922 1.403192 4294967295
1.6930455 -0.91646427 1.3747528 4294967295
1.6941364 -0.9161759 1.3447567 4294967295
1.6927501 -0.91982764 1.3144273 4294967295
1.6864288 -0.92497307 1.2952209 4294967295
1.696 -0.9351989 1.2834332 4294967295
1.6935556 -0.92680538 1.2496496 4294967295
1.6937274 -0.93380076 1.2632915 4294967295
1.694647 -0.91985363 1.226064 4294967295
1.6919166 -0.92035502 1.1964424 4294967295
1.709 -0.93396026 1.1829638 4294967295
1.6930627 -0.92570376 1.1602948 4294967295
1.7014999 -0.93182909 1.1721461 4294967295
1.697 0.4919934 1.1251549 4294967295
1.6952502 -0.92091376 1.1363143 4294967295
1.689 0.47988868 1.1105456 4294967295
1.6917201 -0.92653304 1.1047264 4294967295
1.702 -0.93013483 1.1170655 4294967295
1.6925924 -0.92250365 1.0735295 4294967295
1.6935003 -0.92766023 1.0449646 4294967295
1.6813334 -0.9318428 1.0486991 4294967295
1.6923332 -0.91866857 1.0156246 4294967295
1.6957998 0.50344127 0.97796226 4294967295
1.6931999 -0.91443187 0.9835366 4294967295
1.6925 0.48937514 0.95271158 4294967295
1.6927665 -0.90974355 0.95487612 4294967295
1.6961668 0.49416214 0.92260385 4294967295
1.6926205 -0.91428888 0.92586875 4294967295
1.7049999 0.51212597 0.89064723 4294967295
1.6954445 0.50574946 0.90561104 4294967295
1.6931599 -0.91711378 0.89560342 4294967295
1.7045 0.51197577 0.87670684 4294967295
1.6969376 0.50551122 0.86234701 4294967295
1.6920834 -0.92077541 0.86493611 4294967295
1.68625 0.7827968 0.82397008 4294967295
1.6922071 0.77321243 0.83003187 4294967295
1.6873499 0.50035357 0.82984489 4294967295
1.6939198 -0.92208499 0.83351564 4294967295
1.6951398 0.79482716 0.80731559 4294967295
1.7042668 0.55224442 0.7958498 4294967295
1.6881249 0.52274245 0.79346752 4294967295
1.6954287 0.50069749 0.80464047 4294967295
1.69172 -0.92386657 0.8058002 4294967295
1.6975 0.81116241 0.76891547 4294967295
1.6889999 0.80557114 0.77876747 4294967295
1.7017599 0.55191159 0.77830756 4294967295
1.6877499 0.52183354 0.78196561 4294967295
1.6923045 0.4991563 0.77506208 4294967295
1.6942382 -0.925686 0.77505589 4294967295
1.696 0.81241834 0.73523229 4294967295
1.6929229 0.49648917 0.74501032 4294967295
1.6927367 -0.91224051 0.74453151 4294967295
1.709 0.81468046 0.72895175 4294967295
1.681 0.80328178 0.72552598 4294967295
1.6908181 0.49686614 0.7138828 4294967295
1.6941818 -0.91797966 0.71373308 4294967295
1.684 0.79104143 0.67510426 4294967295
1.6955743 0.49964198 0.68569666 4294967295
1.6925862 -0.92266035 0.68699187 4294967295
1.6958001 -0.93144673 0.67304397 4294967295
1.6900554 0.79125428 0.64994442 4294967295
1.6919744 0.49852058 0.65723145 4294967295
1.6916666 -0.92751503 0.64613819 4294967295
1.6953335 -0.93367726 0.66127813 4294967295
1.6967999 0.81573313 0.62390172 4294967295
1.6938 0.80170679 0.63452846 4294967295
1.6856071 0.48938274 0.62578762 4294967295
1.6933912 -0.91994178 0.62556714 4294967295
1.6981249 0.81908625 0.59414792 4294967295
1.6905807 0.49372756 0.5957368 4294967295
1.6919998 -0.91648573 0.59481096 4294967295
1.6991249 0.81849378 0.56183928 4294967295
1.6905237 0.49543658 0.56531668 4294967295
1.6928235 -0.91769856 0.5642103 4294967295
1.699 0.81641382 0.5352478 4294967295
1.6885712 0.49347153 0.53448558 4294967295
1.6925237 -0.91820419 0.53450984 4294967295
1.7004652 0.81948918 0.50504363 4294967295
1.6914762 0.49290794 0.50460541 4294967295
1.6926365 -0.91447061 0.50595099 4294967295
1.7007668 0.81731713 0.47605288 4294967295
1.688087 0.49613565 0.47215453 4294967295
1.6936502 -0.92064202 0.47382081 4294967295
1.6958182 0.81386715 0.44716862 4294967295
1.7053635 0.80790609 0.43967289 4294967295
1.6893997 0.49508196 0.44609994 4294967295
1.6938075 -0.91671836 0.44474679 4294967295
1.6848948 0.81326497 0.41326207 4294967295
1.6982257 0.80723721 0.41521829 4294967295
1.6917691 -0.91606891 0.41570771 4294967295
1.6941667 0.81786203 0.38580379 4294967295
1.7045262 0.80650395 0.38766581 4294967295
1.6972351 0.49564639 0.38560039 4294967295
1.696192 -0.916493 0.3830525 4294967295
1.6996055 0.81797045 0.35542899 4294967295
1.7071427 0.80813497 0.36319205 4294967295
1.6956999 0.49396905 0.35545996 4294967295
1.6930833 -0.91137612 0.35437512 4294967295
1.6998571 0.82794559 0.32462513 4294967295
1.6933684 -0.9057523 0.32980949 4294967295
1.7007142 0.83440632 0.29386589 4294967295
1.6849999 0.49048063 0.29206425 4294967295
1.6937586 -0.90622514 0.29020929 4294967295
1.7073749 0.81636143 0.25931001 4294967295
1.7085555 0.80257618 0.25760576 4294967295
1.689 0.49948254 0.25820786 4294967295
1.7029999 -0.89849681 0.27494997 4294967295
1.6931499 -0.91357791 0.26532701 4294967295
1.7054614 0.8166045 0.23146304 4294967295
1.7082499 0.80268013 0.24210083 4294967295
1.7009999 0.50434595 0.23859316 4294967295
1.6926666 -0.92894983 0.24782714 4294967295
1.6951152 -0.94373637 0.23336926 4294967295
1.6866666 -0.96087867 0.22139841 4294967295
1.7040455 0.81608975 0.20341158 4294967295
1.7081001 0.8069182 0.20393145 4294967295
1.6916001 0.52142018 0.20326573 4294967295
1.696 0.5094226 0.21581107 4294967295
1.6963601 -0.97646379 0.20662281 4294967295
1.6969734 0.81710738 0.17202595 4294967295
1.7078888 0.80842596 0.18021876 4294967295
1.6944443 -0.94740129 0.16454902 4294967295
1.6999999 -0.97242904 0.18091521 4294967295
1.70516 0.81363046 0.14690423 4294967295
1.709 0.80476749 0.13219339 4294967295
1.693174 -0.92375118 0.14202639 4294967295
1.6966 -0.93346393 0.15744954 4294967295
1.7009375 0.81280935 0.11429539 4294967295
1.7071925 0.80482703 0.11341354 4294967295
1.682 -0.8996923 0.10124624 4294967295
1.6940295 -0.92101961 0.11455998 4294967295
1.6996 0.81217074 0.088979632 4294967295
1.7033057 0.80425996 0.083891958 4294967295
1.707 0.54045039 0.087101102 4294967295
1.6945999 0.5239293 0.088158906 4294967295
1.6962727 0.49642041 0.081959426 4294967295
1.6976471 0.46425241 0.076276094 4294967295
1.6928463 0.43429124 0.084672451 4294967295
1.6925836 0.40464729 0.085866332 4294967295
1.6936364 0.37832707 0.074068218 4294967295
1.700125 0.30603677 0.073572993 4294967295
1.6976999 0.28581148 0.074496895 4294967295
1.6906251 0.25726247 0.071655393 4294967295
1.7079999 0.1226873 0.070996106 4294967295
1.6970499 0.10556843 0.073890507 4294967295
1.6936427 0.07394544 0.074220568 4294967295
1.6964999 0.045108605 0.072061241 4294967295
1.6900001 0.022073267 0.070517242 4294967295
1.689 -0.08636523 0.072072119 4294967295
1.6917777 -0.10503243 0.078315109 4294967295
1.6966666 -0.13596888 0.075947613 4294967295
1.6836667 -0.16356377 0.070886433 4294967295
1.687 -0.20565197 0.07260254 4294967295
1.6940714 -0.22586852 0.078593731 4294967295
1.6956875 -0.2558699 0.084076643 4294967295
1.693684 -0.28463566 0.085738331 4294967295
1.6934615 -0.31553409 0.080575109 4294967295
1.6949092 -0.34637919 0.073734522 4294967295
1.6935333 -0.37460652 0.072452575 4294967295
