# .PCD v0.7 - Point Cloud Data file format
VERSION 0.7
FIELDS x y z rgb
SIZE 4 4 4 4
TYPE F F F U
COUNT 1 1 1 1
WIDTH 1066
HEIGHT 1
VIEWPOINT 0 0 0 1 0 0 0
POINTS 1066
DATA ascii
-0.51374507 0.83052647 -0.14844881 4278190080
-0.50825936 0.82810581 -0.1476675 4278190080
-0.50536567 0.82987487 -0.1476675 4278190080
-0.49991193 0.82740694 -0.1468862 4278190080
-0.49448162 0.824911 -0.14610489 4278190080
-0.49159917 0.82663202 -0.14610489 4278190080
-0.48605728 0.8241744 -0.14532357 4278190080
-0.48317745 0.82586604 -0.14532357 4278190080
-0.48029172 0.82754761 -0.14532357 4278190080
-0.47493586 0.82493919 -0.14454226 4278190080
-0.47205344 0.82659197 -0.14454226 4278190080
-0.46916527 0.82823467 -0.14454226 4278190080
-0.46385226 0.82556182 -0.14376095 4278190080
-0.46096772 0.82717586 -0.14376095 4278190080
-0.4579328 0.82885993 -0.14376095 4278190080
-0.45266366 0.82612228 -0.14297964 4278190080
-0.44977725 0.82769734 -0.14297964 4278190080
-0.4445425 0.82491481 -0.14219834 4278190080
-0.44166011 0.82646161 -0.14219834 4278190080
-0.43891701 0.82792169 -0.14219834 4278190080
-0.43372646 0.82507735 -0.14141703 4278190080
-0.4308438 0.82658631 -0.14141703 4278190080
-0.42554483 0.82377207 -0.14063571 4278190080
-0.42266655 0.82525259 -0.14063571 4278190080
-0.41754743 0.82231951 -0.1398544 4278190080
-0.41467452 0.82377195 -0.1398544 4278190080
-0.41179651 0.82521439 -0.1398544 4278190080
-0.40672383 0.82222021 -0.1390731 4278190080
-0.40385109 0.82363498 -0.1390731 4278190080
-0.40097365 0.82503968 -0.1390731 4278190080
-0.39794716 0.82650369 -0.1390731 4278190080
-0.39293265 0.82343072 -0.13829179 4278190080
-0.39005598 0.82479727 -0.13829179 4278190080
-0.38507885 0.82168192 -0.13751048 4278190080
-0.38220835 0.82302111 -0.13751048 4278190080
-0.37726873 0.81986386 -0.13672917 4278190080
-0.37426114 0.82124114 -0.13672917 4278190080
-0.37153572 0.82247776 -0.13672917 4278190080
-0.36866251 0.82376963 -0.13672917 4278190080
-0.36578482 0.82505143 -0.13672917 4278190080
-0.36290267 0.82632321 -0.13672917 4278190080
-0.35804585 0.8230564 -0.13594787 4278190080
-0.3551707 0.82430118 -0.13594787 4278190080
-0.35229123 0.82553589 -0.13594787 4278190080
-0.34748495 0.82221156 -0.13516656 4278190080
-0.34461284 0.82341951 -0.13516656 4278190080
-0.34159243 0.82467711 -0.13516656 4278190080
-0.33683774 0.82129514 -0.13438524 4278190080
-0.33396888 0.8224659 -0.13438524 4278190080
-0.3292537 0.81904459 -0.13360393 4278190080
-0.32639274 0.82018888 -0.13360393 4278190080
-0.32352781 0.82132316 -0.13360393 4278190080
-0.31886497 0.81784624 -0.13282262 4278190080
-0.31600827 0.81895429 -0.13282262 4278190080
-0.31300443 0.82010704 -0.13282262 4278190080
-0.31013986 0.82119465 -0.13282262 4278190080
-0.30727151 0.82227218 -0.13282262 4278190080
-0.30454302 0.82328665 -0.13282262 4278190080
-0.30166742 0.82434469 -0.13282262 4278190080
-0.29878789 0.82539272 -0.13282262 4278190080
-0.29590496 0.82643062 -0.13282262 4278190080
-0.29136989 0.8228032 -0.13204131 4278190080
-0.2883521 0.82386565 -0.13204131 4278190080
-0.28547457 0.82486713 -0.13204131 4278190080
-0.28099468 0.82118601 -0.13126001 4278190080
-0.27812654 0.82216185 -0.13126001 4278190080
-0.27525499 0.82312763 -0.13126001 4278190080
-0.2723799 0.82408351 -0.13126001 4278190080
-0.26796821 0.82033479 -0.1304787 4278190080
-0.26510313 0.82126516 -0.1304787 4278190080
-0.26059133 0.81752604 -0.12969738 4278190080
-0.25773609 0.81843066 -0.12969738 4278190080
-0.25487769 0.81932533 -0.12969738 4278190080
-0.25201622 0.82020998 -0.12969738 4278190080
-0.24915165 0.82108468 -0.12969738 4278190080
-0.24628383 0.82194942 -0.12969738 4278190080
-0.24341324 0.82280409 -0.12969738 4278190080
-0.23915523 0.81890821 -0.12891607 4278190080
-0.2362953 0.81973803 -0.12891607 4278190080
-0.23343249 0.82055783 -0.12891607 4278190080
-0.22908944 0.81665289 -0.12813477 4278190080
-0.22623743 0.8174476 -0.12813477 4278190080
-0.22338267 0.8182323 -0.12813477 4278190080
-0.22052519 0.81900704 -0.12813477 4278190080
-0.21766481 0.81977189 -0.12813477 4278190080
-0.21480198 0.82052666 -0.12813477 4278190080
-0.21179329 0.82130843 -0.12813477 4278190080
-0.20892492 0.82204276 -0.12813477 4278190080
-0.20485446 0.81797642 -0.12735346 4278190080
-0.20199777 0.81868654 -0.12735346 4278190080
-0.19913904 0.8193866 -0.12735346 4278190080
-0.19627747 0.82007676 -0.12735346 4278190080
-0.19341393 0.82075685 -0.12735346 4278190080
-0.1905476 0.82142705 -0.12735346 4278190080
-0.18767895 0.82208723 -0.12735346 4278190080
-0.18480845 0.82273728 -0.12735346 4278190080
-0.18193527 0.82337737 -0.12735346 4278190080
-0.1780116 0.81918144 -0.12657215 4278190080
-0.17515086 0.81979787 -0.12657215 4278190080
-0.17228799 0.82040429 -0.12657215 4278190080
-0.16942345 0.82100064 -0.12657215 4278190080
-0.16655642 0.82158709 -0.12657215 4278190080
-0.16354415 0.82219201 -0.12657215 4278190080
-0.16067299 0.8227579 -0.12657215 4278190080
-0.15687069 0.81846339 -0.12579083 4278190080
-0.15401259 0.81900603 -0.12579083 4278190080
-0.15115304 0.81953859 -0.12579083 4278190080
-0.14829123 0.82006127 -0.12579083 4278190080
-0.1454276 0.82057393 -0.12579083 4278190080
-0.14171779 0.81621069 -0.12500952 4278190080
-0.13886765 0.8167004 -0.12500952 4278190080
-0.13601625 0.81718016 -0.12500952 4278190080
-0.13301991 0.81767321 -0.12500952 4278190080
-0.13016514 0.81813252 -0.12500952 4278190080
-0.12730837 0.81858194 -0.12500952 4278190080
-0.12445047 0.81902128 -0.12500952 4278190080
-0.12159061 0.81945074 -0.12500952 4278190080
-0.11802149 0.81498259 -0.12422821 4278190080
-0.11517621 0.81538957 -0.12422821 4278190080
-0.11232909 0.81578666 -0.12422821 4278190080
-0.10933845 0.81619287 -0.12422821 4278190080
-0.1071272 0.82146674 -0.12500952 4278190080
-0.10425935 0.82183564 -0.12500952 4278190080
-0.1013898 0.82219458 -0.12500952 4278190080
-0.098375745 0.82256067 -0.12500952 4278190080
-0.094934359 0.8179934 -0.12422821 4278190080
-0.092078716 0.8183198 -0.12422821 4278190080
-0.089221515 0.81863624 -0.12422821 4278190080
-0.085845284 0.81403136 -0.1234469 4278190080
-0.083003521 0.81432605 -0.1234469 4278190080
-0.080160312 0.81461084 -0.1234469 4278190080
-0.077316567 0.81488562 -0.1234469 4278190080
-0.074471436 0.81515056 -0.1234469 4278190080
-0.071625404 0.81540561 -0.1234469 4278190080
-0.068778932 0.81565058 -0.1234469 4278190080
-0.065931186 0.81588572 -0.1234469 4278190080
-0.062940493 0.81612188 -0.1234469 4278190080
-0.060091142 0.81633663 -0.1234469 4278190080
-0.057241488 0.81654143 -0.1234469 4278190080
-0.054390706 0.81673628 -0.1234469 4278190080
-0.051539257 0.81692117 -0.1234469 4278190080
-0.048687618 0.81709605 -0.1234469 4278190080
-0.045692608 0.81726903 -0.1234469 4278190080
-0.042580888 0.81249171 -0.12266559 4278190080
-0.039744329 0.81263542 -0.12266559 4278190080
-0.036907721 0.81276917 -0.12266559 4278190080
-0.034070227 0.81289309 -0.12266559 4278190080
-0.031232754 0.81300706 -0.12266559 4278190080
-0.028394466 0.81311113 -0.12266559 4278190080
-0.025555832 0.8132053 -0.12266559 4278190080
-0.022717321 0.81328952 -0.12266559 4278190080
-0.019878099 0.81336391 -0.12266559 4278190080
-0.017039068 0.81342834 -0.12266559 4278190080
-0.014113205 0.80854499 -0.12188429 4278190080
-0.011290599 0.80858934 -0.12188429 4278190080
-0.0084682852 0.80862385 -0.12188429 4278190080
-0.0056454367 0.80864847 -0.12188429 4278190080
-0.0028229509 0.80866325 -0.12188429 4278190080
-1.4854994e-16 0.8086682 -0.12188429 4278190080
0.0028229509 0.80866325 -0.12188429 4278190080
0.0057867104 0.80864745 -0.12188429 4278190080
0.0086091235 0.80862236 -0.12188429 4278190080
0.011501676 0.81352544 -0.12266559 4278190080
0.014341514 0.81348032 -0.12266559 4278190080
0.017180743 0.81342536 -0.12266559 4278190080
0.020020196 0.81336039 -0.12266559 4278190080
0.022858972 0.81328559 -0.12266559 4278190080
0.025697902 0.81320083 -0.12266559 4278190080
0.028536519 0.81310618 -0.12266559 4278190080
0.031374354 0.81300157 -0.12266559 4278190080
0.034354255 0.81288111 -0.12266559 4278190080
0.037191272 0.8127563 -0.12266559 4278190080
0.039785296 0.80768889 -0.12188429 4278190080
0.042604156 0.80754513 -0.12188429 4278190080
0.045422927 0.80739146 -0.12188429 4278190080
0.048241146 0.80722797 -0.12188429 4278190080
0.051058345 0.8070547 -0.12188429 4278190080
0.053875353 0.80687153 -0.12188429 4278190080
0.056832202 0.80666864 -0.12188429 4278190080
0.060012098 0.81139046 -0.12266559 4278190080
0.062843755 0.81117606 -0.12266559 4278190080
0.06567508 0.81095177 -0.12266559 4278190080
0.068505168 0.81071758 -0.12266559 4278190080
0.071334854 0.8104735 -0.12266559 4278190080
0.074163675 0.81021953 -0.12266559 4278190080
0.076991156 0.80995578 -0.12266559 4278190080
0.079333641 0.80476731 -0.12188429 4278190080
0.082142062 0.8044855 -0.12188429 4278190080
0.085090406 0.80417901 -0.12188429 4278190080
0.087896742 0.80387712 -0.12188429 4278190080
0.090702429 0.80356538 -0.12188429 4278190080
0.093507014 0.80324382 -0.12188429 4278190080
0.096898206 0.80781603 -0.12266559 4278190080
0.099717587 0.80747283 -0.12266559 4278190080
0.10267633 0.80710191 -0.12266559 4278190080
0.10613354 0.81163549 -0.1234469 4278190080
0.10896576 0.8112601 -0.1234469 4278190080
0.1117971 0.81087476 -0.1234469 4278190080
0.11462664 0.81047958 -0.1234469 4278190080
0.11745521 0.81007451 -0.1234469 4278190080
0.11955665 0.80477458 -0.12266559 4278190080
0.12236486 0.8043524 -0.12266559 4278190080
0.12517199 0.80392033 -0.12266559 4278190080
0.12797718 0.80347854 -0.12266559 4278190080
0.13092153 0.80300403 -0.12266559 4278190080
0.13372348 0.80254221 -0.12266559 4278190080
0.13735293 0.80693907 -0.1234469 4278190080
0.14016858 0.80645472 -0.1234469 4278190080
0.14298294 0.80596048 -0.1234469 4278190080
0.14579557 0.80545646 -0.1234469 4278190080
0.148606 0.80494267 -0.1234469 4278190080
0.15141504 0.80441898 -0.1234469 4278190080
0.15436225 0.80385864 -0.1234469 4278190080
0.15811571 0.80816162 -0.12422821 4278190080
0.16093551 0.80760479 -0.12422821 4278190080
0.16375376 0.80703807 -0.12422821 4278190080
0.16657002 0.80646151 -0.12422821 4278190080
0.16938382 0.80587524 -0.12422821 4278190080
0.17336978 0.8100782 -0.12500952 4278190080
0.17619659 0.80946809 -0.12500952 4278190080
0.17795405 0.80402619 -0.12422821 4278190080
0.18075928 0.80340016 -0.12422821 4278190080
0.18356274 0.80276424 -0.12422821 4278190080
0.18636353 0.80211866 -0.12422821 4278190080
0.18916249 0.80146325 -0.12422821 4278190080
0.19195913 0.800798 -0.12422821 4278190080
0.19592099 0.80492157 -0.12500952 4278190080
0.19872966 0.80423278 -0.12500952 4278190080
0.20273694 0.80832446 -0.12579083 4278190080
0.20555745 0.80761182 -0.12579083 4278190080
0.208516 0.80685306 -0.12579083 4278190080
0.21133134 0.80612022 -0.12579083 4278190080
0.21414411 0.8053776 -0.12579083 4278190080
0.21695384 0.80462521 -0.12579083 4278190080
0.21976136 0.80386299 -0.12579083 4278190080
0.22256577 0.80309105 -0.12579083 4278190080
0.22536789 0.80230922 -0.12579083 4278190080
0.22816728 0.80151761 -0.12579083 4278190080
0.23096345 0.80071634 -0.12579083 4278190080
0.2351425 0.80464548 -0.12657215 4278190080
0.23808998 0.80377829 -0.12657215 4278190080
0.24089441 0.80294222 -0.12657215 4278190080
0.24369547 0.80209655 -0.12657215 4278190080
0.246494 0.80124098 -0.12657215 4278190080
0.25075769 0.8050909 -0.12735346 4278190080
0.25356662 0.8042106 -0.12735346 4278190080
0.25637248 0.80332053 -0.12735346 4278190080
0.25917476 0.80242085 -0.12735346 4278190080
0.26364905 0.8061595 -0.12813477 4278190080
0.26646164 0.80523419 -0.12813477 4278190080
0.26927099 0.80429912 -0.12813477 4278190080
0.27207661 0.80335438 -0.12813477 4278190080
0.27487934 0.80239969 -0.12813477 4278190080
0.27767831 0.80143541 -0.12813477 4278190080
0.28061417 0.80041218 -0.12813477 4278190080
0.28340617 0.79942787 -0.12813477 4278190080
0.28619513 0.79843366 -0.12813477 4278190080
0.29066321 0.80207282 -0.12891607 4278190080
0.29346094 0.8010534 -0.12891607 4278190080
0.29625553 0.80002409 -0.12891607 4278190080
0.29918566 0.79893291 -0.12891607 4278190080
0.30372089 0.80250251 -0.12969738 4278190080
0.30652004 0.8014375 -0.12969738 4278190080
0.30931586 0.80036259 -0.12969738 4278190080
0.31210753 0.79927814 -0.12969738 4278190080
0.31670818 0.80277771 -0.1304787 4278190080
0.31964827 0.8016116 -0.1304787 4278190080
0.32244465 0.80049086 -0.1304787 4278190080
0.32523707 0.79936033 -0.1304787 4278190080
0.32802513 0.79822028 -0.1304787 4278190080
0.33080962 0.79707032 -0.1304787 4278190080
0.33549863 0.80046552 -0.13126001 4278190080
0.3382909 0.79928946 -0.13126001 4278190080
0.34107906 0.79810369 -0.13126001 4278190080
0.34386262 0.79690838 -0.13126001 4278190080
0.34861484 0.80023074 -0.13204131 4278190080
0.3514058 0.79900908 -0.13204131 4278190080
0.35419288 0.79777747 -0.13204131 4278190080
0.35899538 0.80104285 -0.13282262 4278190080
0.36178911 0.79978496 -0.13282262 4278190080
0.36457884 0.79851717 -0.13282262 4278190080
0.36736369 0.79723978 -0.13282262 4278190080
0.37014452 0.7959525 -0.13282262 4278190080
0.37292084 0.79465556 -0.13282262 4278190080
0.37794518 0.79774648 -0.13360393 4278190080
0.38072729 0.79642242 -0.13360393 4278190080
0.38350517 0.79508853 -0.13360393 4278190080
0.38627839 0.79374492 -0.13360393 4278190080
0.39122301 0.79682493 -0.13438524 4278190080
0.39400223 0.79545438 -0.13438524 4278190080
0.39691496 0.79400498 -0.13438524 4278190080
0.40190795 0.79702425 -0.13516656 4278190080
0.40468737 0.79561663 -0.13516656 4278190080
0.4074623 0.79419905 -0.13516656 4278190080
0.41023183 0.79277205 -0.13516656 4278190080
0.4129968 0.79133517 -0.13516656 4278190080
0.41575673 0.78988862 -0.13516656 4278190080
0.42082664 0.79279482 -0.13594787 4278190080
0.42359161 0.79132092 -0.13594787 4278190080
0.42869687 0.79418349 -0.13672917 4278190080
0.43160513 0.79260671 -0.13672917 4278190080
0.43674588 0.7954244 -0.13751048 4278190080
0.43951991 0.79389495 -0.13751048 4278190080
0.44469571 0.79666805 -0.13829179 4278190080
0.44747362 0.79511106 -0.13829179 4278190080
0.45024651 0.79354417 -0.13829179 4278190080
0.45301351 0.79196781 -0.13829179 4278190080
0.45577541 0.79038155 -0.13829179 4278190080
0.45866913 0.78870583 -0.13829179 4278190080
0.4639172 0.79136032 -0.1390731 4278190080
0.46667647 0.78973627 -0.1390731 4278190080
0.46943051 0.78810239 -0.1390731 4278190080
0.47472087 0.79069293 -0.1398544 4278190080
0.47747776 0.78903115 -0.1398544 4278190080
0.48293909 0.79149139 -0.14063571 4278190080
0.48569873 0.789801 -0.14063571 4278190080
0.49105453 0.79229838 -0.14141703 4278190080
0.49381694 0.79057962 -0.14141703 4278190080
0.49920464 0.79303038 -0.14219834 4278190080
0.50196999 0.79128289 -0.14219834 4278190080
0.50738877 0.79368699 -0.14297964 4278190080
0.51015633 0.79191095 -0.14297964 4278190080
0.51560628 0.79426783 -0.14376095 4278190080
0.51837581 0.79246306 -0.14376095 4278190080
0.52399534 0.79468083 -0.14454226 4278190080
0.52676624 0.7928468 -0.14454226 4278190080
0.5322777 0.79510731 -0.14532357 4278190080
0.53505009 0.79324436 -0.14532357 4278190080
0.53781593 0.7913717 -0.14532357 4278190080
0.54336494 0.79356462 -0.14610489 4278190080
0.54613185 0.79166299 -0.14610489 4278190080
0.55171019 0.79380727 -0.1468862 4278190080
0.55461621 0.79177964 -0.1468862 4278190080
0.56022388 0.79387403 -0.1476675 4278190080
0.5629918 0.79191351 -0.1476675 4278190080
0.56862795 0.79395872 -0.14844881 4278190080
0.57139611 0.79196888 -0.14844881 4278190080
0.57415724 0.78996938 -0.14844881 4278190080
0.57982844 0.79194534 -0.14923012 4278190080
0.58258951 0.7899164 -0.14923012 4278190080
0.58828819 0.7918424 -0.15001144 4278190080
0.59104884 0.78978395 -0.15001144 4278190080
0.59691292 0.79155552 -0.15079273 4278190080
0.60265976 0.79339963 -0.15157405 4278190080
0.60542572 0.791291 -0.15157405 4278190080
0.61119854 0.79308474 -0.15235536 4278190080
0.61396337 0.7909463 -0.15235536 4278190080
0.61976212 0.79268914 -0.15313667 4278190080
0.62252551 0.79052085 -0.15313667 4278190080
0.62835026 0.79221213 -0.15391797 4278190080
0.6311115 0.79001415 -0.15391797 4278190080
0.6369614 0.79165393 -0.15469928 4278190080
0.63972062 0.78942591 -0.15469928 4278190080
0.64559519 0.79101402 -0.15548061 4278190080
0.64848995 0.78864253 -0.15548061 4278190080
0.65438902 0.79017752 -0.15626191 4278190080
0.657143 0.78788871 -0.15626191 4278190080
0.66306585 0.78937137 -0.15704322 4278190080
0.669007 0.79082233 -0.15782453 4278190080
0.67496592 0.79224169 -0.15860584 4278190080
0.6777274 0.78988063 -0.15860584 4278190080
0.68370914 0.79124713 -0.15938714 4278190080
0.68646711 0.78885555 -0.15938714 4278190080
0.68921673 0.78645438 -0.15938714 4278190080
0.6920945 0.78392309 -0.15938714 4278190080
0.69810826 0.78519309 -0.16016845 4278190080
0.70084459 0.78275168 -0.16016845 4278190080
0.70687991 0.78396809 -0.16094977 4278190080
0.71293181 0.78515232 -0.16173108 4278190080
0.71566832 0.78265876 -0.16173108 4278190080
0.72187799 0.78366292 -0.16251238 4278190080
0.72796786 0.78475881 -0.16329369 4278190080
0.73407376 0.78582209 -0.164075 4278190080
0.73681247 0.78325474 -0.164075 4278190080
0.74293858 0.78426313 -0.1648563 4278190080
0.74908024 0.78523862 -0.16563761 4278190080
0.75181687 0.78261894 -0.16563761 4278190080
0.7579776 0.78353959 -0.16641892 4278190080
0.76415431 0.78442633 -0.16720024 4278190080
0.76688796 0.78175402 -0.16720024 4278190080
0.77308255 0.78258592 -0.16798154 4278190080
0.7792927 0.78338361 -0.16876285 4278190080
0.78565437 0.78401071 -0.16954416 4278190080
0.79189444 0.78473961 -0.17032549 4278190080
0.79814863 0.78543478 -0.1711068 4278190080
0.80441773 0.78609544 -0.1718881 4278190080
0.81070065 0.78672224 -0.17266941 4278190080
0.81699818 0.7873143 -0.17345072 4278190080
0.81987822 0.78431469 -0.17345072 4278190080
0.82261115 0.78144783 -0.17345072 4278190080
0.82892644 0.78196025 -0.17423204 4278190080
0.82444233 0.77230972 -0.17266941 4278190080
0.82351738 0.76606333 -0.1718881 4278190080
1.1084335 0.80798721 -0.21095358 4278190080
1.1112468 0.80411345 -0.21095358 4278190080
1.1020139 0.7915858 -0.20860964 4278190080
1.1168338 0.79633552 -0.21095358 4278190080
1.1157134 0.78938454 -0.21017228 4278190080
1.1225038 0.78832322 -0.21095358 4278190080
1.1252484 0.78440046 -0.21095358 4278190080
1.1239185 0.77765763 -0.21017228 4278190080
1.126626 0.77373004 -0.21017228 4278190080
1.1293201 0.76979244 -0.21017228 4278190080
1.1320004 0.76584542 -0.21017228 4278190080
1.1387666 0.76464272 -0.21095358 4278190080
1.1456716 0.76320195 -0.21173489 4278190080
1.1565681 0.76464516 -0.21329752 4278190080
1.1633594 0.76331234 -0.21407881 4278190080
1.170155 0.76194197 -0.21486013 4278190080
1.1811037 0.76321316 -0.21642275 4278190080
1.1879176 0.76175189 -0.21720405 4278190080
1.1947361 0.7602517 -0.21798536 4278190080
1.2057343 0.76134992 -0.21954797 4278190080
1.2125692 0.75975901 -0.22032928 4278190080
1.2194082 0.758129 -0.2211106 4278190080
1.2304531 0.75905401 -0.22267321 4278190080
1.2373075 0.75733227 -0.22345452 4278190080
1.248386 0.75813532 -0.22501715 4278190080
1.2552547 0.75632215 -0.22579844 4278190080
1.2664974 0.75678223 -0.22736107 4278190080
1.2733793 0.75487548 -0.22814238 4278190080
1.2845206 0.75543278 -0.22970499 4278190080
1.295681 0.7559222 -0.23126763 4278190080
1.3025862 0.75386828 -0.23204894 4278190080
1.3137759 0.75423419 -0.23361155 4278190080
1.3206919 0.75208795 -0.23439287 4278190080
1.3319093 0.75233078 -0.23595548 4278190080
1.3431441 0.75250506 -0.2375181 4278190080
1.3543965 0.75260931 -0.23908071 4278190080
1.3656659 0.75264412 -0.24064334 4278190080
1.3769516 0.75261009 -0.24220595 4278190080
1.3840429 0.74991119 -0.24298726 4278190080
1.3953528 0.74975014 -0.24454989 4278190080
1.4066787 0.74951923 -0.2461125 4278190080
1.4180193 0.74921912 -0.24767512 4278190080
1.4250005 0.74655628 -0.24845642 4278190080
1.4363627 0.74613112 -0.25001904 4278190080
1.4477397 0.74563497 -0.25158167 4278190080
1.4591305 0.74506837 -0.25314429 4278190080
1.4705344 0.74443203 -0.25470692 4278190080
1.4819521 0.74372435 -0.25626954 4278190080
1.4933821 0.74294674 -0.25783214 4278190080
1.5092543 0.74428189 -0.26017606 4278190080
1.520717 0.74334633 -0.26173869 4278190080
1.5321912 0.74234062 -0.26330131 4278190080
1.548129 0.74340075 -0.26564524 4278190080
1.5596329 0.74223715 -0.26720786 4278190080
1.5757444 0.74283284 -0.26955178 4278190080
1.5872765 0.74150896 -0.27111441 4278190080
1.5988187 0.74011272 -0.27267703 4278190080
1.6103699 0.73864579 -0.27423966 4278190080
1.6264268 0.73914951 -0.27658358 4278190080
1.6380035 0.73752254 -0.27814621 4278190080
1.6540983 0.73783642 -0.28049013 4278190080
1.6656983 0.73604989 -0.28205273 4278190080
1.6818297 0.7361725 -0.28439668 4278190080
1.6979824 0.7361905 -0.2867406 4278190080
1.7142837 0.73580605 -0.28908452 4278190080
1.7304769 0.73561341 -0.29142848 4278190080
1.7466893 0.73531651 -0.2937724 4278190080
1.7629203 0.73491627 -0.29611632 4278190080
1.7791699 0.7344107 -0.29846025 4278190080
1.7954369 0.73380148 -0.30080417 4278190080
1.8117216 0.73308665 -0.30314809 4278190080
1.8280228 0.73226702 -0.30549201 4278190080
1.8443401 0.73134339 -0.30783594 4278190080
1.8560761 0.72850931 -0.30939856 4278190080
1.8679413 0.72527695 -0.31096122 4278190080
1.8796816 0.72229463 -0.31252381 4278190080
1.8914233 0.71924019 -0.31408644 4278190080
1.9124113 0.71958995 -0.31721169 4278190080
1.9287959 0.71807981 -0.31955558 4278190080
1.949828 0.71816993 -0.32268086 4278190080
1.9662435 0.71643102 -0.32502475 4278190080
1.9873163 0.71626186 -0.32815 4278190080
2.0085368 0.71560228 -0.33127522 4278190080
2.0248713 0.71386486 -0.33361918 4278190080
2.0460043 0.71329504 -0.3367444 4278190080
2.0671577 0.71258622 -0.33986965 4278190080
2.0884547 0.71137464 -0.34299487 4278190080
2.1096468 0.71038389 -0.34612012 4278190080
2.1308565 0.70925486 -0.34924534 4278190080
2.1520846 0.70798528 -0.35237059 4278190080
2.1780255 0.70810413 -0.35627714 4278190080
2.1992917 0.70653868 -0.35940239 4278190080
2.2252808 0.70632744 -0.36330894 4278190080
2.2512939 0.70594448 -0.36721548 4278190080
2.2726145 0.70392597 -0.3703407 4278190080
2.2986703 0.70321316 -0.37424728 4278190080
2.3247488 0.70232564 -0.3781538 4278190080
2.3508489 0.70126462 -0.38206035 4278190080
2.3770916 0.69961584 -0.38596693 4278190080
2.4032311 0.6982038 -0.38987345 4278190080
2.424643 0.69525522 -0.3929987 4278190080
2.4460633 0.69216555 -0.39612392 4278190080
2.4437077 0.68229574 -0.39534262 4278190080
2.3365655 0.64359713 -0.3773725 4278190080
2.2673106 0.61601514 -0.36565286 4278190080
2.1978927 0.58892351 -0.35393322 4278190080
2.199935 0.58124739 -0.35393322 4278190080
2.1923921 0.57107562 -0.35237059 4278190080
2.1800222 0.55973434 -0.35002667 4278190080
2.1915379 0.55454487 -0.35158929 4278190080
2.1934605 0.54689109 -0.35158929 4278190080
2.2001522 0.54040867 -0.35237059 4278190080
2.2020249 0.53272611 -0.35237059 4278190080
2.2086754 0.52618045 -0.35315192 4278190080
2.2104986 0.51846826 -0.35315192 4278190080
2.2122948 0.51074851 -0.35315192 4278190080
2.2140644 0.50302261 -0.35315192 4278190080
2.2158067 0.49529171 -0.35315192 4278190080
2.2224305 0.48822701 -0.35393322 4278190080
2.2289486 0.48150864 -0.35471454 4278190080
2.2354467 0.47475067 -0.35549581 4278190080
2.2322557 0.46593627 -0.35471454 4278190080
2.2628958 0.4640941 -0.35940239 4278190080
2.2064064 0.44448939 -0.35002667 4278190080
2.2515466 0.44540995 -0.35705844 4278190080
2.291872 0.44507927 -0.36330894 4278190080
2.3855853 0.45464361 -0.3781538 4278190080
2.5182283 0.47081855 -0.39924917 4278190080
2.4859328 0.45535734 -0.39378002 4278190080
2.4777856 0.44493082 -0.3922174 4278190080
2.4744594 0.43542391 -0.39143607 4278190080
2.4710977 0.42594439 -0.39065477 4278190080
2.4725695 0.41731551 -0.39065477 4278190080
2.4740112 0.40868288 -0.39065477 4278190080
2.4754226 0.40004396 -0.39065477 4278190080
2.4719257 0.3906306 -0.38987345 4278190080
2.4732742 0.38199905 -0.38987345 4278190080
2.4745927 0.37336287 -0.38987345 4278190080
2.4709952 0.36400372 -0.38909215 4278190080
2.4722507 0.35537559 -0.38909215 4278190080
2.4734759 0.34674445 -0.38909215 4278190080
2.4697781 0.33743921 -0.38831082 4278190080
2.4709411 0.32881552 -0.38831082 4278190080
2.4720738 0.32018909 -0.38831082 4278190080
2.4731765 0.31155747 -0.38831082 4278190080
2.4742486 0.30292338 -0.38831082 4278190080
2.4703872 0.29370123 -0.38752955 4278190080
2.4713974 0.28507566 -0.38752955 4278190080
2.4724257 0.276016 -0.38752955 4278190080
2.4684639 0.26685393 -0.38674822 4278190080
2.4693804 0.25823522 -0.38674822 4278190080
2.4702668 0.24961337 -0.38674822 4278190080
2.471123 0.2409898 -0.38674822 4278190080
2.4719491 0.23236197 -0.38674822 4278190080
2.4727452 0.22373264 -0.38674822 4278190080
2.4735112 0.21509926 -0.38674822 4278190080
2.474247 0.20646325 -0.38674822 4278190080
2.4700298 0.19743256 -0.38596693 4278190080
2.4707038 0.18880883 -0.38596693 4278190080
2.4713478 0.1801841 -0.38596693 4278190080
2.4719617 0.17155586 -0.38596693 4278190080
2.4725456 0.16292554 -0.38596693 4278190080
2.4681702 0.15398702 -0.3851856 4278190080
2.4736228 0.14566034 -0.38596693 4278190080
2.4741161 0.13702568 -0.38596693 4278190080
2.4696474 0.12813216 -0.3851856 4278190080
2.4700797 0.11951018 -0.3851856 4278190080
2.4704816 0.11088806 -0.3851856 4278190080
2.4659371 0.10162824 -0.3844043 4278190080
2.4662769 0.093020678 -0.3844043 4278190080
2.4665866 0.084410675 -0.3844043 4278190080
2.4668663 0.075800955 -0.3844043 4278190080
2.4671159 0.067189001 -0.3844043 4278190080
2.4673352 0.058576223 -0.3844043 4278190080
2.4675248 0.049964044 -0.3844043 4278190080
2.467684 0.041349947 -0.3844043 4278190080
2.4678135 0.032736659 -0.3844043 4278190080
2.4679127 0.024121655 -0.3844043 4278190080
2.4630432 0.015475331 -0.38362297 4278190080
2.4630823 0.0068783984 -0.38362297 4278190080
2.4630914 -0.0017195623 -0.38362297 4278190080
2.4630702 -0.010317344 -0.38362297 4278190080
2.4630191 -0.018915001 -0.38362297 4278190080
2.4629383 -0.027512427 -0.38362297 4278190080
2.4628272 -0.036109518 -0.38362297 4278190080
2.4626861 -0.04470617 -0.38362297 4278190080
2.4625058 -0.053732067 -0.38362297 4278190080
2.4623032 -0.062327489 -0.38362297 4278190080
2.4620705 -0.070922151 -0.38362297 4278190080
2.461808 -0.079515949 -0.38362297 4278190080
2.4615154 -0.088108778 -0.38362297 4278190080
2.4611928 -0.096700534 -0.38362297 4278190080
2.4608405 -0.10529111 -0.38362297 4278190080
2.4604578 -0.11388041 -0.38362297 4278190080
2.4600453 -0.12246831 -0.38362297 4278190080
2.4645345 -0.1313175 -0.3844043 4278190080
2.4640613 -0.13991953 -0.3844043 4278190080
2.4635577 -0.14851986 -0.3844043 4278190080
2.4630244 -0.15711838 -0.3844043 4278190080
2.4624608 -0.16571498 -0.3844043 4278190080
2.4569411 -0.17396076 -0.38362297 4278190080
2.4563189 -0.18253602 -0.38362297 4278190080
2.4556668 -0.19110905 -0.38362297 4278190080
2.4549847 -0.19967978 -0.38362297 4278190080
2.4542727 -0.20824805 -0.38362297 4278190080
2.4535308 -0.2168138 -0.38362297 4278190080
2.4527197 -0.22580498 -0.38362297 4278190080
2.4568329 -0.23483512 -0.3844043 4278190080
2.4559982 -0.24340962 -0.3844043 4278190080
2.4551334 -0.25198117 -0.3844043 4278190080
2.4542389 -0.26054966 -0.3844043 4278190080
2.4533145 -0.26911497 -0.3844043 4278190080
2.4523602 -0.277677 -0.3844043 4278190080
2.4562809 -0.28680837 -0.3851856 4278190080
2.455265 -0.29538065 -0.3851856 4278190080
2.4542189 -0.30394933 -0.3851856 4278190080
2.4580421 -0.31313843 -0.38596693 4278190080
2.456934 -0.32171667 -0.38596693 4278190080
2.4509015 -0.3296327 -0.3851856 4278190080
2.4497359 -0.33818597 -0.3851856 4278190080
2.4485404 -0.34673509 -0.3851856 4278190080
2.4473152 -0.35527995 -0.3851856 4278190080
2.4460602 -0.36382052 -0.3851856 4278190080
2.4447753 -0.37235662 -0.3851856 4278190080
2.4434607 -0.38088822 -0.3851856 4278190080
2.4421163 -0.3894152 -0.3851856 4278190080
2.4883189 -0.39589196 -0.30467334 4278190080
2.4918201 -0.40537223 -0.30528268 4278190080
2.4903898 -0.41406783 -0.30528268 4278190080
2.4889293 -0.42275843 -0.30528268 4278190080
2.4923284 -0.43229195 -0.30589205 4278190080
2.4908042 -0.44098917 -0.30589205 4278190080
2.4941332 -0.45056322 -0.30650139 4278190080
2.4925454 -0.4592666 -0.30650139 4278190080
2.490927 -0.46796444 -0.30650139 4278190080
2.4892783 -0.47665656 -0.30650139 4278190080
2.4875991 -0.48534283 -0.30650139 4278190080
2.4858899 -0.49402323 -0.30650139 4278190080
2.4889266 -0.50411636 -0.30711076 4278190080
2.4872413 -0.51236719 -0.30711076 4278190080
2.4854376 -0.5210461 -0.30711076 4278190080
2.4836037 -0.52971876 -0.30711076 4278190080
2.4817395 -0.53838491 -0.30711076 4278190080
2.479845 -0.54704452 -0.30711076 4278190080
2.4827628 -0.55678344 -0.30772007 4278190080
2.480804 -0.5654465 -0.30772007 4278190080
2.4788151 -0.57410264 -0.30772007 4278190080
2.481627 -0.58388847 -0.30832943 4278190080
2.4795737 -0.59254736 -0.30832943 4278190080
2.4823129 -0.60236943 -0.30893877 4278190080
2.480195 -0.61103064 -0.30893877 4278190080
2.4828618 -0.62088835 -0.30954814 4278190080
2.4805694 -0.62998438 -0.30954814 4278190080
2.4783552 -0.63863933 -0.30954814 4278190080
2.4761107 -0.64728647 -0.30954814 4278190080
2.4786332 -0.65719765 -0.31015745 4278190080
2.4763238 -0.66584569 -0.31015745 4278190080
2.4787726 -0.67579103 -0.31076682 4278190080
2.4763987 -0.68443942 -0.31076682 4278190080
2.4787731 -0.69441819 -0.31137615 4278190080
2.4762113 -0.70349872 -0.31137615 4278190080
2.4785097 -0.71351093 -0.31198552 4278190080
2.4760039 -0.72215825 -0.31198552 4278190080
2.4783552 -0.7317704 -0.31259486 4278190080
2.4757857 -0.74041694 -0.31259486 4278190080
2.4731863 -0.74905455 -0.31259486 4278190080
2.4751685 -0.75957006 -0.3132042 4278190080
2.472636 -0.76777387 -0.3132042 4278190080
2.4746754 -0.7778886 -0.31381357 4278190080
2.4719448 -0.78652203 -0.31381357 4278190080
2.4739082 -0.7966671 -0.31442291 4278190080
2.4711123 -0.80529779 -0.31442291 4278190080
2.4681439 -0.81434947 -0.31442291 4278190080
2.4652863 -0.8229599 -0.31442291 4278190080
2.4671006 -0.83314824 -0.31503224 4278190080
2.4641774 -0.84175497 -0.31503224 4278190080
2.4659147 -0.85197198 -0.31564158 4278190080
2.4629257 -0.86057448 -0.31564158 4278190080
2.464586 -0.87081975 -0.31625095 4278190080
2.4662046 -0.88108712 -0.31686029 4278190080
2.463114 -0.8896904 -0.31686029 4278190080
2.4646552 -0.89998507 -0.31746966 4278190080
2.4614985 -0.90858293 -0.31746966 4278190080
2.458312 -0.91716957 -0.31746966 4278190080
2.459739 -0.92749602 -0.31807896 4278190080
2.4566498 -0.93564773 -0.31807896 4278190080
2.4580004 -0.94599986 -0.31868833 4278190080
2.4593086 -0.9563728 -0.31929767 4278190080
2.4559553 -0.96495157 -0.31929767 4278190080
2.4571848 -0.97534949 -0.31990704 4278190080
2.4537652 -0.98392075 -0.31990704 4278190080
2.4549153 -0.99434304 -0.32051635 4278190080
2.4512544 -1.003334 -0.32051635 4278190080
2.4523234 -1.0137804 -0.32112572 4278190080
2.4533494 -1.0242463 -0.32173505 4278190080
2.4543321 -1.0347319 -0.32234442 4278190080
2.4552715 -1.0452366 -0.32295373 4278190080
2.4561672 -1.0557606 -0.3235631 4278190080
2.4524672 -1.0643277 -0.3235631 4278190080
2.4532824 -1.0748736 -0.32417244 4278190080
2.4495153 -1.0834306 -0.32417244 4278190080
2.4502504 -1.0939977 -0.32478181 4278190080
2.4464166 -1.102544 -0.32478181 4278190080
2.4470704 -1.1131316 -0.32539111 4278190080
2.44768 -1.1237375 -0.32600048 4278190080
2.4482453 -1.1343609 -0.32660982 4278190080
2.4487665 -1.145002 -0.32721919 4278190080
2.4494448 -1.1552331 -0.32782853 4278190080
2.4498782 -1.1659088 -0.32843786 4278190080
2.4502673 -1.1766016 -0.32904723 4278190080
2.4459383 -1.1855744 -0.32904723 4278190080
2.4464519 -1.1958582 -0.32965657 4278190080
2.4467137 -1.2065858 -0.33026594 4278190080
2.442487 -1.215119 -0.33026594 4278190080
2.4426661 -1.2258633 -0.33087525 4278190080
2.4427998 -1.2366239 -0.33148462 4278190080
2.4426703 -1.2478265 -0.33209395 4278190080
2.4427114 -1.2586186 -0.33270332 4278190080
2.4427066 -1.2694259 -0.33331263 4278190080
2.4428797 -1.2798223 -0.333922 4278190080
2.4427853 -1.2906601 -0.33453134 4278190080
2.4384918 -1.2987536 -0.33453134 4278190080
2.4378583 -1.310457 -0.33514071 4278190080
2.4376321 -1.3213235 -0.33575001 4278190080
2.4330049 -1.3298244 -0.33575001 4278190080
2.4326947 -1.3407046 -0.33635938 4278190080
2.4323378 -1.3515985 -0.33696872 4278190080
2.4319346 -1.3625064 -0.33757809 4278190080
2.4314847 -1.3734279 -0.3381874 4278190080
2.4309883 -1.3843628 -0.33879676 4278190080
2.430445 -1.395311 -0.3394061 4278190080
2.4298549 -1.4062722 -0.34001547 4278190080
2.4292178 -1.4172462 -0.34062481 4278190080
2.4287829 -1.4278091 -0.34123415 4278190080
2.4280536 -1.4388083 -0.34184349 4278190080
2.4272771 -1.4498199 -0.34245285 4278190080
2.4264529 -1.4608434 -0.34306219 4278190080
2.4255817 -1.4718791 -0.34367153 4278190080
2.4244041 -1.4833494 -0.3442809 4278190080
2.4236963 -1.4939851 -0.34489024 4278190080
2.4268975 -1.5076739 -0.34610891 4278190080
2.4258263 -1.5187696 -0.34671828 4278190080
2.4247072 -1.5298762 -0.34732762 4278190080
2.4235401 -1.5409937 -0.34793699 4278190080
2.4220536 -1.5525441 -0.3485463 4278190080
2.4207883 -1.563682 -0.34915566 4278190080
2.4197493 -1.5744073 -0.349765 4278190080
2.4225392 -1.5882864 -0.35098368 4278190080
2.4211214 -1.5994686 -0.35159305 4278190080
2.4155233 -1.6079102 -0.35159305 4278190080
2.4140174 -1.6190963 -0.35220239 4278190080
2.4165747 -1.6330703 -0.35342109 4278190080
2.4149618 -1.6442889 -0.35403043 4278190080
2.4132996 -1.655516 -0.35463977 4278190080
2.4115887 -1.6667516 -0.35524914 4278190080
2.4139013 -1.6808311 -0.35646781 4278190080
2.4120822 -1.6920969 -0.35707715 4278190080
2.4142663 -1.7062348 -0.35829586 4278190080
2.4123387 -1.7175303 -0.3589052 4278190080
2.4143939 -1.7317253 -0.3601239 4278190080
2.4123571 -1.743049 -0.36073327 4278190080
2.4142828 -1.7573001 -0.36195195 4278190080
2.408134 -1.7657169 -0.36195195 4278190080
2.4309652 -2.057236 -0.38632581 4278190080
2.416544 -2.0741568 -0.38632581 4278190080
2.4167981 -2.0890703 -0.38754448 4278190080
2.4094911 -2.0974939 -0.38754448 4278190080
2.4208136 -2.1222494 -0.39059123 4278190080
2.4059503 -2.1241176 -0.38937256 4278190080
2.4059389 -2.1390979 -0.39059123 4278190080
2.3873653 -2.1375518 -0.38876319 4278190080
2.1014967 -2.3861978 -0.38571647 4278190080
2.0866206 -2.3860474 -0.38449776 4278190080
2.0717714 -2.3858221 -0.38327909 4278190080
2.0569491 -2.3855226 -0.38206038 4278190080
2.0389266 -2.3813789 -0.38023233 4278190080
2.0241725 -2.3809195 -0.37901366 4278190080
2.0094469 -2.3803864 -0.37779495 4278190080
1.9951649 -2.3794312 -0.37657627 4278190080
1.9804962 -2.3787534 -0.37535757 4278190080
1.9658568 -2.3780022 -0.37413886 4278190080
1.9543953 -2.3810136 -0.37352952 4278190080
1.9429369 -2.3839746 -0.37292019 4278190080
1.9252379 -2.3791685 -0.37109214 4278190080
1.9138131 -2.3820057 -0.3704828 4278190080
1.9085815 -2.3925509 -0.37109214 4278190080
1.7564583 -2.3841438 -0.3589052 4278190080
1.7334772 -2.3702319 -0.35585847 4278190080
1.7193618 -2.3682363 -0.35463977 4278190080
1.7052814 -2.3661716 -0.35342109 4278190080
1.6912366 -2.364037 -0.35220239 4278190080
1.6772275 -2.3618338 -0.35098368 4278190080
1.6661136 -2.3636179 -0.35037437 4278190080
1.6521628 -2.3612869 -0.34915566 4278190080
1.6414918 -2.3626769 -0.3485463 4278190080
1.6275997 -2.3602214 -0.34732762 4278190080
1.6165481 -2.3617933 -0.34671828 4278190080
1.6055052 -2.3633165 -0.34610891 4278190080
1.5944717 -2.3647916 -0.3454996 4278190080
1.5779272 -2.3579695 -0.34367153 4278190080
1.5614498 -2.3510609 -0.34184349 4278190080
1.5586958 -2.3647842 -0.34306219 4278190080
1.4524511 -2.3618491 -0.33575001 4278190080
1.4390281 -2.3584321 -0.33453134 4278190080
1.4260577 -2.354701 -0.33331263 4278190080
1.4127176 -2.3511569 -0.33209395 4278190080
1.4019608 -2.3518112 -0.33148462 4278190080
1.3937429 -2.3566906 -0.33148462 4278190080
1.3804855 -2.3529804 -0.33026594 4278190080
1.3747599 -2.3620739 -0.33087525 4278190080
1.3615437 -2.3582628 -0.32965657 4278190080
1.2551168 -2.3997967 -0.32782853 4278190080
1.2326096 -2.3779447 -0.32417244 4278190080
1.2179096 -2.3687787 -0.32234442 4278190080
1.1916031 -2.3376441 -0.31746966 4278190080
1.1811976 -2.3373599 -0.31686029 4278190080
1.1708087 -2.3370318 -0.31625095 4278190080
1.1626438 -2.3411045 -0.31625095 4278190080
1.1522727 -2.3406961 -0.31564158 4278190080
1.1419189 -2.3402441 -0.31503224 4278190080
1.1337429 -2.3442159 -0.31503224 4278190080
0.43595931 -0.93406647 -0.12186934 4278190080
0.43061298 -0.93107826 -0.12125999 4278190080
1.0376263 -2.3503914 -0.31076682 4278190080
1.0214621 -2.3358111 -0.30832943 4278190080
1.0093571 -2.3302548 -0.30711076 4278190080
1.0031735 -2.3383245 -0.30772007 4278190080
0.99112356 -2.3326769 -0.30650139 4278190080
0.98297507 -2.3361223 -0.30650139 4278190080
0.97290593 -2.3349583 -0.30589205 4278190080
0.96285647 -2.3337526 -0.30528268 4278190080
0.95470446 -2.3370993 -0.30528268 4278190080
0.94508755 -2.3356521 -0.30467334 4278190080
0.93508351 -2.3343298 -0.30406401 4278190080
0.92510003 -2.3329666 -0.30345467 4278190080
0.91513771 -2.3315618 -0.3028453 4278190080
0.90519655 -2.3301163 -0.30223596 4278190080
0.89527631 -2.3286295 -0.30162662 4278190080
0.88537782 -2.3271022 -0.30101728 4278190080
0.87724918 -2.3301785 -0.30101728 4278190080
0.86737776 -2.3285758 -0.30040792 4278190080
0.85752833 -2.3269329 -0.29979858 4278190080
0.8477006 -2.3252494 -0.29918924 4278190080
0.83957887 -2.3281941 -0.29918924 4278190080
0.83018565 -2.3262918 -0.2985799 4278190080
0.8204087 -2.3244956 -0.29797053 4278190080
0.81065416 -2.3226597 -0.2973612 4278190080
0.80254179 -2.3254752 -0.2973612 4278190080
0.79602182 -2.3329592 -0.29797053 4278190080
0.77855307 -2.333616 -0.2973612 4278190080
0.20313868 -0.61603743 -0.074949645 4278190080
0.2003542 -0.62216443 -0.07555899 4278190080
0.20119067 -0.6323182 -0.076777689 4278190080
0.2138641 -0.68036008 -0.082871154 4278190080
0.21590289 -0.69532096 -0.084699191 4278190080
0.20765409 -0.6770919 -0.082261808 4278190080
0.2024122 -0.66831326 -0.081043109 4278190080
0.20007814 -0.66901577 -0.081043109 4278190080
0.18930955 -0.64115256 -0.077387035 4278190080
0.18845911 -0.6465739 -0.077996381 4278190080
0.19168933 -0.66630495 -0.080433764 4278190080
0.18167801 -0.64851195 -0.077996381 4278190080
0.62343884 -2.3848844 -0.29797053 4278190080
0.61056989 -2.3677166 -0.29553315 4278190080
0.59985656 -2.3602138 -0.29431447 4278190080
0.58358109 -2.3284931 -0.29004902 4278190080
0.5714764 -2.3161619 -0.288221 4278190080
0.5622161 -2.3133199 -0.28761163 4278190080
0.55413753 -2.3152685 -0.28761163 4278190080
0.54491419 -2.3123584 -0.2870023 4278190080
0.53683901 -2.3142464 -0.2870023 4278190080
0.52805656 -2.3111756 -0.28639296 4278190080
0.51998562 -2.313005 -0.28639296 4278190080
0.51083714 -2.3099604 -0.28578362 4278190080
0.50236732 -2.3118172 -0.28578362 4278190080
0.49429432 -2.3135567 -0.28578362 4278190080
0.48519564 -2.310411 -0.28517425 4278190080
0.47753128 -2.3120074 -0.28517425 4278190080
0.46945807 -2.3136601 -0.28517425 4278190080
0.46040899 -2.3104179 -0.28456491 4278190080
0.45234147 -2.3120108 -0.28456491 4278190080
0.44426841 -2.3135757 -0.28456491 4278190080
0.43527073 -2.3102355 -0.28395557 4278190080
0.42720398 -2.3117406 -0.28395557 4278190080
0.41913173 -2.3132179 -0.28395557 4278190080
0.41018692 -2.3097806 -0.28334624 4278190080
0.4021219 -2.3111985 -0.28334624 4278190080
0.3940517 -2.312588 -0.28334624 4278190080
0.38516045 -2.3090541 -0.28273687 4278190080
0.37789726 -2.3152826 -0.28334624 4278190080
0.36824855 -2.3067863 -0.28212753 4278190080
0.36095947 -2.3129609 -0.28273687 4278190080
0.35213527 -2.3093009 -0.28212753 4278190080
0.33569363 -2.3067331 -0.28151819 4278190080
0.089866929 -0.70249385 -0.082261808 4278190080
0.082579039 -0.68339652 -0.079824418 4278190080
0.076724201 -0.65410697 -0.076168336 4278190080
0.073318556 -0.64450896 -0.074949645 4278190080
0.071612105 -0.64969385 -0.07555899 4278190080
0.068290763 -0.64007044 -0.074340299 4278190080
0.067583933 -0.65511447 -0.076168336 4278190080
0.066280849 -0.66522294 -0.077387035 4278190080
0.20769061 -2.3317256 -0.28273687 4278190080
0.19953352 -2.327457 -0.28212753 4278190080
0.19100113 -2.3231933 -0.28151819 4278190080
0.18563771 -2.353498 -0.28517425 4278190080
0.1755221 -2.3343675 -0.28273687 4278190080
0.16772722 -2.3399162 -0.28334624 4278190080
0.15922093 -2.335536 -0.28273687 4278190080
0.15147504 -2.3360512 -0.28273687 4278190080
0.1433199 -2.3365657 -0.28273687 4278190080
0.13544925 -2.3420062 -0.28334624 4278190080
0.12888889 -2.3721974 -0.2870023 4278190080
0.1187463 -2.3280051 -0.28151819 4278190080
0.10920641 -2.2986624 -0.2778621 4278190080
0.10074532 -2.289114 -0.2766434 4278190080
0.090754434 -2.2497983 -0.27176863 4278190080
0.081641279 -2.2054527 -0.2662845 4278190080
0.072445691 -2.1610847 -0.26080039 4278190080
0.063710116 -2.1216404 -0.2559256 4278190080
0.05527965 -2.0970547 -0.2528789 4278190080
0.01052093 -0.83718354 -0.09810482 4278190080
0.0047037723 -0.84219927 -0.098714165 4278190080
0.0017431761 -0.83228505 -0.097495466 4278190080
-0.0011690474 -0.83724886 -0.09810482 4278190080
-0.0040430347 -0.82731426 -0.096886121 4278190080
-0.0069309422 -0.82729512 -0.096886121 4278190080
-0.0098186545 -0.82726586 -0.096886121 4278190080
-0.012706247 -0.82722658 -0.096886121 4278190080
-0.015356721 -0.822218 -0.096276775 4278190080
-0.018226661 -0.82215941 -0.096276775 4278190080
-0.021096487 -0.8220908 -0.096276775 4278190080
-0.023821319 -0.81705153 -0.095667429 4278190080
-0.026673282 -0.81696337 -0.095667429 4278190080
-0.029345553 -0.8119058 -0.095058084 4278190080
-0.032179412 -0.81179845 -0.095058084 4278190080
-0.035012987 -0.81168115 -0.095058084 4278190080
-0.037846025 -0.81155401 -0.095058084 4278190080
-0.040927194 -0.81637347 -0.095667429 4278190080
-0.043776579 -0.81622559 -0.095667429 4278190080
-0.046625428 -0.81606781 -0.095667429 4278190080
-0.049031876 -0.81095505 -0.095058084 4278190080
-0.051862404 -0.81077892 -0.095058084 4278190080
-0.053689934 -0.79573858 -0.093230046 4278190080
-0.057872679 -0.81534737 -0.095667429 4278190080
-0.060349841 -0.81019139 -0.095058084 4278190080
-0.065601364 -0.80480403 -0.094448738 4278190080
-0.11710144 -0.82902002 -0.09810482 4278190080
-0.11786072 -0.81387168 -0.096276775 4278190080
-0.12361461 -0.83309132 -0.098714165 4278190080
-0.12866488 -0.82730424 -0.09810482 4278190080
-0.12999246 -0.81704783 -0.096886121 4278190080
-0.13682799 -0.84108084 -0.099932864 4278190080
-0.14220503 -0.85528463 -0.1017609 4278190080
-0.14020336 -0.82542717 -0.09810482 4278190080
-0.14138749 -0.81515324 -0.096886121 4278190080
-0.15310252 -0.84835887 -0.10115156 4278190080
-0.15246917 -0.82829636 -0.098714165 4278190080
-0.14895131 -0.79361612 -0.094448738 4278190080
-0.16113454 -0.82665431 -0.098714165 4278190080
-0.16401918 -0.82608682 -0.098714165 4278190080
-0.16985212 -0.84010214 -0.10054221 4278190080
-0.17078267 -0.82978249 -0.099323511 4278190080
-0.17266077 -0.82432395 -0.098714165 4278190080
-0.17553711 -0.82371622 -0.098714165 4278190080
-0.17525753 -0.80854809 -0.096886121 4278190080
-0.18128343 -0.82247066 -0.098714165 4278190080
-0.17967276 -0.80249363 -0.096276775 4278190080
-0.19647494 -0.82407725 -0.099323511 4278190080
-0.20168585 -0.83303314 -0.10054221 4278190080
-0.19630006 -0.79858911 -0.096276775 4278190080
-0.2177075 -0.85974073 -0.10419828 4278190080
-0.20959213 -0.81571615 -0.098714165 4278190080
-0.21368998 -0.81978184 -0.099323511 4278190080
-0.22035584 -0.83342451 -0.10115156 4278190080
-0.24059387 -0.81746775 -0.099932864 4278190080
-0.24344584 -0.81662291 -0.099932864 4278190080
-0.24772936 -0.82051909 -0.10054221 4278190080
-0.24623907 -0.8054117 -0.098714165 4278190080
-0.25785404 -0.83299202 -0.10237025 4278190080
-0.25333995 -0.80840868 -0.099323511 4278190080
-0.26366311 -0.83117151 -0.10237025 4278190080
-0.26931456 -0.82935762 -0.10237025 4278190080
-1.0095706 -2.2922533 -0.3028453 4278190080
-1.0014369 -2.2524374 -0.29797053 4278190080
-1.0072613 -2.2444005 -0.2973612 4278190080
-1.0191852 -2.2499118 -0.2985799 4278190080
-1.0270326 -2.2463405 -0.2985799 4278190080
-1.0348674 -2.2427418 -0.2985799 4278190080
-1.042299 -2.2392976 -0.2985799 4278190080
-1.0522193 -2.2401373 -0.29918924 4278190080
-1.0621579 -2.2409356 -0.29979858 4278190080
-1.0721147 -2.2416911 -0.30040792 4278190080
-1.0820903 -2.2424047 -0.30101728 4278190080
-1.089911 -2.2386138 -0.30101728 4278190080
-1.0999067 -2.2392499 -0.30162662 4278190080
-1.1099198 -2.2398438 -0.30223596 4278190080
-1.1195595 -2.2405901 -0.3028453 4278190080
-1.1296076 -2.2411003 -0.30345467 4278190080
-1.1396725 -2.2415674 -0.30406401 4278190080
-1.149755 -2.2419913 -0.30467334 4278190080
-1.1598538 -2.2423723 -0.30528268 4278190080
-1.1699697 -2.2427099 -0.30589205 4278190080
-1.177791 -2.2386124 -0.30589205 4278190080
-1.1879238 -2.2388713 -0.30650139 4278190080
-1.1980733 -2.2390866 -0.30711076 4278190080
-1.2082382 -2.2392585 -0.30772007 4278190080
-1.2184194 -2.2393866 -0.30832943 4278190080
-1.2262288 -2.2351201 -0.30832943 4278190080
-1.2364254 -2.2351685 -0.30893877 4278190080
-1.2466376 -2.2351732 -0.30954814 4278190080
-1.2568644 -2.2351336 -0.31015745 4278190080
-1.2671067 -2.23505 -0.31076682 4278190080
-1.2773632 -2.2349219 -0.31137615 4278190080
-1.2876343 -2.2347498 -0.31198552 4278190080
-1.2975298 -2.2347593 -0.31259486 4278190080
-1.3103362 -2.2387826 -0.31381357 4278190080
-1.320665 -2.2384691 -0.31442291 4278190080
-1.3310072 -2.238111 -0.31503224 4278190080
-1.3388118 -2.2334514 -0.31503224 4278190080
-1.349166 -2.233012 -0.31564158 4278190080
-1.3591441 -2.2327647 -0.31625095 4278190080
-1.3695247 -2.2322369 -0.31686029 4278190080
-1.3799186 -2.2316637 -0.31746966 4278190080
-1.3903246 -2.2310452 -0.31807896 4278190080
-1.3981038 -2.2261784 -0.31807896 4278190080
-1.4085205 -2.2254779 -0.31868833 4278190080
-1.4189487 -2.2247319 -0.31929767 4278190080
-1.5786684 -2.2612858 -0.333922 4278190080
-1.6001549 -2.2583079 -0.33514071 4278190080
-1.5936116 -2.2325125 -0.33209395 4278190080
-1.601395 -2.2269361 -0.33209395 4278190080
-1.6091585 -2.2213326 -0.33209395 4278190080
-1.6227536 -2.2237196 -0.33331263 4278190080
-1.6334454 -2.2220404 -0.333922 4278190080
-1.6470983 -2.2243016 -0.33514071 4278190080
-1.6578199 -2.2225163 -0.33575001 4278190080
-1.6685488 -2.2206838 -0.33635938 4278190080
-1.6822804 -2.22276 -0.33757809 4278190080
-1.6930375 -2.2208209 -0.3381874 4278190080
-1.7038018 -2.2188339 -0.33879676 4278190080
-1.7172215 -2.2210238 -0.34001547 4278190080
-1.7280132 -2.2189312 -0.34062481 4278190080
-1.7418737 -2.2206955 -0.34184349 4278190080
-1.7530788 -2.21819 -0.34245285 4278190080
-1.7669924 -2.2198226 -0.34367153 4278190080
-1.7774476 -2.2178233 -0.3442809 4278190080
-1.7914125 -2.2193289 -0.3454996 4278190080
-1.8054094 -2.2207637 -0.34671828 4278190080
-1.8162942 -2.2182879 -0.34732762 4278190080
-1.830341 -2.2195921 -0.3485463 4278190080
-1.8444195 -2.2208247 -0.349765 4278190080
-1.8553443 -2.2181797 -0.35037437 4278190080
-1.8694704 -2.219281 -0.35159305 4278190080
-1.8836266 -2.2203107 -0.35281175 4278190080
-1.8974252 -2.2215993 -0.35403043 4278190080
-1.9181131 -2.2300124 -0.35646781 4278190080
-1.922636 -2.2195523 -0.35585847 4278190080
-1.933635 -2.2165668 -0.35646781 4278190080
-1.9589272 -2.2141645 -0.35829586 4278190080
-2.1175241 -2.2166367 -0.37170148 4278190080
-2.1286891 -2.2128081 -0.37231082 4278190080
-2.139468 -2.2093019 -0.37292019 4278190080
-2.1644907 -2.2195857 -0.37596694 4278190080
-2.1722252 -2.2120168 -0.37596694 4278190080
-2.1869123 -2.2114785 -0.37718561 4278190080
-2.1981206 -2.2073472 -0.37779495 4278190080
-2.2128403 -2.2066693 -0.37901366 4278190080
-2.227582 -2.2059159 -0.38023233 4278190080
-2.2423453 -2.2050862 -0.38145104 4278190080
-2.2606807 -2.2076476 -0.38327909 4278190080
-2.2754986 -2.2066522 -0.38449776 4278190080
-2.289952 -2.2059801 -0.38571647 4278190080
