# .PCD v0.7 - Point Cloud Data file format
VERSION 0.7
FIELDS x y z rgb
SIZE 4 4 4 4
TYPE F F F U
COUNT 1 1 1 1
WIDTH 1068
HEIGHT 1
VIEWPOINT 0 0 0 1 0 0 0
POINTS 1068
DATA ascii
0.97035706 -0.93139678 0.47385821 4294967295
0.97689992 -0.92880726 0.44871432 4294967295
0.97304618 -0.93564045 0.44360051 4294967295
0.97568548 -0.9281258 0.41189939 4294967295
0.96971697 -0.93484384 0.42000115 4294967295
0.97339541 -0.9269712 0.38455278 4294967295
0.98032522 -0.9306072 0.38843393 4294967295
0.97370559 -0.92548937 0.35447413 4294967295
0.9610678 -0.93728459 0.34890926 4294967295
0.97357279 -0.92469764 0.32590094 4294967295
0.9616015 -0.93799317 0.32517236 4294967295
0.97544181 -0.92843556 0.29392511 4294967295
0.96948826 -0.93417245 0.2946018 4294967295
0.9722386 -0.92389023 0.2648586 4294967295
0.96359992 -0.93223411 0.2756604 4294967295
0.97528774 -0.92617792 0.23519668 4294967295
0.96170008 -0.93768495 0.22626197 4294967295
0.97499454 -0.92710531 0.20587656 4294967295
0.96103841 -0.93625063 0.21573317 4294967295
0.97352052 -0.92498809 0.17417347 4294967295
0.96060318 -0.93766344 0.1690301 4294967295
0.97417414 -0.91950858 0.14646354 4294967295
0.97370744 -0.92298746 0.11524934 4294967295
0.96076435 -0.93658906 0.11227754 4294967295
0.98109794 -0.92431509 0.086703002 4294967295
0.97938454 -0.93300295 0.085600644 4294967295
0.98469973 -0.92649168 0.052097768 4294967295
0.97614658 -0.93377823 0.051514208 4294967295
0.97463185 -0.92182857 0.024598211 4294967295
0.96872199 -0.9349376 0.025146365 4294967295
0.98334801 0.84560525 -0.012771308 4294967295
0.97843474 0.82378352 -0.012652934 4294967295
0.97974402 0.79546469 -0.012545109 4294967295
0.97926563 0.76492655 -0.013000607 4294967295
0.97592801 0.73550969 -0.012089908 4294967295
0.97509366 0.70477623 -0.011501849 4294967295
0.97443485 0.67442554 -0.0095450878 4294967295
0.97620523 0.64522558 -0.010488272 4294967295
0.97510028 0.61455947 -0.0088998079 4294967295
0.97508484 0.58514452 -0.008896172 4294967295
0.97377461 0.55466127 -0.008238256 4294967295
0.97370416 0.52472901 -0.0082139373 4294967295
0.97581911 0.49533555 -0.0094254613 4294967295
0.97495824 0.46466053 -0.0098341107 4294967295
0.97669125 0.43497461 -0.01083225 4294967295
0.97467482 0.40485743 -0.0089193583 4294967295
0.97312605 0.37485331 -0.0090549588 4294967295
0.97434437 0.34529084 -0.010159254 4294967295
0.97711563 0.31524354 -0.012319565 4294967295
0.97385585 0.28436062 -0.0095440149 4294967295
0.97504824 0.25494614 -0.0099710226 4294967295
0.9748854 0.22521935 -0.0092484951 4294967295
0.97287953 0.19505714 -0.0077685714 4294967295
0.97440583 0.16528334 -0.0085808635 4294967295
0.97352272 0.13534872 -0.0082159042 4294967295
0.9728725 0.1048969 -0.0078886151 4294967295
0.9728846 0.074953876 -0.0076510906 4294967295
0.97243786 0.044705629 -0.007624507 4294967295
0.97379977 0.014587358 -0.008195281 4294967295
0.9753719 -0.014701343 -0.009128809 4294967295
0.97381949 -0.045099784 -0.0086402297 4294967295
0.97445059 -0.074681737 -0.0090880394 4294967295
0.97554255 -0.10522456 -0.0095538497 4294967295
0.97486728 -0.13465969 -0.0091629028 4294967295
0.97345752 -0.1651241 -0.0081513524 4294967295
0.97244757 -0.19500966 -0.0074249506 4294967295
0.97423005 -0.22522792 -0.0084593296 4294967295
0.97373807 -0.25494182 -0.0082625151 4294967295
0.97484869 -0.28531939 -0.0088323951 4294967295
0.97369921 -0.31464568 -0.0088139176 4294967295
0.97484922 -0.34569675 -0.0095583797 4294967295
0.97226584 -0.37412882 -0.0079213977 4294967295
0.97457528 -0.4055661 -0.0094659328 4294967295
0.97436488 -0.43508396 -0.0093653202 4294967295
0.97428632 -0.46472836 -0.0077393651 4294967295
0.97500855 -0.4946841 -0.0097637177 4294967295
0.97574794 -0.52497375 -0.010688603 4294967295
0.97372323 -0.55528694 -0.010467172 4294967295
0.97416067 -0.58515811 -0.0094897151 4294967295
0.97208518 -0.61588484 -0.0080450773 4294967295
0.97127926 -0.64468461 -0.0051462054 4294967295
0.97453779 -0.67443281 -0.010098577 4294967295
0.97456408 -0.70600939 -0.011010826 4294967295
0.97505033 -0.73508966 -0.0092661977 4294967295
0.97444588 -0.76501358 -0.0093519688 4294967295
0.97187853 -0.79477453 -0.0077539086 4294967295
0.97446734 -0.82495451 -0.0087047219 4294967295
0.97525197 -0.85505241 -0.0091328621 4294967295
0.97723442 -0.88607836 -0.010063529 4294967295
0.97321707 -0.91503978 -0.0022063255 4294967295
0.96420902 -0.94086081 -0.0012255311 4294967295
0.97799999 0.78615952 -0.020740271 4294967295
1.015 -0.92913336 1.0609298 4294967295
1.0077177 -0.93431693 1.0714157 4294967295
1.011125 -0.92933881 1.0524354 4294967295
1.0075786 -0.93520844 1.0454165 4294967295
1.0154256 -0.92766285 1.0135871 4294967295
1.0057628 -0.93635678 1.0147762 4294967295
1.0140001 -0.92893875 0.99416167 4294967295
1.0054557 -0.93339288 0.98462939 4294967295
1.01108 -0.92789191 0.94835347 4294967295
1.0032572 -0.93187785 0.95793945 4294967295
1.0036286 -0.92396134 0.92464143 4294967295
1.0068606 -0.9226898 0.89673352 4294967295
1.0002956 -0.93339258 0.89022529 4294967295
1.0122561 -0.92627579 0.86541098 4294967295
1.001853 -0.93240392 0.86499679 4294967295
1.0073498 -0.9272483 0.83538568 4294967295
0.99991667 -0.93165183 0.83181548 4294967295
1.0103413 -0.92793918 0.80355126 4294967295
1.0001131 -0.93503392 0.80868566 4294967295
1.0101923 -0.92692327 0.77676511 4294967295
1.0013103 -0.93235201 0.77258003 4294967295
1.0095829 -0.92493254 0.74342072 4294967295
0.99740899 -0.93426901 0.74624056 4294967295
1.0055715 -0.92541975 0.71808332 4294967295
1.0038959 -0.93134809 0.70711046 4294967295
1.0026129 -0.92858475 0.67997724 4294967295
1.0079602 -0.93176401 0.68833005 4294967295
1.0075265 -0.92852092 0.66022778 4294967295
1.0027341 -0.9323014 0.64955324 4294967295
1.0116792 -0.92830276 0.62461609 4294967295
1.0024427 -0.93162686 0.62596005 4294967295
1.0042833 -0.9270153 0.59318161 4294967295
1.0103158 -0.93097162 0.60575938 4294967295
1.0052093 -0.92587334 0.56501853 4294967295
1.0056943 -0.92678821 0.53519738 4294967295
1.0048001 -0.9305191 0.53374773 4294967295
1.0053551 -0.92542684 0.50647652 4294967295
1.0044286 -0.93093884 0.49565676 4294967295
1.0062066 -0.92708707 0.47538194 4294967295
1.0038462 -0.9309178 0.46572885 4294967295
1.0114192 -0.92695475 0.44488341 4294967295
1.0018001 -0.93253064 0.44575271 4294967295
1.0022882 -0.92730916 0.40879035 4294967295
1.0084865 -0.93262202 0.41830528 4294967295
1.0057315 -0.92535204 0.38512081 4294967295
1.0046667 -0.93055111 0.3732183 4294967295
1.0058969 -0.92544222 0.35467467 4294967295
1.0046923 -0.93099141 0.36454755 4294967295
1.0044684 -0.92568785 0.32548147 4294967295
1.0073755 -0.9240458 0.29369533 4294967295
1.0040714 -0.93077308 0.2886613 4294967295
1.0069399 -0.92492747 0.26643777 4294967295
1.0056523 -0.92511386 0.23450908 4294967295
1.0056949 -0.9255119 0.20471522 4294967295
1.0038333 -0.9309426 0.19283685 4294967295
1.0062639 -0.92548382 0.17420194 4294967295
1.0054616 -0.93134511 0.18444028 4294967295
1.0059032 -0.9189896 0.14651266 4294967295
1.0058451 -0.92104316 0.11103317 4294967295
1.013706 -0.93098044 0.1226345 4294967295
1.0058354 -0.91439289 0.085624307 4294967295
1.0064447 -0.91842914 0.053965151 4294967295
1.006614 -0.91847134 0.027037293 4294967295
1.0146875 0.87464839 -0.01085186 4294967295
1.007615 0.85429221 -0.011924326 4294967295
1.0059999 0.82527632 -0.0099914074 4294967295
1.0067413 0.79521847 -0.010324955 4294967295
1.0058682 0.7659443 -0.012475312 4294967295
1.0069736 0.73433077 -0.013545275 4294967295
1.006407 0.70609796 -0.0096033812 4294967295
1.0054677 0.67545217 -0.009051919 4294967295
1.0054853 0.64592934 -0.0086639524 4294967295
1.0058949 0.61458796 -0.0067413449 4294967295
1.0052605 0.58501065 -0.0070894361 4294967295
1.0062057 0.55548906 -0.0081558824 4294967295
1.0060123 0.52401453 -0.0060735941 4294967295
1.0053217 0.49502662 -0.0063764453 4294967295
1.0046003 0.46541458 -0.0074911714 4294967295
1.0051975 0.4358061 -0.0073737502 4294967295
1.0065118 0.40446249 -0.0080986619 4294967295
1.0057834 0.37455508 -0.0080087185 4294967295
1.0063335 0.34467781 -0.0089812875 4294967295
1.0062131 0.31546339 -0.0090153813 4294967295
1.0063038 0.28542328 -0.0098776817 4294967295
1.0050386 0.25475124 -0.0078818798 4294967295
1.0055001 0.22510219 -0.0073320866 4294967295
1.0048356 0.19464712 -0.0056710839 4294967295
1.0052897 0.16469018 -0.0067315698 4294967295
1.0058422 0.13497716 -0.0076354742 4294967295
1.0072663 0.10455048 -0.0078198314 4294967295
1.006886 0.074901886 -0.0072280765 4294967295
1.0068221 0.045461513 -0.0078455806 4294967295
1.0070121 0.014710323 -0.0072411299 4294967295
1.0057698 -0.015961912 -0.0062299371 4294967295
1.0060873 -0.044934209 -0.0063162446 4294967295
1.0056469 -0.075144567 -0.007248044 4294967295
1.0045633 -0.10493127 -0.0073251128 4294967295
1.0054145 -0.13557975 -0.0071047544 4294967295
1.0050128 -0.16480395 -0.0067756772 4294967295
1.0058888 -0.19533397 -0.0065926313 4294967295
1.0058172 -0.22464657 -0.0065165758 4294967295
1.0056944 -0.25486815 -0.00609231 4294967295
1.0057732 -0.2849806 -0.0069115162 4294967295
1.0063708 -0.31499133 -0.0079100728 4294967295
1.0056752 -0.34473288 -0.0087684393 4294967295
1.0065066 -0.37502527 -0.0076441765 4294967295
1.0056146 -0.40550646 -0.0077047944 4294967295
1.0050833 -0.43565583 -0.0063754916 4294967295
1.0061082 -0.46422669 -0.0066634417 4294967295
1.0057803 -0.49491858 -0.0072044134 4294967295
1.0068492 -0.52559894 -0.0099082589 4294967295
1.0065057 -0.55502927 -0.010772467 4294967295
1.0079354 -0.58404899 -0.010898888 4294967295
1.0061167 -0.61500126 -0.0096677542 4294967295
1.0062207 -0.64451265 -0.0074784756 4294967295
1.0056882 -0.67573851 -0.0089513659 4294967295
1.0049694 -0.70564747 -0.010416508 4294967295
1.005447 -0.73461545 -0.008300662 4294967295
1.0058986 -0.76510692 -0.0072369576 4294967295
1.0055684 -0.79391104 -0.0080046058 4294967295
1.0059717 -0.82560194 -0.008498013 4294967295
1.0057973 -0.85543686 -0.007248044 4294967295
1.0068543 -0.88567781 -0.0062134266 4294967295
1.0062742 -0.91030395 0.00064569712 4294967295
1.0350001 -0.92912513 1.0952988 4294967295
1.0364444 -0.93122059 1.0931773 4294967295
1.0405 -0.92954016 1.0636559 4294967295
1.0341055 -0.93210095 1.0754652 4294967295
1.04 -0.92894924 1.0326922 4294967295
1.0326613 -0.93289143 1.0458286 4294967295
1.0332605 -0.92822891 1.0192243 4294967295
1.0358937 -0.9321698 1.0075614 4294967295
1.0354286 -0.93559659 0.98482919 4294967295
1.0368973 -0.92907673 0.95178771 4294967295
1.0341853 -0.93122083 0.95598888 4294967295
1.0343217 -0.92795813 0.92540336 4294967295
1.038 -0.9314478 0.93015945 4294967295
1.0342711 -0.92250961 0.89348102 4294967295
1.034493 -0.92549652 0.8651731 4294967295
1.036667 -0.9268598 0.83579552 4294967295
1.0316249 -0.9305858 0.83472079 4294967295
1.0361818 -0.92530376 0.80104929 4294967295
1.0327777 -0.93148804 0.80895722 4294967295
1.033197 -0.9237963 0.77585495 4294967295
1.0329558 -0.92728114 0.74875551 4294967295
1.0411 -0.93127382 0.7381165 4294967295
1.0346386 -0.92676598 0.71610749 4294967295
1.0352 -0.93239737 0.70489728 4294967295
1.0327777 -0.92935497 0.67340696 4294967295
1.0348763 -0.93409425 0.68597198 4294967295
1.036756 -0.92856842 0.66100645 4294967295
1.0338125 -0.93199146 0.65238678 4294967295
1.0340477 -0.929254 0.62000489 4294967295
1.0348001 -0.93202633 0.6244058 4294967295
1.0325172 -0.92868465 0.58668309 4294967295
1.0356307 -0.93198204 0.59912831 4294967295
1.0354567 -0.92846465 0.56572324 4294967295
1.0363749 -0.93032962 0.56125605 4294967295
1.035732 -0.92758226 0.53567243 4294967295
1.0333334 -0.9302212 0.53268343 4294967295
1.0356476 -0.92575353 0.50418323 4294967295
1.0344503 -0.92650861 0.47447443 4294967295
1.0308001 -0.93020189 0.48531443 4294967295
1.0356981 -0.92828208 0.44656417 4294967295
1.0343236 -0.93061763 0.43952721 4294967295
1.0408852 -0.92833412 0.41274625 4294967295
1.0317334 -0.93402535 0.41660744 4294967295
1.0340089 -0.92456365 0.38436502 4294967295
1.0344673 -0.9263286 0.35577813 4294967295
1.048 -0.93016315 0.34176034 4294967295
1.0355682 -0.92845708 0.32442325 4294967295
1.0351185 -0.93174791 0.32295763 4294967295
1.0346072 -0.92106712 0.29582512 4294967295
1.0306363 -0.93148285 0.30667302 4294967295
1.0342847 -0.92119688 0.26430959 4294967295
1.0345627 -0.92572677 0.23409814 4294967295
1.0356169 -0.92554575 0.20493063 4294967295
1.0319999 -0.93032867 0.20680264 4294967295
1.0337121 -0.92136526 0.1752758 4294967295
1.0350597 -0.91968709 0.14620742 4294967295
1.0348345 -0.92248285 0.11364022 4294967295
1.0280689 -0.93302238 0.11854833 4294967295
1.0352728 -0.90990251 0.085467994 4294967295
1.0353076 -0.91252756 0.056347847 4294967295
1.0337683 -0.91403908 0.022877663 4294967295
1.0476667 0.90536135 -0.010643959 4294967295
1.0356063 0.88286269 -0.009827137 4294967295
1.0349995 0.85503209 -0.0095337629 4294967295
1.0346475 0.8250373 -0.008877039 4294967295
1.0345333 0.79454947 -0.0098016858 4294967295
1.0341386 0.76535559 -0.012614906 4294967295
1.0331903 0.73568267 -0.010102093 4294967295
1.0349538 0.70456934 -0.010538161 4294967295
1.036243 0.6749174 -0.01177156 4294967295
1.0359122 0.64458787 -0.010822237 4294967295
1.0350987 0.61463243 -0.0084808469 4294967295
1.0344999 0.58460909 -0.010575652 4294967295
1.0347776 0.55490667 -0.0098416805 4294967295
1.0341561 0.52505118 -0.0065170527 4294967295
1.0338461 0.49598545 -0.0076782107 4294967295
1.0351424 0.46456966 -0.0080427527 4294967295
1.0359592 0.43425545 -0.0085725784 4294967295
1.0353285 0.4049578 -0.0078340173 4294967295
1.0337691 0.37490666 -0.0072677732 4294967295
1.0348449 0.3451829 -0.0075391531 4294967295
1.0345854 0.31468359 -0.0079378486 4294967295
1.03425 0.28506228 -0.0098490119 4294967295
1.0353287 0.2549932 -0.0093073845 4294967295
1.0354378 0.22510353 -0.0080090165 4294967295
1.0357029 0.19486289 -0.006893456 4294967295
1.0357943 0.16568229 -0.0089539886 4294967295
1.0355071 0.13453598 -0.0094740987 4294967295
1.0346112 0.1046799 -0.0081041455 4294967295
1.0339862 0.07496684 -0.0071849823 4294967295
1.0351198 0.045515142 -0.0084232688 4294967295
1.0338888 0.015363047 -0.0072048306 4294967295
1.034 -0.014920666 -0.0059943795 4294967295
1.0353034 -0.044916429 -0.005428493 4294967295
1.0342426 -0.075206563 -0.0073837638 4294967295
1.0358 -0.10511334 -0.0097901821 4294967295
1.0339602 -0.13501576 -0.0072541237 4294967295
1.0346627 -0.16543223 -0.0068311691 4294967295
1.0340866 -0.19405587 -0.0061613917 4294967295
1.0338879 -0.22575803 -0.0068819523 4294967295
1.0352428 -0.25534439 -0.0073089004 4294967295
1.0347654 -0.28535926 -0.0069237947 4294967295
1.0348375 -0.31440079 -0.0073288083 4294967295
1.0338097 -0.34477359 -0.0082749724 4294967295
1.0362264 -0.37474105 -0.0086684823 4294967295
1.0359365 -0.40479535 -0.0083101392 4294967295
1.035435 -0.43534818 -0.0063037872 4294967295
1.034628 -0.46538165 -0.0063487291 4294967295
1.0351883 -0.49469262 -0.0071870089 4294967295
1.035349 -0.5250929 -0.0091205239 4294967295
1.0351957 -0.55479932 -0.0091811419 4294967295
1.0346124 -0.58493787 -0.0098232031 4294967295
1.0343438 -0.61476183 -0.0086556673 4294967295
1.034874 -0.6442349 -0.0084626675 4294967295
1.0349599 -0.67510664 -0.0090777874 4294967295
1.0351528 -0.70583975 -0.010314167 4294967295
1.035014 -0.73500377 -0.0098896623 4294967295
1.0362241 -0.76565421 -0.0095255971 4294967295
1.0358533 -0.79513383 -0.0083805323 4294967295
1.0362839 -0.82491791 -0.010145426 4294967295
1.0360262 -0.85477525 -0.010289192 4294967295
1.034761 -0.88598448 -0.0056454539 4294967295
1.0339739 -0.91134351 0.0028822422 4294967295
1.076 -0.93379343 1.1209004 4294967295
1.0665131 -0.93457866 1.1026115 4294967295
1.0727777 -0.92863381 1.0626765 4294967295
1.0642902 -0.93441027 1.075767 4294967295
1.0676973 -0.92730623 1.0448861 4294967295
1.0593888 -0.93292737 1.0463256 4294967295
1.0612222 -0.92925537 1.0269928 4294967295
1.0639194 -0.93496633 1.0134999 4294967295
1.0700001 -0.92982888 0.99093795 4294967295
1.0642534 -0.93466508 0.98593438 4294967295
1.0705003 -0.92597157 0.95151126 4294967295
1.0597999 -0.93191355 0.95681489 4294967295
1.0697619 -0.92872274 0.92505193 4294967295
1.0617959 -0.93300736 0.92597151 4294967295
1.0646192 -0.92637545 0.89400554 4294967295
1.054 -0.93059069 0.90930581 4294967295
1.0627708 -0.92712975 0.86522758 4294967295
1.0775001 -0.93040758 0.86298794 4294967295
1.0638899 -0.92734665 0.83530009 4294967295
1.0585383 -0.93081737 0.8243655 4294967295
1.0657779 -0.92593783 0.80446851 4294967295
1.0565001 -0.93146104 0.81504071 4294967295
1.06142 -0.92775106 0.78005707 4294967295
1.0688213 -0.93115419 0.7705242 4294967295
1.0599999 -0.92966545 0.74413681 4294967295
1.0650514 -0.93365383 0.74469483 4294967295
1.0658913 -0.9289012 0.71751815 4294967295
1.0642918 -0.93287897 0.71234238 4294967295
1.0690833 -0.92944002 0.6740703 4294967295
1.0648527 -0.93562746 0.68700087 4294967295
1.0678998 -0.92876989 0.65564436 4294967295
1.0623826 -0.93282592 0.65343046 4294967295
1.0705163 -0.9269464 0.62849391 4294967295
1.0610979 -0.93382901 0.62444502 4294967295
1.0698436 -0.92882901 0.58929265 4294967295
1.0622925 -0.93260992 0.59606457 4294967295
1.0684212 -0.92706287 0.56503826 4294967295
1.0575932 -0.93122077 0.56454724 4294967295
1.066921 -0.92759246 0.53702503 4294967295
1.0582223 -0.93110794 0.53030485 4294967295
1.0634382 -0.92722583 0.50543976 4294967295
1.0672222 -0.93035591 0.51091796 4294967295
1.0621871 -0.92753142 0.4737882 4294967295
1.0705884 -0.93028361 0.48432043 4294967295
1.0665492 -0.9281221 0.44628841 4294967295
1.0606552 -0.93137556 0.44216695 4294967295
1.0643491 -0.92527491 0.41408798 4294967295
1.0576923 -0.93044955 0.42486829 4294967295
1.0657477 -0.92711353 0.38413346 4294967295
1.0582857 -0.93033743 0.39086416 4294967295
1.0639706 -0.92446417 0.3549301 4294967295
1.056375 -0.93115252 0.34186843 4294967295
1.0668968 -0.92403924 0.32435322 4294967295
1.0577 -0.93270403 0.3275184 4294967295
1.0642766 -0.92453837 0.29547739 4294967295
1.0646209 -0.92348731 0.26374552 4294967295
1.0633337 -0.92432755 0.23494944 4294967295
1.0635734 -0.92196018 0.20556378 4294967295
1.0644416 -0.92235303 0.17553085 4294967295
1.0647634 -0.9193902 0.14465907 4294967295
1.0632845 -0.92086959 0.11525911 4294967295
1.0631721 -0.91050941 0.085607022 4294967295
1.0634998 -0.90929413 0.054724723 4294967295
1.063457 -0.91132939 0.025162011 4294967295
1.0660218 0.9109683 -0.011473536 4294967295
1.0645714 0.88439268 -0.0097150803 4294967295
1.062394 0.85530102 -0.0075421333 4294967295
1.062889 0.82556832 -0.0092483759 4294967295
1.0657083 0.79432207 -0.010510027 4294967295
1.0640142 0.76621646 -0.010644197 4294967295
1.0649159 0.73519319 -0.011661232 4294967295
1.0635302 0.70509619 -0.012180328 4294967295
1.0633901 0.67450744 -0.011110842 4294967295
1.0633471 0.64529401 -0.010055959 4294967295
1.0640715 0.61478567 -0.010955632 4294967295
1.0644126 0.58474821 -0.013055861 4294967295
1.0634857 0.55545908 -0.0088559985 4294967295
1.062986 0.52522159 -0.0077186227 4294967295
1.0640823 0.49501231 -0.0099985003 4294967295
1.06594 0.46548218 -0.0093161464 4294967295
1.0645654 0.43446243 -0.0086488724 4294967295
1.0639158 0.40470368 -0.0077353716 4294967295
1.0636427 0.37509161 -0.0081993341 4294967295
1.0650563 0.34443033 -0.0083501339 4294967295
1.0639237 0.31417996 -0.0084709525 4294967295
1.0637678 0.28486499 -0.0086616278 4294967295
1.0635926 0.25559187 -0.0084403753 4294967295
1.0633335 0.2243987 -0.0067800283 4294967295
1.062821 0.19482435 -0.0066995621 4294967295
1.0633243 0.16415118 -0.0090073347 4294967295
1.0636998 0.13553657 -0.0089508295 4294967295
1.0649707 0.10511535 -0.0094943047 4294967295
1.0641885 0.07549835 -0.0083917379 4294967295
1.0628281 0.044007864 -0.0088577867 4294967295
1.0646882 0.014953574 -0.0094792843 4294967295
1.0631691 -0.014233443 -0.0067051053 4294967295
1.0630002 -0.044394303 -0.0059341788 4294967295
1.0628551 -0.075215116 -0.0071430802 4294967295
1.0642247 -0.10434093 -0.0084801316 4294967295
1.0638571 -0.13465002 -0.0086741447 4294967295
1.065045 -0.16456947 -0.0076507926 4294967295
1.0644763 -0.19584209 -0.0071344972 4294967295
1.064479 -0.22506724 -0.0080634356 4294967295
1.065027 -0.25500464 -0.0082526207 4294967295
1.0644923 -0.28417477 -0.0075608492 4294967295
1.0633439 -0.3152853 -0.0076385736 4294967295
1.0641525 -0.3449257 -0.0078520179 4294967295
1.0639863 -0.37513164 -0.0078216791 4294967295
1.064725 -0.40475243 -0.0072377324 4294967295
1.0641232 -0.43483266 -0.0075863004 4294967295
1.0638112 -0.46512833 -0.0055219531 4294967295
1.0635771 -0.49557048 -0.0068551898 4294967295
1.0637707 -0.52496719 -0.006511867 4294967295
1.0632836 -0.55461782 -0.0071900487 4294967295
1.0637537 -0.58585709 -0.0086919069 4294967295
1.0648196 -0.61519051 -0.0074830055 4294967295
1.063553 -0.64524895 -0.0059597492 4294967295
1.0630659 -0.6753642 -0.007637918 4294967295
1.0633135 -0.70521307 -0.0087538958 4294967295
1.0635365 -0.73429883 -0.0087200999 4294967295
1.0655636 -0.76572233 -0.0098996162 4294967295
1.06477 -0.79530257 -0.0078305006 4294967295
1.0631335 -0.82498258 -0.0074263215 4294967295
1.0633612 -0.85465014 -0.0075584054 4294967295
1.0642278 -0.8861109 -0.0058495402 4294967295
1.0622784 -0.90608776 0.0035793781 4294967295
1.1009459 -0.92825711 1.1277801 4294967295
1.0885651 -0.9327693 1.1239579 4294967295
1.0998182 -0.92761296 1.1046255 4294967295
1.0883286 -0.93307996 1.1058122 4294967295
1.0949062 -0.92476016 1.0729716 4294967295
1.086077 -0.93280423 1.0807174 4294967295
1.0909525 -0.92727315 1.0547484 4294967295
1.0945495 -0.93269455 1.0399294 4294967295
1.0938733 -0.93388343 1.0158464 4294967295
1.0969002 -0.92838049 0.9773289 4294967295
1.0927875 -0.93250561 0.98718059 4294967295
1.0926405 -0.92630869 0.95404828 4294967295
1.086 -0.93112969 0.95511711 4294967295
1.0969673 -0.92821282 0.92657322 4294967295
1.0887119 -0.93114728 0.92486167 4294967295
1.0944353 -0.92782944 0.89438587 4294967295
1.0868572 -0.93042648 0.89640224 4294967295
1.0982999 -0.92756152 0.87470198 4294967295
1.0915676 -0.93255574 0.86422324 4294967295
1.0950822 -0.92620295 0.82885599 4294967295
1.091231 -0.93194813 0.84188271 4294967295
1.0939292 -0.92744231 0.8053304 4294967295
1.082 -0.93021518 0.79161978 4294967295
1.096349 -0.9271692 0.77594697 4294967295
1.0861276 -0.93252116 0.77133477 4294967295
1.096648 -0.92621416 0.74549776 4294967295
1.0861179 -0.9321658 0.74519372 4294967295
1.0964922 -0.92840123 0.71538806 4294967295
1.0881732 -0.93136001 0.71353936 4294967295
1.099377 -0.9274739 0.68564367 4294967295
1.0870165 -0.9317041 0.68461192 4294967295
1.096226 -0.9255389 0.65300792 4294967295
1.086795 -0.93141741 0.65805882 4294967295
1.0944092 -0.92558032 0.62593329 4294967295
1.0873889 -0.93231648 0.61440116 4294967295
1.0980692 -0.92698652 0.59364021 4294967295
1.0868511 -0.93206948 0.59757423 4294967295
1.0937231 -0.92624074 0.56592274 4294967295
1.082 -0.93021518 0.57948893 4294967295
1.0920925 -0.92416704 0.5349434 4294967295
1.0972992 -0.92701089 0.50594443 4294967295
1.0868001 -0.93086082 0.50586993 4294967295
1.0964741 -0.92856747 0.47290099 4294967295
1.0888535 -0.93101555 0.47783825 4294967295
1.0963805 -0.92639625 0.44249123 4294967295
1.0870974 -0.9317587 0.4468312 4294967295
1.0928048 -0.92074007 0.41628507 4294967295
1.0930885 -0.92659837 0.38427657 4294967295
1.0937643 -0.92476654 0.35562569 4294967295
1.0939074 -0.92429137 0.32493848 4294967295
1.0935001 -0.92366236 0.29428437 4294967295
1.0935488 -0.9246009 0.26516277 4294967295
1.0937731 -0.92438281 0.23476309 4294967295
1.0936443 -0.92000639 0.20481637 4294967295
1.0933336 -0.92105025 0.17513666 4294967295
1.0926623 -0.91636282 0.14493826 4294967295
1.0933077 -0.91655517 0.1156373 4294967295
1.0956 -0.89970893 0.076417178 4294967295
1.0935774 -0.91078281 0.085356027 4294967295
1.0928655 -0.90518337 0.055335313 4294967295
1.0930767 -0.90878415 0.024666786 4294967295
1.1065 0.96390438 -0.010276794 4294967295
1.0988779 0.94138807 -0.009552002 4294967295
1.0929503 0.91539598 -0.0092680454 4294967295
1.0935333 0.88537174 -0.0092426538 4294967295
1.0943209 0.85442692 -0.012460411 4294967295
1.0946866 0.82412708 -0.011414707 4294967295
1.0941712 0.7948392 -0.0072005987 4294967295
1.0934889 0.76572299 -0.0095149279 4294967295
1.0933537 0.73524892 -0.011108756 4294967295
1.0942082 0.70471305 -0.011367619 4294967295
1.0934999 0.67477483 -0.009057045 4294967295
1.0924853 0.64526963 -0.0093150139 4294967295
1.0946269 0.61503917 -0.013530016 4294967295
1.0939838 0.58606273 -0.012189209 4294967295
1.0944728 0.55475658 -0.0093935728 4294967295
1.0946422 0.5248642 -0.0098837614 4294967295
1.0936061 0.49557966 -0.0094716549 4294967295
1.0933478 0.46430391 -0.0091202855 4294967295
1.094636 0.43547267 -0.0087778568 4294967295
1.0950876 0.40495437 -0.0093640089 4294967295
1.0929708 0.37380964 -0.0085399747 4294967295
1.0940981 0.34535098 -0.0084630251 4294967295
1.0931666 0.31462023 -0.0072607994 4294967295
1.0928236 0.28572348 -0.0068625212 4294967295
1.0938851 0.2554892 -0.0087327957 4294967295
1.0930001 0.22500375 -0.0075917244 4294967295
1.0935966 0.19448434 -0.0087537766 4294967295
1.0930774 0.16541924 -0.0088422894 4294967295
1.0931392 0.13459919 -0.0078601837 4294967295
1.0935004 0.10549001 -0.0096082091 4294967295
1.0938772 0.07503511 -0.0099362135 4294967295
1.0936154 0.044640906 -0.010427892 4294967295
1.0949304 0.015144357 -0.010420084 4294967295
1.0936065 -0.016018465 -0.0078192353 4294967295
1.0927975 -0.045427814 -0.0069055557 4294967295
1.0925937 -0.074446797 -0.0076381564 4294967295
1.0936956 -0.10436495 -0.0082861781 4294967295
1.0931554 -0.13656959 -0.010260642 4294967295
1.095183 -0.16475427 -0.0092785954 4294967295
1.0940166 -0.19503596 -0.0087153912 4294967295
1.093305 -0.225113 -0.0084162951 4294967295
1.0943964 -0.25506583 -0.0089868903 4294967295
1.0947758 -0.28458142 -0.0090808868 4294967295
1.0942413 -0.31559503 -0.01052773 4294967295
1.0946935 -0.34493157 -0.0089192986 4294967295
1.093102 -0.37527829 -0.007275939 4294967295
1.0941477 -0.40433338 -0.0066947341 4294967295
1.094 -0.43447116 -0.0081798434 4294967295
1.0950475 -0.46439385 -0.0076200962 4294967295
1.0930959 -0.49620023 -0.0079776049 4294967295
1.0935637 -0.52485371 -0.0071601272 4294967295
1.0933791 -0.55529392 -0.0068992376 4294967295
1.0932882 -0.58520055 -0.0073193312 4294967295
1.0943891 -0.61494392 -0.0074444413 4294967295
1.0934166 -0.64424568 -0.0057607293 4294967295
1.0935863 -0.67600232 -0.0070474148 4294967295
1.0938959 -0.70532537 -0.0072868466 4294967295
1.0938336 -0.73498785 -0.0075233579 4294967295
1.0936197 -0.7647714 -0.007160306 4294967295
1.0935713 -0.79459774 -0.0070077777 4294967295
1.0924152 -0.82468957 -0.0060673356 4294967295
1.0929154 -0.85527557 -0.0063948631 4294967295
1.0932472 -0.8868295 -0.0019768476 4294967295
1.0916198 -0.90496182 0.004961431 4294967295
1.1365999 -0.92757511 1.152632 4294967295
1.1224432 -0.92541832 1.1318387 4294967295
1.1234643 -0.92655098 1.1056166 4294967295
1.1164999 -0.93008327 1.0968876 4294967295
1.1241943 -0.92584985 1.0741425 4294967295
1.1203333 -0.9316541 1.0615895 4294967295
1.1295 -0.92779106 1.0382977 4294967295
1.123426 -0.93411279 1.047453 4294967295
1.1261791 -0.92742413 1.0169423 4294967295
1.1187214 -0.93246424 1.0128162 4294967295
1.1260588 -0.9292078 0.99286461 4294967295
1.1239132 -0.9324078 0.98425233 4294967295
1.1270667 -0.92901975 0.94369626 4294967295
1.1239046 -0.93216622 0.95758426 4294967295
1.1280246 -0.92682248 0.92492652 4294967295
1.1168084 -0.93184811 0.92443442 4294967295
1.1220253 -0.92366958 0.89436096 4294967295
1.115 -0.93064308 0.90726316 4294967295
1.1234001 -0.92825156 0.87378192 4294967295
1.1242301 -0.93453389 0.86253172 4294967295
1.1225294 -0.92761147 0.83338839 4294967295
1.12628 -0.93233049 0.84212154 4294967295
1.1207949 -0.92913502 0.80819887 4294967295
1.1255199 -0.93133628 0.80310416 4294967295
1.1214716 -0.92891735 0.773206 4294967295
1.1261752 -0.93103421 0.77637613 4294967295
1.1254497 -0.92803478 0.74606699 4294967295
1.1225199 -0.93123686 0.73820961 4294967295
1.1272727 -0.9280169 0.71434838 4294967295
1.11798 -0.93164498 0.7168107 4294967295
1.1205792 -0.9199208 0.68411934 4294967295
1.1227417 -0.92379355 0.6563729 4294967295
1.1233964 -0.92499965 0.62477005 4294967295
1.1232786 -0.92456585 0.59545344 4294967295
1.115 -0.93012893 0.59682524 4294967295
1.1229528 -0.92450035 0.56534559 4294967295
1.1275001 -0.93002629 0.55190665 4294967295
1.1245213 -0.92550772 0.53428024 4294967295
1.1275001 -0.93002629 0.54798263 4294967295
1.1249026 -0.92554694 0.50592178 4294967295
1.1160715 -0.93101698 0.49517068 4294967295
1.1233751 -0.92836034 0.47614855 4294967295
1.1213334 -0.93123317 0.47573674 4294967295
1.1235343 -0.92657 0.44221801 4294967295
1.1227001 -0.9311102 0.45071489 4294967295
1.123889 -0.92375576 0.41446194 4294967295
1.1262751 -0.92697889 0.38450646 4294967295
1.11675 -0.93186086 0.384202 4294967295
1.1227677 -0.92086697 0.3551566 4294967295
1.1247818 -0.92630732 0.32569307 4294967295
1.118 -0.93003762 0.3155883 4294967295
1.1232845 -0.9236505 0.2954219 4294967295
1.118 -0.93003762 0.30910343 4294967295
1.1238096 -0.92376024 0.2639693 4294967295
1.1233437 -0.9225955 0.23529106 4294967295
1.124051 -0.92177522 0.20531067 4294967295
1.1238487 -0.9213199 0.17518997 4294967295
1.1240687 -0.91660523 0.1451838 4294967295
1.1232442 -0.91168892 0.11462206 4294967295
1.1236724 -0.91247028 0.086426228 4294967295
1.1245899 -0.90643305 0.054428726 4294967295
1.1232194 -0.90614599 0.024264514 4294967295
1.1251111 0.97021538 -0.0093073845 4294967295
1.1232778 0.94614327 -0.0081340671 4294967295
1.1230665 0.91449898 -0.009465158 4294967295
1.124431 0.88475966 -0.012976944 4294967295
1.1235774 0.85500866 -0.012338579 4294967295
1.1232758 0.82543981 -0.0065816641 4294967295
1.1230679 0.7941795 -0.0062795877 4294967295
1.12372 0.76442331 -0.0070034266 4294967295
1.1236002 0.73520869 -0.010211229 4294967295
1.1246988 0.70511323 -0.0078002214 4294967295
1.1228732 0.6757704 -0.0085163116 4294967295
1.1219697 0.64668322 -0.01347971 4294967295
1.1246482 0.61365145 -0.013128877 4294967295
1.1247191 0.58469754 -0.012743354 4294967295
1.1243896 0.55475825 -0.010302544 4294967295
1.1254286 0.52479208 -0.0096006989 4294967295
1.1238637 0.49444085 -0.0087890625 4294967295
1.1228634 0.46501508 -0.0080435276 4294967295
1.1250577 0.43486294 -0.0092574954 4294967295
1.1246556 0.4056038 -0.010003448 4294967295
1.1233621 0.37474087 -0.0086473227 4294967295
1.123162 0.34434724 -0.0073276758 4294967295
1.1244855 0.31509662 -0.0070862174 4294967295
1.1248986 0.28522375 -0.0072537661 4294967295
1.1238937 0.25590622 -0.0094017386 4294967295
1.1233449 0.22456154 -0.009899199 4294967295
1.1239463 0.19496819 -0.010186017 4294967295
1.1239002 0.16468726 -0.0083565116 4294967295
1.1244822 0.13536777 -0.0086199641 4294967295
1.1247499 0.10431664 -0.010688424 4294967295
1.1240695 0.074874304 -0.010297477 4294967295
1.124824 0.045092963 -0.010237038 4294967295
1.1245573 0.01513605 -0.0092667341 4294967295
1.1234128 -0.014317673 -0.0081478953 4294967295
1.124086 -0.044937652 -0.0074641705 4294967295
1.1232389 -0.075425066 -0.0084751248 4294967295
1.1238362 -0.10502651 -0.010171235 4294967295
1.124382 -0.1345609 -0.011416614 4294967295
1.1245884 -0.16536205 -0.0092465878 4294967295
1.1239287 -0.1952589 -0.0088906288 4294967295
1.123 -0.22524546 -0.0083634257 4294967295
1.1231791 -0.25484088 -0.008488059 4294967295
1.1241428 -0.28487337 -0.0088483691 4294967295
1.1229869 -0.31556639 -0.0094365478 4294967295
1.1238788 -0.34476018 -0.0092334747 4294967295
1.1237817 -0.37557745 -0.0086398125 4294967295
1.123579 -0.4049181 -0.0073162317 4294967295
1.1233385 -0.43616328 -0.0081241131 4294967295
1.1240349 -0.46506643 -0.0078871846 4294967295
1.1236964 -0.49395913 -0.0095986724 4294967295
1.1242083 -0.52484906 -0.011355221 4294967295
1.1236801 -0.55540586 -0.0084543228 4294967295
1.1234761 -0.58469707 -0.007804513 4294967295
1.1241472 -0.61500198 -0.0066230297 4294967295
1.1222788 -0.64505309 -0.0060209036 4294967295
1.1236427 -0.67526251 -0.0072048306 4294967295
1.123793 -0.70514715 -0.0075033903 4294967295
1.123741 -0.73533571 -0.0074390769 4294967295
1.1242675 -0.76553106 -0.007776618 4294967295
1.1237334 -0.79528224 -0.0074326992 4294967295
1.1236405 -0.82560396 -0.0066894889 4294967295
1.1238979 -0.85481322 -0.0071527958 4294967295
1.1235617 -0.88773566 -0.0023414493 4294967295
1.1208436 -0.90391147 0.0062813759 4294967295
1.157122 -0.92736703 1.1590431 4294967295
1.153699 -0.92708355 1.1346788 4294967295
1.15505 -0.92702353 1.1057646 4294967295
1.1474706 -0.93090147 1.1030256 4294967295
1.1525062 -0.92665762 1.0764608 4294967295
1.1564544 -0.93072563 1.0658033 4294967295
1.1541573 -0.92718101 1.0413563 4294967295
1.1484643 -0.93135804 1.0532471 4294967295
1.156243 -0.92744917 1.0168353 4294967295
1.1476215 -0.93156362 1.0122826 4294967295
1.1581832 -0.92753053 0.98594105 4294967295
1.1485503 -0.9332732 0.98383832 4294967295
1.1562381 -0.92719865 0.95314872 4294967295
1.1484048 -0.93285352 0.95889342 4294967295
1.1520394 -0.92653084 0.92486203 4294967295
1.1672001 -0.93034428 0.93351901 4294967295
1.1540908 -0.92661047 0.89627695 4294967295
1.154857 -0.93096536 0.88512397 4294967295
1.15715 -0.92843282 0.8637706 4294967295
1.1517001 -0.93210751 0.86589658 4294967295
1.1572082 -0.92701936 0.8347733 4294967295
1.1465127 -0.9316498 0.83492833 4294967295
1.1572857 -0.92799032 0.81646264 4294967295
1.1533256 -0.93502212 0.80465299 4294967295
1.15655 -0.92869198 0.76726663 4294967295
1.1529578 -0.93273515 0.77602643 4294967295
1.1551529 -0.92840415 0.74454081 4294967295
1.1504847 -0.93046212 0.7454285 4294967295
1.1553667 -0.9284057 0.7150647 4294967295
1.1526725 -0.93116879 0.71592927 4294967295
1.1562001 -0.92174953 0.68545258 4294967295
1.1535366 -0.92545599 0.65431321 4294967295
1.1531334 -0.92548686 0.62516159 4294967295
1.1536131 -0.92396963 0.59461355 4294967295
1.1550237 -0.92555612 0.56574482 4294967295
1.147 -0.93122661 0.5544036 4294967295
1.1539485 -0.92481875 0.53421152 4294967295
1.1471666 -0.93078607 0.54669738 4294967295
1.1530262 -0.92195576 0.50555789 4294967295
1.154982 -0.92554849 0.48300081 4294967295
1.1531665 -0.93453342 0.4691813 4294967295
1.1545835 -0.92667061 0.43777096 4294967295
1.1543959 -0.9344402 0.45218503 4294967295
1.1544727 -0.9282558 0.41861835 4294967295
1.155148 -0.93101478 0.40782923 4294967295
1.1553513 -0.92731547 0.38208723 4294967295
1.151 -0.93085653 0.39276534 4294967295
1.1539649 -0.92042136 0.35565865 4294967295
1.1535883 -0.92443419 0.32436246 4294967295
1.15417 -0.92547268 0.29579565 4294967295
1.1547612 -0.92480636 0.26579562 4294967295
1.1545138 -0.92332333 0.2366997 4294967295
1.1539879 -0.92445153 0.20371664 4294967295
1.1528406 -0.92258954 0.17461303 4294967295
1.1529837 -0.91499841 0.14474854 4294967295
1.1544702 -0.90792584 0.11503667 4294967295
1.1600577 -0.89565063 0.085952133 4294967295
1.151158 -0.90833789 0.085370958 4294967295
1.1572497 -0.89891607 0.046399176 4294967295
1.1529702 -0.90576786 0.055522412 4294967295
1.1609999 -0.89846534 0.039701313 4294967295
1.1543102 -0.90734476 0.025622904 4294967295
1.1655715 1.0234729 -0.015112877 4294967295
1.1559429 1.0033705 -0.013517082 4294967295
1.1531619 0.97574544 -0.011275709 4294967295
1.1528442 0.94332474 -0.011296332 4294967295
1.1545286 0.91372216 -0.013044 4294967295
1.1547257 0.88489175 -0.011688411 4294967295
1.1541932 0.85596949 -0.0087122321 4294967295
1.15325 0.8239966 -0.0083165169 4294967295
1.152143 0.79519618 -0.0064783692 4294967295
1.1542984 0.7644735 -0.007871747 4294967295
1.1533332 0.73479903 -0.0076268315 4294967295
1.1546297 0.70561904 -0.0065100789 4294967295
1.1521562 0.68046093 -0.013349354 4294967295
1.1547186 0.63975346 -0.016273201 4294967295
1.1548923 0.61503053 -0.01265198 4294967295
1.1539685 0.58513343 -0.01095295 4294967295
1.1535239 0.55546868 -0.009049654 4294967295
1.1553819 0.52545583 -0.0088841319 4294967295
1.1548573 0.49504653 -0.0086436272 4294967295
1.1545093 0.46530053 -0.0086779594 4294967295
1.1539998 0.43483701 -0.0078904629 4294967295
1.1537461 0.40470466 -0.009172678 4294967295
1.154776 0.37543193 -0.0089271069 4294967295
1.1545717 0.34469596 -0.0070921779 4294967295
1.1533462 0.31516835 -0.0065139532 4294967295
1.1536607 0.28500372 -0.0066323876 4294967295
1.15262 0.25517252 -0.010190845 4294967295
1.1540409 0.22422309 -0.011717796 4294967295
1.1542497 0.19408223 -0.0089161992 4294967295
1.153862 0.16475551 -0.0070793629 4294967295
1.1540526 0.13481486 -0.009545505 4294967295
1.154421 0.10526422 -0.010604382 4294967295
1.1539518 0.074332319 -0.0087471008 4294967295
1.1534926 0.044721708 -0.007974267 4294967295
1.1547592 0.014773622 -0.008698225 4294967295
1.1524543 -0.014809682 -0.0075441003 4294967295
1.1521599 -0.044504575 -0.0075064301 4294967295
1.1539469 -0.07459525 -0.0083730221 4294967295
1.1530004 -0.10567452 -0.010268629 4294967295
1.1520876 -0.13508849 -0.010050356 4294967295
1.1537347 -0.16439907 -0.0091708899 4294967295
1.1546483 -0.19437316 -0.0087979436 4294967295
1.1537371 -0.22464646 -0.0080390573 4294967295
1.1543751 -0.25512302 -0.0085182786 4294967295
1.153107 -0.2856898 -0.007940352 4294967295
1.153492 -0.3148149 -0.0067353249 4294967295
1.1532502 -0.34434083 -0.0087844133 4294967295
1.1537554 -0.37453392 -0.011596024 4294967295
1.1534039 -0.40628788 -0.008598268 4294967295
1.1522629 -0.43481699 -0.0071757436 4294967295
1.1535718 -0.46532705 -0.0081523657 4294967295
1.153927 -0.49536243 -0.0094329715 4294967295
1.1531588 -0.52549869 -0.011730075 4294967295
1.1543331 -0.55439818 -0.011484027 4294967295
1.1542265 -0.58578378 -0.0091164708 4294967295
1.1529198 -0.61400497 -0.006854713 4294967295
1.1536665 -0.64517123 -0.0080416799 4294967295
1.1522564 -0.6747843 -0.008556962 4294967295
1.1525137 -0.70519614 -0.0098952651 4294967295
1.1531639 -0.73592299 -0.0083071589 4294967295
1.1535383 -0.76517797 -0.0081943274 4294967295
1.153314 -0.79647452 -0.0088329315 4294967295
1.1538908 -0.82453722 -0.0075204372 4294967295
1.1534286 -0.8559708 -0.0066503882 4294967295
1.1542748 -0.88599622 -0.0055957437 4294967295
1.1545712 -0.90506625 0.0033478141 4294967295
1.1620001 0.66753727 -0.023485541 4294967295
1.1557143 0.65432948 -0.021105766 4294967295
1.19225 -0.92078495 1.1835141 4294967295
1.1857816 -0.92752743 1.1672529 4294967295
1.180923 -0.9307369 1.1556737 4294967295
1.1848571 -0.92766839 1.1345423 4294967295
1.1819999 -0.93048388 1.1348338 4294967295
1.1860889 -0.92670041 1.1034118 4294967295
1.1797332 -0.93065423 1.114048 4294967295
1.188745 -0.92805773 1.0781916 4294967295
1.1825689 -0.93325526 1.0722169 4294967295
1.1867111 -0.92559969 1.0428795 4294967295
1.1778822 -0.93209159 1.0546498 4294967295
1.1850865 -0.92778903 1.0164151 4294967295
1.1776998 -0.93077743 1.0146987 4294967295
1.1858886 -0.92700416 0.98493195 4294967295
1.1772777 -0.9306314 0.97805887 4294967295
1.1864755 -0.92622155 0.95868385 4294967295
1.1807743 -0.93160284 0.9476825 4294967295
1.1871877 -0.92653531 0.92238903 4294967295
1.18028 -0.93187958 0.9332211 4294967295
1.1851748 -0.92826575 0.89861417 4294967295
1.1799394 -0.93092799 0.88840759 4294967295
1.1883638 -0.92949295 0.86445361 4294967295
1.1841143 -0.93181819 0.86514866 4294967295
1.1863333 -0.92646307 0.83170784 4294967295
1.1832777 -0.93125463 0.84388644 4294967295
1.1910435 -0.92721707 0.81109631 4294967295
1.1840292 -0.9355545 0.80412948 4294967295
1.1910477 -0.92534429 0.77440429 4294967295
1.180297 -0.93318963 0.7759403 4294967295
1.1904783 -0.92570448 0.74473727 4294967295
1.1797061 -0.93240881 0.74571407 4294967295
1.1880594 -0.9256072 0.713346 4294967295
1.1764523 -0.93172634 0.71804917 4294967295
1.1831408 -0.92561364 0.68700963 4294967295
1.1856718 -0.92478359 0.65350878 4294967295
1.1851803 -0.92609453 0.62583262 4294967295
1.1849774 -0.92618203 0.59478354 4294967295
1.1837128 -0.92607588 0.56570995 4294967295
1.1846106 -0.92551535 0.53585935 4294967295
1.1841773 -0.92255265 0.50574338 4294967295
1.1863925 -0.92688984 0.47615379 4294967295
1.1777691 -0.9327563 0.46556973 4294967295
1.1862825 -0.92594272 0.4434914 4294967295
1.1763667 -0.93262953 0.45412731 4294967295
1.1874466 -0.92510557 0.41536736 4294967295
1.1772941 -0.93203175 0.4106338 4294967295
1.1860421 -0.92442924 0.38509506 4294967295
1.1771905 -0.93127632 0.3930136 4294967295
1.1846151 -0.92303717 0.35405374 4294967295
1.1846957 -0.92109674 0.32530761 4294967295
1.1829561 -0.92530078 0.29475069 4294967295
1.1846763 -0.92446142 0.26585722 4294967295
1.1844633 -0.92621052 0.23490971 4294967295
1.1846365 -0.92445254 0.20496252 4294967295
1.1864808 -0.92589176 0.17480975 4294967295
1.1856105 -0.91583771 0.14533257 4294967295
1.1831498 -0.90757734 0.11530945 4294967295
1.1801176 -0.89737296 0.080604047 4294967295
1.186606 -0.90330243 0.092001736 4294967295
1.1843857 -0.90635967 0.054730713 4294967295
1.1839241 -0.90785307 0.022934467 4294967295
1.1872197 1.0307763 -0.012103081 4294967295
1.1845294 1.0059211 -0.013004661 4294967295
1.1845883 0.9757933 -0.014008105 4294967295
1.1840001 0.94379723 -0.012024105 4294967295
1.1839111 0.91472757 -0.0088239312 4294967295
1.1843445 0.88505614 -0.0081760883 4294967295
1.1853138 0.8552345 -0.010023117 4294967295
1.1845635 0.82629287 -0.009693265 4294967295
1.1845776 0.79466856 -0.0099160671 4294967295
1.1860213 0.7647748 -0.0092705488 4294967295
1.1851696 0.73522246 -0.0064855218 4294967295
1.1848054 0.70352036 -0.0089092255 4294967295
1.1855345 0.67605406 -0.013759255 4294967295
1.1842958 0.64528763 -0.011924624 4294967295
1.1846071 0.61542219 -0.011171222 4294967295
1.1839377 0.58473003 -0.0094224215 4294967295
1.1844922 0.5549413 -0.00763309 4294967295
1.186125 0.52520651 -0.0093443394 4294967295
1.1858726 0.49485347 -0.0090873837 4294967295
1.1859411 0.46567917 -0.009064436 4294967295
1.1837548 0.4352361 -0.0077245831 4294967295
1.183382 0.40460029 -0.0082699656 4294967295
1.1860173 0.37554395 -0.0086264014 4294967295
1.1844492 0.34560657 -0.0078364611 4294967295
1.1834489 0.31644523 -0.007779479 4294967295
1.1852791 0.28424618 -0.0098496675 4294967295
1.1852742 0.25437805 -0.012359202 4294967295
1.1849179 0.2251564 -0.011626303 4294967295
1.1853926 0.19494814 -0.0070978403 4294967295
1.1866838 0.16534664 -0.0073743463 4294967295
1.1851807 0.13514347 -0.0094913244 4294967295
1.1843636 0.10512105 -0.010107398 4294967295
1.1837391 0.075777255 -0.0092115998 4294967295
1.1842499 0.044835396 -0.0082362294 4294967295
1.1864818 0.014874001 -0.0095019937 4294967295
1.1855818 -0.015238049 -0.0089501143 4294967295
1.1850374 -0.045225713 -0.0088096857 4294967295
1.1843635 -0.075680889 -0.010041118 4294967295
1.1853271 -0.10509235 -0.011853516 4294967295
1.1850313 -0.13525461 -0.010289431 4294967295
1.1851898 -0.1644322 -0.010007441 4294967295
1.1851352 -0.1955903 -0.011287212 4294967295
1.1835779 -0.22494018 -0.0094708204 4294967295
1.1854616 -0.25537461 -0.0090585351 4294967295
1.1862067 -0.28509122 -0.0095618367 4294967295
1.1850888 -0.31468934 -0.0075190663 4294967295
1.1847745 -0.34592655 -0.0079651475 4294967295
1.1847614 -0.3748951 -0.01161319 4294967295
1.1868001 -0.40423983 -0.012148976 4294967295
1.1836728 -0.4355785 -0.0081509948 4294967295
1.1852964 -0.46475944 -0.0083150864 4294967295
1.1842798 -0.49555522 -0.0097489953 4294967295
1.1839092 -0.525563 -0.0095720887 4294967295
1.1837096 -0.55495316 -0.0095734596 4294967295
1.1849235 -0.58458805 -0.0096969008 4294967295
1.1826316 -0.61450541 -0.007686913 4294967295
1.1850953 -0.64429313 -0.0094608068 4294967295
1.1842797 -0.67383301 -0.011118889 4294967295
1.1843021 -0.70526052 -0.014263153 4294967295
1.1855001 -0.73545563 -0.01218015 4294967295
1.1854908 -0.7639038 -0.0089128017 4294967295
1.1848681 -0.79423136 -0.010396659 4294967295
1.1858222 -0.8252598 -0.010535717 4294967295
1.1841924 -0.85456741 -0.0083369017 4294967295
1.1839385 -0.88596183 -0.0048805475 4294967295
1.1837336 -0.90635467 0.0030840635 4294967295
1.1799998 0.67215943 -0.023558259 4294967295
1.1735001 0.65742546 -0.021283865 4294967295
1.2165251 -0.9260186 1.186785 4294967295
1.219 -0.9320367 1.1809617 4294967295
1.2190001 -0.92827046 1.1641353 4294967295
1.213375 -0.9313072 1.1648867 4294967295
1.2162343 -0.92736608 1.1339743 4294967295
1.2130001 -0.93025887 1.1481552 4294967295
1.2166833 -0.92510027 1.1040984 4294967295
1.218326 -0.92590296 1.075343 4294967295
1.2113807 -0.93034834 1.081001 4294967295
1.2177911 -0.92547625 1.0440304 4294967295
1.217 -0.93050754 1.030224 4294967295
1.2217143 -0.92730296 1.02325 4294967295
1.2174796 -0.93246609 1.0142343 4294967295
1.2173164 -0.92322803 0.98336571 4294967295
1.2132 -0.93152845 0.99653322 4294967295
1.2163092 -0.9255935 0.95520222 4294967295
1.2124445 -0.93045723 0.95142365 4294967295
1.2175126 -0.92668641 0.92430222 4294967295
1.2146251 -0.93115276 0.91333228 4294967295
1.2234999 -0.92472613 0.89619124 4294967295
1.2135335 -0.93327737 0.89408219 4294967295
1.2226669 -0.92642587 0.86496693 4294967295
1.2105789 -0.93203312 0.86550725 4294967295
1.2167406 -0.92486346 0.834445 4294967295
1.2056667 -0.93022877 0.84830427 4294967295
1.2190391 -0.92600328 0.80593085 4294967295
1.2095946 -0.93172783 0.80472326 4294967295
1.216 -0.92461175 0.77459246 4294967295
1.2160215 -0.92462218 0.74435085 4294967295
1.2160002 -0.92684412 0.71613377 4294967295
1.2199523 -0.92690647 0.68471825 4294967295
1.2190758 -0.93330556 0.68379289 4294967295
1.2166922 -0.91921568 0.65595245 4294967295
1.2112 -0.93167239 0.66864574 4294967295
1.2160244 -0.92538404 0.62514538 4294967295
1.217 -0.93050754 0.61514783 4294967295
1.2166165 -0.92701471 0.59430164 4294967295
1.217 -0.93050754 0.60385323 4294967295
1.2187905 -0.9278146 0.5666573 4294967295
1.2147694 -0.93117553 0.55838996 4294967295
1.2157127 -0.9249686 0.53483182 4294967295
1.2115 -0.9305169 0.54725653 4294967295
1.2182331 -0.92602921 0.50322437 4294967295
1.217 -0.93050754 0.50079006 4294967295
1.2165368 -0.92534 0.47529659 4294967295
1.2173759 -0.92192793 0.44442672 4294967295
1.2173747 -0.92354149 0.41602015 4294967295
1.2164173 -0.92163998 0.38436186 4294967295
1.218009 -0.92300904 0.35534737 4294967295
1.2166314 -0.92030686 0.32516444 4294967295
1.218183 -0.92686355 0.29534519 4294967295
1.2158499 -0.93117189 0.29134837 4294967295
1.2165124 -0.92487371 0.26467469 4294967295
1.2165271 -0.92496079 0.23489729 4294967295
1.217593 -0.92520338 0.20505667 4294967295
1.2154528 -0.92091757 0.17471716 4294967295
1.2155358 -0.91672546 0.14651284 4294967295
1.217746 -0.91499031 0.11494175 4294967295
1.2184833 -0.91328901 0.085434824 4294967295
1.2173271 -0.91236866 0.053460389 4294967295
1.2181969 -0.91537786 0.02458176 4294967295
1.228 1.0830419 -0.011757612 4294967295
1.2189783 1.0637234 -0.012667179 4294967295
1.2162412 1.0334837 -0.0094935298 4294967295
1.2169719 1.0060002 -0.01269424 4294967295
1.2176229 0.97463316 -0.012525558 4294967295
1.2159218 0.94544667 -0.0064961314 4294967295
1.2156976 0.91636932 -0.0077701807 4294967295
1.2167176 0.88502187 -0.010390699 4294967295
1.2166471 0.85496265 -0.011298537 4294967295
1.2172437 0.82408565 -0.01206404 4294967295
1.2162131 0.79558015 -0.011512816 4294967295
1.2166446 0.76556069 -0.0089504719 4294967295
1.2167751 0.73584396 -0.0081298947 4294967295
1.215654 0.70400769 -0.012296557 4294967295
1.2161492 0.67456508 -0.011665523 4294967295
1.2167559 0.645181 -0.010821044 4294967295
1.2161316 0.61630356 -0.013607025 4294967295
1.2158649 0.58507824 -0.010346889 4294967295
1.2158951 0.55383998 -0.0091235042 4294967295
1.2179389 0.52445471 -0.0098986626 4294967295
1.2168982 0.49514776 -0.0092709064 4294967295
1.2161466 0.4649961 -0.0097961426 4294967295
1.2162144 0.43540931 -0.010330558 4294967295
1.2168959 0.40433049 -0.0089858174 4294967295
1.2153636 0.37485868 -0.0085285902 4294967295
1.2144527 0.3450399 -0.0091564059 4294967295
1.2158287 0.31609288 -0.011901081 4294967295
1.2177441 0.28369296 -0.012794018 4294967295
1.2171854 0.25518811 -0.011810482 4294967295
1.2165817 0.22499616 -0.0097979903 4294967295
1.2162396 0.19470757 -0.0070524216 4294967295
1.2171376 0.16558304 -0.0063137412 4294967295
