# .PCD v0.7 - Point Cloud Data file format
VERSION 0.7
FIELDS x y z rgb
SIZE 4 4 4 4
TYPE F F F U
COUNT 1 1 1 1
WIDTH 1116
HEIGHT 1
VIEWPOINT 0 0 0 1 0 0 0
POINTS 1116
DATA ascii
1.67 -0.029218778 0.069361627 4294967295
1.6677999 -0.043878105 0.066863418 4294967295
1.669 -0.070516557 0.068345308 4294967295
1.67 -0.38956445 0.069361627 4294967295
1.6740001 -0.39826858 0.068282247 4294967295
1.6719999 -0.43076161 0.068821937 4294967295
1.6666665 -0.73938382 0.068551391 4294967295
1.6689999 -0.76301205 0.066245764 4294967295
1.6746668 -0.79862565 0.06810236 4294967295
1.675 0.81207347 0.019435048 4294967295
1.6661249 0.80485642 0.032247424 4294967295
1.6715 0.8142612 -0.00081878901 4294967295
1.6652 0.79649192 -0.016657174 4294967295
1.6670002 0.76435953 -0.01748997 4294967295
1.67 0.7495929 -0.019756079 4294967295
1.6662998 0.73671782 -0.030154347 4294967295
1.6662142 0.73849654 -0.098878562 4294967295
1.6682498 0.72993749 -0.11497414 4294967295
1.6941249 -0.91893297 1.4542644 4294967295
1.6941035 -0.92064792 1.435287 4294967295
1.6923549 -0.92648995 1.40453 4294967295
1.702 -0.93013483 1.4013885 4294967295
1.6907588 -0.92585421 1.3750437 4294967295
1.682 -0.93091249 1.3773726 4294967295
1.6886367 -0.92531323 1.3497665 4294967295
1.7044998 -0.93479759 1.3433466 4294967295
1.6934375 -0.92567319 1.3095102 4294967295
1.6973999 -0.9323346 1.3261268 4294967295
1.6937308 -0.92105836 1.2859895 4294967295
1.6932631 -0.91789389 1.2565448 4294967295
1.6929445 -0.91382927 1.2242785 4294967295
1.6934546 -0.92134017 1.193347 4294967295
1.6914001 -0.91913849 1.1663082 4294967295
1.6990001 0.52018154 1.1416399 4294967295
1.6849999 0.4917838 1.1247851 4294967295
1.6934091 -0.91416287 1.1342053 4294967295
1.6945 0.47748622 1.1143841 4294967295
1.6930321 -0.91293025 1.1038245 4294967295
1.6838572 -0.92802989 1.0791657 4294967295
1.698 -0.93416935 1.0772474 4294967295
1.6963124 -0.92553014 1.0395403 4294967295
1.7035 -0.93292671 1.0563213 4294967295
1.6935751 -0.91773462 1.0146822 4294967295
1.6963999 0.51425922 0.97695625 4294967295
1.704 0.50490153 0.97346294 4294967295
1.6929677 -0.92213631 0.98558682 4294967295
1.6906667 0.49517342 0.9568482 4294967295
1.687125 -0.9278667 0.96261263 4294967295
1.6971052 -0.93199587 0.95152521 4294967295
1.6968668 0.49681157 0.92273474 4294967295
1.6931362 -0.92115444 0.92627227 4294967295
1.696 -0.93079084 0.93985283 4294967295
1.6963874 0.49986753 0.89524561 4294967295
1.6938182 -0.91671562 0.89482307 4294967295
1.6845 0.79322755 0.85102272 4294967295
1.6910001 0.49749193 0.86800367 4294967295
1.6943334 -0.92082542 0.86328369 4294967295
1.6922649 0.78946716 0.83336556 4294967295
1.6936958 0.49829239 0.83076203 4294967295
1.6913077 -0.92592841 0.83575845 4294967295
1.7014999 -0.93182909 0.82475513 4294967295
1.6932915 0.79407996 0.80853951 4294967295
1.6931177 0.51478994 0.80048066 4294967295
1.6997144 0.50474411 0.80610651 4294967295
1.6928887 -0.92513818 0.80466008 4294967295
1.702 -0.93013483 0.81892133 4294967295
1.7062501 0.81336951 0.77017671 4294967295
1.6921667 0.80468577 0.78382093 4294967295
1.6846668 0.51383388 0.78656435 4294967295
1.6946111 0.50023818 0.77437031 4294967295
1.6929474 -0.9187637 0.77411616 4294967295
1.709 0.81468046 0.74877763 4294967295
1.6877145 0.80508316 0.74367362 4294967295
1.6942002 0.49650013 0.74566478 4294967295
1.6935359 -0.91875118 0.74417835 4294967295
1.6939566 0.49307007 0.71532428 4294967295
1.6937777 -0.92037576 0.71543896 4294967295
1.6909547 0.49058026 0.68438989 4294967295
1.692656 -0.91751766 0.68522376 4294967295
1.6913846 0.79041076 0.64936256 4294967295
1.6905357 0.49290025 0.65384346 4294967295
1.6935925 -0.91591597 0.65487677 4294967295
1.6914179 0.79918909 0.62597561 4294967295
1.6893547 0.49387997 0.62515026 4294967295
1.6907369 -0.92540431 0.627213 4294967295
1.702 -0.93013483 0.61950028 4294967295
1.6945896 0.80435348 0.59652865 4294967295
1.6912791 0.49747995 0.59600133 4294967295
1.6938846 -0.92265612 0.59514606 4294967295
1.6989032 0.81582075 0.56381094 4294967295
1.707 0.80976653 0.57820702 4294967295
1.6931155 0.49554351 0.56488615 4294967295
1.6931998 -0.91639876 0.56346405 4294967295
1.7044858 0.81985873 0.53394383 4294967295
1.7079999 0.8082583 0.5247426 4294967295
1.6942002 0.49294192 0.53413719 4294967295
1.6935145 -0.91424209 0.53452492 4294967295
1.6984144 0.8172152 0.50467801 4294967295
1.705909 0.80780721 0.50908232 4294967295
1.6931036 0.49498349 0.50404006 4294967295
1.6928949 -0.92512494 0.51014727 4294967295
1.7040001 -0.93359864 0.4990319 4294967295
1.6999514 0.81650096 0.47570312 4294967295
1.6946945 0.49808148 0.47576222 4294967295
1.6923077 -0.92723775 0.47107455 4294967295
1.7030001 -0.93331242 0.48191655 4294967295
1.6995119 0.81719571 0.44545087 4294967295
1.7083334 0.80775559 0.4329201 4294967295
1.6980001 0.49819022 0.44635251 4294967295
1.6935002 -0.92415535 0.4455961 4294967295
1.694826 0.81440979 0.41828519 4294967295
1.7043333 0.80635005 0.41286656 4294967295
1.6949544 -0.91929567 0.41476971 4294967295
1.7024117 0.81246442 0.38309684 4294967295
1.7074546 0.80709922 0.39094508 4294967295
1.7006363 0.50076342 0.38894504 4294967295
1.6927081 -0.91996306 0.38479775 4294967295
1.704654 0.81655556 0.35466576 4294967295
1.6925 0.51032609 0.35784161 4294967295
1.6958051 0.49696854 0.35569549 4294967295
1.6943448 -0.91467744 0.35438088 4294967295
1.7085555 0.81931269 0.32675537 4294967295
1.6877142 -0.91075569 0.32656789 4294967295
1.7036667 0.81345284 0.28823596 4294967295
1.707 0.80976653 0.28116715 4294967295
1.697 0.49397367 0.28845838 4294967295
1.6922499 -0.91536748 0.29520193 4294967295
1.6913911 0.81361353 0.26528227 4294967295
1.7009048 0.80724025 0.26267585 4294967295
1.6882 0.49924594 0.26495221 4294967295
1.6919999 -0.9259575 0.27411628 4294967295
1.6960999 -0.93831044 0.26065642 4294967295
1.687 0.81384724 0.23595092 4294967295
1.6975673 0.80569583 0.23448282 4294967295
1.704 0.50589341 0.23612201 4294967295
1.686 -0.95462388 0.24597338 4294967295
1.6961111 -0.97149688 0.23110661 4294967295
1.69412 0.81449413 0.20261356 4294967295
1.7026364 0.80642557 0.20814195 4294967295
1.702 0.51122481 0.21473494 4294967295
1.6849999 -0.97948664 0.21778402 4294967295
1.7045 -0.99674541 0.20243391 4294967295
1.6993871 0.81669831 0.17310905 4294967295
1.7072858 0.80933565 0.17813814 4294967295
1.694 -0.98568243 0.16311559 4294967295
1.6998333 -0.99466842 0.17369649 4294967295
1.7023939 0.81833166 0.14990297 4294967295
1.69415 -0.95353013 0.13890806 4294967295
1.6954347 -0.97081691 0.15366492 4294967295
1.6980954 0.81770664 0.10662749 4294967295
1.709 0.80675012 0.10443717 4294967295
1.6929566 -0.9149285 0.1089465 4294967295
1.6972308 -0.94022763 0.12411404 4294967295
1.6965714 0.81155056 0.096501231 4294967295
1.6955625 0.80639976 0.083508283 4294967295
1.702 0.54479074 0.092318088 4294967295
1.6941502 0.52379996 0.092541605 4294967295
1.6928847 0.49594155 0.088739961 4294967295
1.6923335 0.46664011 0.088214248 4294967295
1.6935185 0.43284553 0.085449904 4294967295
1.6936563 0.41032994 0.077612609 4294967295
1.7016667 0.3058182 0.072013706 4294967295
1.7003635 0.28764489 0.073369741 4294967295
1.6928749 0.26004618 0.07203576 4294967295
1.6799999 0.23956044 0.070561081 4294967295
1.7007222 0.1901278 0.074458152 4294967295
1.7018332 0.17685865 0.073280811 4294967295
1.6949233 0.10103127 0.074145943 4294967295
1.6908123 0.074374788 0.077486008 4294967295
1.6974287 0.045682333 0.075192481 4294967295
1.6952 0.015556497 0.074367791 4294967295
1.6923637 -0.011057341 0.072618186 4294967295
1.682 -0.084064111 0.07002601 4294967295
1.692 -0.10377584 0.074419379 4294967295
1.6878573 -0.13526769 0.076291323 4294967295
1.6958333 -0.16146767 0.072890997 4294967295
1.682 -0.19138362 0.07002601 4294967295
1.6951334 -0.22814031 0.075965285 4294967295
1.6925715 -0.25430727 0.082357109 4294967295
1.6967332 -0.28452429 0.083940834 4294967295
1.6934999 -0.31371254 0.080315083 4294967295
1.69575 -0.34637895 0.074717343 4294967295
1.6999089 -0.37180358 0.071341395 4294967295
1.6955999 -0.47264478 0.073473096 4294967295
1.6825715 -0.49398959 0.077680886 4294967295
1.6908751 -0.52583772 0.074035704 4294967295
1.696909 -0.55434698 0.073557377 4294967295
1.6957142 -0.58944231 0.076489657 4294967295
1.6937274 -0.61082023 0.076550543 4294967295
1.6933637 -0.64534515 0.079132706 4294967295
1.6943847 -0.67374992 0.080333203 4294967295
1.6933751 -0.70490879 0.075829148 4294967295
1.686 -0.72447801 0.070267618 4294967295
1.6913 -0.82970923 0.076176554 4294967295
1.6950833 -0.8555451 0.082920492 4294967295
1.6940868 -0.88699466 0.092263579 4294967295
1.707 -0.90514356 0.098982692 4294967295
1.6945313 0.8002618 0.055261046 4294967295
1.689158 0.40338197 0.066265166 4294967295
1.6916666 0.3772665 0.066572756 4294967295
1.6951429 0.34400314 0.063709229 4294967295
1.6968333 0.31938064 0.065410823 4294967295
1.7079999 0.24553338 0.067033231 4294967295
1.6932501 0.22375852 0.067016423 4294967295
1.6922727 0.19529729 0.068001509 4294967295
1.6955264 0.16868551 0.061456174 4294967295
1.6889999 0.13421756 0.055624932 4294967295
1.698 0.11526626 0.064970285 4294967295
1.7025 -0.023854731 0.066524416 4294967295
1.6986666 -0.047491685 0.061626077 4294967295
1.6954999 -0.073602006 0.065109372 4294967295
1.7 -0.17568241 0.069154888 4294967295
1.709 -0.18057765 0.06676805 4294967295
1.709 -0.2162642 0.06676805 4294967295
1.692 -0.38422552 0.068667114 4294967295
1.6923333 -0.40257466 0.065967381 4294967295
1.6892 -0.43247646 0.065755576 4294967295
1.702 -0.45626315 0.068624496 4294967295
1.69525 -0.73762238 0.067472637 4294967295
1.6962856 -0.76391822 0.063966632 4294967295
1.6914999 -0.79388118 0.064539701 4294967295
1.7053334 -0.81588763 0.066420257 4294967295
1.6995999 0.81570804 0.018010736 4294967295
1.6974545 0.80520582 0.032619476 4294967295
1.6911668 0.8225354 -0.0063167214 4294967295
1.7046666 0.82052499 -0.021728694 4294967295
1.6863333 0.79735172 -0.021122634 4294967295
1.6960001 0.75631249 -0.028178632 4294967295
1.68875 0.74135655 -0.038544118 4294967295
1.7 0.73939294 -0.05311811 4294967295
1.709 0.75123769 -0.10769945 4294967295
1.7 0.74728149 -0.10044956 4294967295
1.707 0.75035852 -0.11092544 4294967295
1.6955713 0.73690629 -0.12187022 4294967295
1.7293333 -0.92460924 1.4620565 4294967295
1.7284136 -0.92519057 1.4365499 4294967295
1.7305 -0.93165201 1.4221636 4294967295
1.72025 -0.92910141 1.4108101 4294967295
1.7265 -0.93203509 1.405318 4294967295
1.7192857 -0.92874348 1.3787159 4294967295
1.732909 -0.93532652 1.3718857 4294967295
1.7295599 -0.93924165 1.3462167 4294967295
1.7274445 -0.92709994 1.3141314 4294967295
1.7166001 -0.9325248 1.3257031 4294967295
1.7268888 -0.92546165 1.2853761 4294967295
1.7286001 -0.92399913 1.2563084 4294967295
1.7280555 -0.92520642 1.2241967 4294967295
1.726913 -0.9275313 1.1960752 4294967295
1.7309999 0.52494818 1.1543459 4294967295
1.7273846 -0.92255723 1.1649475 4294967295
1.729 0.49723047 1.1405615 4294967295
1.727607 -0.91675746 1.1364753 4294967295
1.7275453 -0.92020899 1.1074402 4294967295
1.7320908 -0.93707293 1.0938212 4294967295
1.738 -0.92964637 1.0631589 4294967295
1.7302691 -0.94046628 1.0741577 4294967295
1.7299713 -0.92039317 1.0418437 4294967295
1.7232499 -0.93373108 1.0550437 4294967295
1.7265247 -0.91417086 1.0151937 4294967295
1.7268999 0.51627958 0.99118268 4294967295
1.731111 0.50433993 0.97933465 4294967295
1.7251431 -0.92647082 0.99280441 4294967295
1.7305 -0.93365431 0.97850525 4294967295
1.7282143 0.49703473 0.95383102 4294967295
1.738 -0.92964637 0.94218516 4294967295
1.7275831 -0.93508059 0.9553442 4294967295
1.7273531 0.49713695 0.92428029 4294967295
1.7291 -0.92406446 0.92536926 4294967295
1.727 -0.93177634 0.93951309 4294967295
1.7258694 0.49435231 0.89518988 4294967295
1.7281784 -0.92437559 0.89454615 4294967295
1.7189999 0.49239013 0.8745507 4294967295
1.7286943 -0.9225266 0.8649379 4294967295
1.7262001 0.78521538 0.82235849 4294967295
1.7262354 0.49492481 0.82929707 4294967295
1.7290624 -0.92609197 0.84422398 4294967295
1.7280625 -0.93458962 0.83025867 4294967295
1.7314001 0.81249416 0.79355454 4294967295
1.7285312 0.79714733 0.80841041 4294967295
1.7260664 0.49667516 0.80592334 4294967295
1.7135 -0.92846823 0.79907799 4294967295
1.729077 -0.93411976 0.80730671 4294967295
1.7295715 0.81845713 0.7756139 4294967295
1.7260953 0.4942247 0.77698457 4294967295
1.7282802 -0.92474467 0.77347779 4294967295
1.7268999 0.81718528 0.74915457 4294967295
1.7292501 0.49399316 0.7468003 4294967295
1.7268716 -0.91914791 0.74500006 4294967295
1.7277143 0.49144953 0.71205819 4294967295
1.7276584 -0.92085618 0.71499276 4294967295
1.7268825 0.4838011 0.68706471 4294967295
1.7273749 -0.9189285 0.68560463 4294967295
1.7205557 0.79090869 0.64831996 4294967295
1.7233999 0.48805797 0.64593565 4294967295
1.7262256 -0.91867232 0.65508032 4294967295
1.7252499 0.78937572 0.62312013 4294967295
1.7359999 0.77921754 0.62752968 4294967295
1.7270001 0.48970592 0.62280154 4294967295
1.7319614 -0.9263984 0.62803388 4294967295
1.7241666 -0.93245435 0.61990476 4294967295
1.7261599 0.80313647 0.59520102 4294967295
1.7224135 0.48770374 0.59431022 4294967295
1.727607 -0.92578185 0.59551716 4294967295
1.725 -0.93069732 0.60683686 4294967295
1.7142667 0.81267834 0.55936396 4294967295
1.72788 0.80795115 0.56544268 4294967295
1.7240001 0.49064064 0.56635427 4294967295
1.7260331 -0.91921961 0.56484562 4294967295
1.7124285 0.81403971 0.5437699 4294967295
1.7252916 0.80741304 0.5347991 4294967295
1.7295001 0.49339494 0.53483015 4294967295
1.7256755 -0.91079319 0.53328818 4294967295
1.716 0.81005448 0.49092281 4294967295
1.7257855 0.8072148 0.50363058 4294967295
1.7285557 0.49378887 0.5056302 4294967295
1.729457 -0.91759467 0.51189262 4294967295
1.7291176 -0.93833321 0.49895409 4294967295
1.7153748 0.81025577 0.4735249 4294967295
1.728857 0.80607796 0.474659 4294967295
1.7298 0.49387914 0.47383559 4294967295
1.73575 -0.92843878 0.46340561 4294967295
1.7282858 -0.93703651 0.47505924 4294967295
1.7135 0.81085926 0.45319685 4294967295
1.7258148 0.80695724 0.44494811 4294967295
1.7264445 0.49563193 0.44690159 4294967295
1.7282194 -0.92516905 0.44553623 4294967295
1.7245791 0.80376756 0.41516039 4294967295
1.7283999 0.49507114 0.41047472 4294967295
1.7269996 -0.92314678 0.41445085 4294967295
1.7227498 0.80589473 0.38389075 4294967295
1.7250786 0.49369484 0.38428885 4294967295
1.7272925 -0.92202973 0.38438481 4294967295
1.7130001 0.81116468 0.35150397 4294967295
1.7258927 0.80655056 0.35517007 4294967295
1.7217059 0.48868611 0.36205652 4294967295
1.7292571 -0.91749334 0.35646683 4294967295
1.7171425 0.81271619 0.3241396 4294967295
1.7305651 0.80592221 0.32622355 4294967295
1.7245557 -0.91843468 0.32763004 4294967295
1.7179999 0.8129673 0.30753049 4294967295
1.72885 0.80727679 0.2919755 4294967295
1.7236667 -0.92062885 0.29237962 4294967295
1.7234702 0.80344355 0.26510793 4294967295
1.7282 0.50706524 0.25895566 4294967295
1.7276001 -0.92886579 0.27668449 4294967295
1.7288462 -0.93860972 0.26114425 4294967295
1.7237351 0.80027092 0.23543307 4294967295
1.7316666 0.51210016 0.22547653 4294967295
1.7288001 0.50803757 0.23881009 4294967295
1.733 -0.95227778 0.24697298 4294967295
1.7313752 -0.97479779 0.23331872 4294967295
1.7244642 0.80231184 0.20413888 4294967295
1.7309999 0.54001653 0.19346872 4294967295
1.728 0.52303016 0.20365706 4294967295
1.722 -0.98900872 0.21913844 4294967295
1.7326399 -0.99896568 0.20457211 4294967295
1.7233664 0.80710614 0.17479935 4294967295
1.7304287 -0.98378021 0.16319236 4294967295
1.7303718 -1.002951 0.17567775 4294967295
1.7134998 0.8173247 0.13464874 4294967295
1.7243332 0.8064456 0.14430597 4294967295
1.7311206 -0.94829601 0.14201111 4294967295
1.7266663 -0.97002184 0.15463957 4294967295
1.7168785 0.82073539 0.11924434 4294967295
1.7199996 0.80051666 0.11508289 4294967295
1.738 0.56236261 0.10343418 4294967295
1.7297307 -0.92072922 0.10836753 4294967295
1.7296562 -0.94033253 0.1219964 4294967295
1.7199442 0.79981607 0.085037559 4294967295
1.738 0.57042754 0.099401712 4294967295
1.7300433 0.5524658 0.096631259 4294967295
1.7271665 0.52478617 0.095697433 4294967295
1.7285924 0.494102 0.092785746 4294967295
1.724478 0.4647243 0.090513676 4294967295
1.7286665 0.43595469 0.089067549 4294967295
1.7282798 0.40570638 0.079791129 4294967295
1.7358891 0.33927488 0.07575202 4294967295
1.7271875 0.31579664 0.077625453 4294967295
1.7271665 0.28434613 0.076397806 4294967295
1.7315001 0.25793704 0.074209392 4294967295
1.7350001 0.22271109 0.075247496 4294967295
1.7258928 0.19647165 0.079759359 4294967295
1.7289695 0.16593148 0.077174336 4294967295
1.7318571 0.13273345 0.077078849 4294967295
1.725903 0.10672545 0.078329355 4294967295
1.7268748 0.073786125 0.078574598 4294967295
1.7280295 0.044993222 0.080378771 4294967295
1.7257084 0.016515438 0.075037688 4294967295
1.7293001 -0.013021499 0.074239433 4294967295
1.738 -0.030408526 0.071174532 4294967295
1.7362499 -0.077454746 0.080945194 4294967295
1.7298156 -0.10271383 0.077218175 4294967295
1.727682 -0.13517542 0.073671937 4294967295
1.7325387 -0.16079774 0.072288662 4294967295
1.7359999 -0.20759743 0.071691036 4294967295
1.7295218 -0.22477986 0.075992882 4294967295
1.7275 -0.25512359 0.081695288 4294967295
1.7283331 -0.28531808 0.08437413 4294967295
1.7263502 -0.31578371 0.080609798 4294967295
1.7291502 -0.34558377 0.074877977 4294967295
1.7325 -0.37527367 0.07278806 4294967295
1.738 -0.39736208 0.071174532 4294967295
1.738 -0.475995 0.071174532 4294967295
1.7265999 -0.49408063 0.071992427 4294967295
1.7282501 -0.52476335 0.071031958 4294967295
1.7351249 -0.5557121 0.07141611 4294967295
1.7282308 -0.58080763 0.072164774 4294967295
1.7279001 -0.61749578 0.072591811 4294967295
1.7293334 -0.64678645 0.074755877 4294967295
1.7309998 -0.67716402 0.078155011 4294967295
1.7285 -0.70596993 0.075362086 4294967295
1.7320716 -0.73530918 0.07214424 4294967295
1.7366955 -0.76514238 0.075367063 4294967295
1.7371114 -0.79325855 0.074987471 4294967295
1.7276667 -0.8359046 0.071849257 4294967295
1.728158 -0.85408151 0.077943861 4294967295
1.7277999 -0.88584673 0.088570625 4294967295
1.7276001 -0.90482301 0.097520441 4294967295
1.72045 0.79917032 0.055740863 4294967295
1.7231668 0.3929697 0.067685336 4294967295
1.7301306 0.37514263 0.06519261 4294967295
1.7310356 0.34524253 0.062940568 4294967295
1.7187999 0.32405594 0.064967185 4294967295
1.7252499 0.24650766 0.067470074 4294967295
1.7258999 0.22669978 0.066099823 4294967295
1.7258 0.15731415 0.058582991 4294967295
1.7275 0.13653146 0.058362961 4294967295
1.716 0.11728866 0.066902339 4294967295
1.7236667 -0.025488015 0.066226423 4294967295
1.733875 -0.034359235 0.060680389 4294967295
1.7306666 -0.077775016 0.063033193 4294967295
1.7315714 -0.17263585 0.06767264 4294967295
1.7322354 -0.196732 0.063923031 4294967295
1.7215999 -0.21305777 0.06742692 4294967295
1.716 -0.38835075 0.068893045 4294967295
1.7273891 -0.40429407 0.064576685 4294967295
1.7325001 -0.43560788 0.056516111 4294967295
1.7305001 -0.46690348 0.065419376 4294967295
1.729 -0.53972107 0.069487154 4294967295
1.7303333 -0.55418861 0.069139749 4294967295
1.7245001 -0.74277323 0.066669226 4294967295
1.7292608 -0.76691753 0.064723521 4294967295
1.7331784 -0.79651642 0.06223163 4294967295
1.7316319 -0.82197535 0.064368963 4294967295
1.7247502 0.81416619 0.016065955 4294967295
1.72855 0.80352694 0.028096765 4294967295
1.734 0.84269065 -0.012279153 4294967295
1.73 0.82744658 0.0025438666 4294967295
1.7359999 0.84366256 -0.020948708 4294967295
1.7287143 0.82581371 -0.027835786 4294967295
1.7172858 0.79473776 -0.027070403 4294967295
1.728 0.76802737 -0.037623048 4294967295
1.716 0.7463519 -0.05453068 4294967295
1.7308571 0.75453174 -0.1254707 4294967295
1.7262499 0.74279553 -0.1360594 4294967295
1.729 0.73595977 -0.14312631 4294967295
1.7589999 -0.92679828 1.4873524 4294967295
1.7555 -0.93289214 1.4963062 4294967295
1.7528822 -0.91903454 1.4651521 4294967295
1.7513589 -0.92291355 1.434581 4294967295
1.7493999 -0.92843008 1.4137563 4294967295
1.7512221 -0.93218017 1.4029267 4294967295
1.7516667 -0.93694049 1.3732369 4294967295
1.745 -0.92934191 1.334585 4294967295
1.7524 -0.93471617 1.3481789 4294967295
1.7508422 -0.92708445 1.3132275 4294967295
1.7639999 -0.93127525 1.3229928 4294967295
1.7517918 -0.92447466 1.2865958 4294967295
1.755 -0.92718846 1.2550836 4294967295
1.7499444 -0.92722362 1.2277246 4294967295
1.7631428 -0.93198621 1.2176998 4294967295
1.7522501 -0.92708367 1.1938295 4294967295
1.762 -0.93021935 1.205568 4294967295
1.7455001 0.52631283 1.1606715 4294967295
1.7589999 0.50385863 1.1554265 4294967295
1.7526773 -0.91871375 1.165205 4294967295
1.7512919 -0.91354471 1.1367105 4294967295
1.7534288 -0.92276675 1.1039966 4294967295
1.7432501 -0.93245053 1.0931079 4294967295
1.7528285 -0.92372435 1.0730245 4294967295
1.743111 -0.93552154 1.0811605 4294967295
1.7496399 -0.91262847 1.0468099 4294967295
1.75425 0.51264417 1.0030985 4294967295
1.7512221 -0.91262674 1.0140058 4294967295
1.7490001 0.51113218 0.99761093 4294967295
1.7514666 0.50195795 0.98500526 4294967295
1.7495002 -0.92631298 0.99469662 4294967295
1.7524444 -0.93373847 0.97957039 4294967295
1.7512223 0.49711156 0.95395976 4294967295
1.7559999 -0.92770785 0.94621444 4294967295
1.751 -0.93373191 0.95996743 4294967295
1.7542728 0.49361682 0.92467666 4294967295
1.7531291 -0.92104805 0.92472303 4294967295
1.7535558 0.49098396 0.89646065 4294967295
1.7513422 -0.91868007 0.89377391 4294967295
1.7535 0.49210227 0.87881154 4294967295
1.7494752 -0.91323137 0.86489677 4294967295
1.7552856 0.49143535 0.83147049 4294967295
1.7503887 -0.9220407 0.84163105 4294967295
1.7509997 -0.93387192 0.8277902 4294967295
1.745 0.81159818 0.79003501 4294967295
1.747432 0.79188526 0.79850602 4294967295
1.7597647 0.7742582 0.80071235 4294967295
1.7496818 0.48899803 0.80496353 4294967295
1.7519549 -0.93561673 0.80533504 4294967295
1.7525002 0.81825858 0.77521545 4294967295
1.76 0.799582 0.78586495 4294967295
1.7530001 0.49010494 0.77573109 4294967295
1.7522801 -0.92197502 0.7737571 4294967295
1.7515 -0.93073523 0.78899682 4294967295
1.7522728 0.82013917 0.75123292 4294967295
1.7511252 0.49295694 0.74502659 4294967295
1.7515939 -0.91238052 0.74469692 4294967295
1.7504996 0.48945141 0.71552396 4294967295
1.7493591 -0.91134489 0.71483946 4294967295
1.7410001 0.48254496 0.69650948 4294967295
1.7512813 -0.91323513 0.68561411 4294967295
1.752 0.80265903 0.66510516 4294967295
1.7513334 0.48404315 0.64201766 4294967295
1.7501249 -0.91428709 0.65402699 4294967295
1.7481666 0.78329855 0.61542958 4294967295
1.7459999 0.77830017 0.62003857 4294967295
1.7564999 0.48561043 0.62676907 4294967295
1.7511945 -0.91997367 0.62485504 4294967295
1.7521999 0.80084014 0.59138238 4294967295
1.752 0.48559377 0.60616356 4294967295
1.7520883 -0.92077482 0.59623659 4294967295
1.7518846 0.80602753 0.56613731 4294967295
1.7501001 0.48790127 0.56097448 4294967295
1.752 -0.91814542 0.56408143 4294967295
1.7690001 0.81044739 0.5413295 4294967295
1.7515999 0.80815691 0.53583574 4294967295
1.7532858 0.49000028 0.53503639 4294967295
1.7545835 -0.90881085 0.53589547 4294967295
1.7690001 0.81044739 0.50233787 4294967295
1.752389 0.80779517 0.50363159 4294967295
1.7521429 0.49026397 0.50599903 4294967295
1.7510526 -0.91457587 0.50155663 4294967295
1.743889 -0.93549007 0.49359357 4294967295
1.7690001 0.81044739 0.46334627 4294967295
1.7533751 0.80582285 0.473517 4294967295
1.7504288 0.49124226 0.47408897 4294967295
1.7526041 -0.91912979 0.47328621 4294967295
1.7451332 -0.93534678 0.48044518 4294967295
1.7690001 0.81044739 0.44898093 4294967295
1.7492667 0.80653578 0.4435429 4294967295
1.7520832 0.4937332 0.44458684 4294967295
1.7498857 -0.9154467 0.44684651 4294967295
1.7499498 0.80536175 0.41624373 4294967295
1.7521304 0.49215505 0.41343215 4294967295
1.751615 -0.9188742 0.41518539 4294967295
1.7690001 0.81044739 0.39357179 4294967295
1.7494286 0.80756301 0.38481462 4294967295
1.7500834 0.48742425 0.38646448 4294967295
1.7638 -0.89760464 0.37307417 4294967295
1.751435 -0.91011733 0.38432065 4294967295
1.7690001 0.81044739 0.35868454 4294967295
1.7482141 0.80613178 0.35652646 4294967295
1.7410001 0.4865844 0.3693167 4294967295
1.7656666 -0.89801383 0.365816 4294967295
1.7520572 -0.90961057 0.35848314 4294967295
1.744625 0.80383301 0.32295945 4294967295
1.751 -0.92294449 0.32493919 4294967295
1.74945 0.80574089 0.29491195 4294967295
1.7501668 -0.92123014 0.2852686 4294967295
1.7492307 0.80294067 0.26620305 4294967295
1.7589999 0.51202101 0.26572931 4294967295
1.74775 0.50874627 0.25722218 4294967295
1.7530488 -0.92407805 0.26351413 4294967295
1.7418573 -0.93286365 0.25839004 4294967295
1.7495456 0.80005002 0.23574159 4294967295
1.749 0.51112986 0.22456488 4294967295
1.756091 0.50894177 0.23650858 4294967295
1.7577752 -0.91913736 0.23560715 4294967295
1.7467206 -0.94272989 0.23401797 4294967295
1.7458634 -0.97011811 0.2274839 4294967295
1.7451 0.80111414 0.20336103 4294967295
1.7559129 0.51747125 0.2050758 4294967295
1.766 0.50996119 0.21964577 4294967295
1.7678 -0.92589772 0.21605748 4294967295
1.7572827 -0.9465515 0.20604408 4294967295
1.7490001 -0.97590137 0.20611101 4294967295
1.7425712 -0.99475563 0.19648239 4294967295
1.7513334 0.8066777 0.17555258 4294967295
1.7543334 0.5459215 0.18295041 4294967295
1.7585714 0.53345728 0.18359753 4294967295
1.7631 -0.92628574 0.16451755 4294967295
1.754631 -0.9460941 0.17356312 4294967295
1.7472631 -0.97363758 0.17683166 4294967295
1.7425002 -0.99522007 0.18144691 4294967295
1.7690001 0.81044739 0.14115226 4294967295
1.7510589 0.80676115 0.14476934 4294967295
1.7649999 0.57382852 0.13929075 4294967295
1.765143 0.56528974 0.13262275 4294967295
1.7679503 0.48858184 0.14650446 4294967295
1.7677146 0.47412798 0.1475797 4294967295
1.7529844 -0.91912192 0.14400887 4294967295
1.7422609 -0.9391284 0.15215567 4294967295
1.7410001 -0.96356642 0.15926698 4294967295
1.7461667 0.79998654 0.11971837 4294967295
1.7470001 0.57202613 0.11616248 4294967295
1.7524642 0.55606139 0.11423436 4294967295
1.7539232 0.52664447 0.10432941 4294967295
1.7575333 0.49295929 0.10543638 4294967295
1.7581751 0.46465605 0.10759839 4294967295
1.7627618 0.43714339 0.10432535 4294967295
1.7663331 0.40460014 0.10265672 4294967295
1.7649 0.37697086 0.10231289 4294967295
1.7675 0.35660881 0.10046449 4294967295
1.7690001 0.30560839 0.10010844 4294967295
1.7684 0.19062382 0.10025084 4294967295
1.7674999 0.17001778 0.10149056 4294967295
1.7690001 -0.059681587 0.10010844 4294967295
1.7614444 -0.077120557 0.10099849 4294967295
1.7658334 -0.10260037 0.10086006 4294967295
1.7553333 -0.89817715 0.10064551 4294967295
1.7510484 -0.91299367 0.11591402 4294967295
1.7410001 -0.93125105 0.12291223 4294967295
1.7420001 0.51717454 0.098433733 4294967295
1.7435714 0.49539581 0.098053426 4294967295
1.7429374 0.46488172 0.096187145 4294967295
1.7496251 0.43300033 0.095416218 4294967295
1.7489548 0.40276247 0.090134203 4294967295
1.7486557 0.37538642 0.085809737 4294967295
1.7499167 0.34729388 0.08894065 4294967295
1.7525265 0.31409508 0.090137839 4294967295
1.7538871 0.28532469 0.089393646 4294967295
1.7511948 0.25397429 0.08662492 4294967295
1.7525812 0.22502927 0.088722259 4294967295
1.7504594 0.19439147 0.092238575 4294967295
1.7501503 0.16408803 0.091005802 4294967295
1.7520285 0.13693219 0.090111345 4294967295
1.7526313 0.10352182 0.089360893 4294967295
1.75225 0.075556666 0.09039253 4294967295
1.7514858 0.044483241 0.091751039 4294967295
1.7510555 0.014169415 0.085550219 4294967295
1.751927 -0.014486772 0.086150527 4294967295
1.7488213 -0.044822261 0.085375875 4294967295
1.7460688 -0.07162369 0.091742188 4294967295
1.7485131 -0.10632211 0.091573656 4294967295
1.7544348 -0.13520353 0.08625859 4294967295
1.7538096 -0.16496406 0.083112717 4294967295
1.7529073 -0.19447692 0.079366416 4294967295
1.75196 -0.22413129 0.083033115 4294967295
1.7541153 -0.25358349 0.08644399 4294967295
1.7536668 -0.28490227 0.089755446 4294967295
1.7529677 -0.31562772 0.088721395 4294967295
1.7535886 -0.34478909 0.084410906 4294967295
1.7530686 -0.37485549 0.081609637 4294967295
1.7523783 -0.40514934 0.079575539 4294967295
1.7556819 -0.43537387 0.080702692 4294967295
1.752578 -0.46483949 0.080809623 4294967295
1.7525001 -0.49340397 0.077933073 4294967295
1.7531427 -0.52437782 0.073479474 4294967295
1.7522354 -0.55712247 0.078282207 4294967295
1.7521249 -0.58512187 0.083233297 4294967295
1.7520812 -0.61415321 0.080203891 4294967295
1.7551999 -0.64433908 0.080139697 4294967295
1.7542353 -0.67447877 0.08472383 4294967295
1.7529321 -0.70486361 0.086023718 4294967295
1.7500578 -0.73469514 0.084805727 4294967295
1.7502975 -0.76487523 0.088329226 4294967295
1.7513058 -0.79497707 0.08729583 4294967295
1.7508636 -0.82424486 0.079708517 4294967295
1.7526801 -0.85566992 0.081389725 4294967295
1.7507931 -0.88450319 0.091275752 4294967295
1.7410001 -0.90297514 0.098675728 4294967295
1.743 0.37390971 0.069883347 4294967295
1.743615 -0.049027 0.061478525 4294967295
1.7422501 -0.066356488 0.062497288 4294967295
1.7421112 -0.19350623 0.06786871 4294967295
1.7438334 -0.4162297 0.066973627 4294967295
1.7473335 -0.43584993 0.062012941 4294967295
1.745 -0.45824301 0.065320104 4294967295
1.7410001 -0.82016706 0.066360384 4294967295
1.7511765 0.80202675 0.019976556 4294967295
1.7520001 0.84328103 -0.016166508 4294967295
1.7545913 0.82455319 -0.006213069 4294967295
1.756 0.80672234 0.0058746934 4294967295
1.7620001 0.8491357 -0.023932159 4294967295
1.7526429 0.82529449 -0.031355321 4294967295
1.7499166 0.79761642 -0.032382667 4294967295
1.751 0.7737664 -0.041869402 4294967295
1.7514 0.76094311 -0.058236301 4294967295
1.75375 0.75733697 -0.13192278 4294967295
1.75 0.74895889 -0.13899958 4294967295
1.7690001 0.75298607 -0.14205003 4294967295
1.74875 0.74537754 -0.14257586 4294967295
1.7864001 -0.93728751 1.514307 4294967295
1.7861539 -0.92478532 1.491981 4294967295
1.7806002 -0.93341482 1.5052927 4294967295
1.7875625 -0.92322767 1.4653909 4294967295
1.7824001 -0.92650282 1.4417789 4294967295
1.7885556 -0.93546772 1.4284643 4294967295
1.7857273 -0.94311541 1.4034927 4294967295
1.7844117 -0.94106102 1.3762319 4294967295
1.7861819 -0.93958479 1.3468115 4294967295
1.7847999 -0.92899239 1.3071837 4294967295
1.7882501 -0.93368649 1.3184375 4294967295
1.7793335 -0.92835712 1.2962568 4294967295
1.7860001 -0.93399769 1.2823877 4294967295
1.776 -0.92936921 1.2501612 4294967295
1.7844547 -0.9322769 1.2579463 4294967295
1.7870002 -0.9370299 1.2257974 4294967295
1.7848183 -0.92605668 1.1888319 4294967295
1.7866668 -0.93286324 1.2034075 4294967295
1.793 0.52191794 1.1718689 4294967295
1.7835333 -0.91950577 1.1650989 4294967295
1.7866429 -0.92279214 1.1354883 4294967295
1.7862858 -0.92823279 1.1051826 4294967295
1.7839333 -0.92385101 1.0755756 4294967295
1.7840002 -0.91751331 1.0459726 4294967295
1.7775 0.51121593 1.0074517 4294967295
1.7945 0.50777811 1.0037866 4294967295
1.7839092 -0.92258269 1.0154294 4294967295
1.7923332 -0.93236727 1.0038991 4294967295
1.7844999 0.50162649 0.9865995 4294967295
1.7835882 -0.93771178 0.98367596 4294967295
1.779875 0.50002301 0.9543981 4294967295
1.7849001 -0.92821378 0.94818711 4294967295
1.7845557 -0.9338277 0.96222758 4294967295
1.7846251 0.49462354 0.92242765 4294967295
1.7846 -0.92392296 0.92562413 4294967295
1.7854 0.49318245 0.89573121 4294967295
1.7860715 -0.92012262 0.89524263 4294967295
1.7860001 -0.91831607 0.86474073 4294967295
1.7878001 0.49136826 0.82985711 4294967295
1.7822858 -0.92614877 0.84424281 4294967295
1.7847271 -0.93881887 0.83118987 4294967295
1.774 0.78392625 0.79040676 4294967295
1.7782501 0.77238846 0.79311574 4294967295
1.7805557 0.4884502 0.80333114 4294967295
1.7860715 -0.9426223 0.80586123 4294967295
1.7853159 0.82117712 0.76944536 4294967295
1.7847198 0.79626626 0.78159428 4294967295
1.7882 0.7769177 0.78675592 4294967295
1.7862501 0.49145678 0.77412969 4294967295
1.7853849 -0.92438626 0.77397299 4294967295
1.7929999 -0.93409348 0.78775227 4294967295
1.7889 0.82701993 0.75240165 4294967295
1.7838889 0.49580583 0.7431547 4294967295
1.7869999 -0.91764301 0.74411571 4294967295
1.7832501 0.4911508 0.71631432 4294967295
1.784353 -0.91400039 0.71551657 4294967295
1.7834285 -0.91758013 0.68427503 4294967295
1.7835 -0.9188028 0.65528178 4294967295
1.774 0.48757544 0.62576747 4294967295
1.7845001 -0.92215943 0.6245746 4294967295
1.7874287 0.79626179 0.59278202 4294967295
1.7849474 -0.92379332 0.59568423 4294967295
1.7921999 0.81275195 0.55783629 4294967295
1.7817001 0.80881381 0.56795359 4294967295
1.7885001 0.4915607 0.55401641 4294967295
1.7855295 -0.92288709 0.56382006 4294967295
1.7849998 0.81466132 0.53427923 4294967295
1.7854445 0.48979515 0.53300571 4294967295
1.7852999 -0.91476381 0.53780043 4294967295
1.7863637 0.81575781 0.50857621 4294967295
1.7851818 0.49064112 0.50632101 4294967295
1.78575 -0.91685158 0.50459391 4294967295
1.783 0.81272447 0.48978752 4294967295
1.7852501 0.49480951 0.47523877 4294967295
1.78435 -0.91675425 0.47610939 4294967295
1.7855002 0.81468171 0.44541204 4294967295
1.776 0.80953377 0.43221742 4294967295
1.7879002 0.49677923 0.44159091 4294967295
1.7846428 -0.91938776 0.44421571 4294967295
1.7906667 0.81275314 0.41488701 4294967295
1.7746668 0.80892605 0.41787195 4294967295
1.7833999 0.49346641 0.41737935 4294967295
1.7845626 -0.92141497 0.41419107 4294967295
1.7844 0.81501043 0.38295543 4294967295
1.7792 0.48982877 0.38912079 4294967295
1.7817144 -0.89750153 0.37524295 4294967295
1.7847778 -0.90979004 0.38968226 4294967295
1.7857001 0.81436127 0.35715818 4294967295
1.776 0.80953377 0.3415637 4294967295
1.7826667 0.49409354 0.36570656 4294967295
1.7834445 -0.89646792 0.36472666 4294967295
1.78575 -0.91167372 0.35128725 4294967295
1.798 0.81539005 0.33518171 4294967295
1.7883333 -0.92888117 0.33481878 4294967295
1.7805001 -0.93481624 0.31839886 4294967295
1.7814 0.81199521 0.29142523 4294967295
1.786 -0.93874598 0.30740839 4294967295
1.7852501 0.81270713 0.26914641 4294967295
1.776 0.80953377 0.26739249 4294967295
1.786 0.51573658 0.25147256 4294967295
1.786 -0.9217363 0.26349145 4294967295
1.7923332 0.81282026 0.24427828 4294967295
1.7836001 0.80885971 0.22906998 4294967295
1.7823999 0.51138467 0.24084523 4294967295
1.7889116 0.49872506 0.2280896 4294967295
1.798 0.47609448 0.22532779 4294967295
1.798 0.39822337 0.22254667 4294967295
1.798 0.38153669 0.22254667 4294967295
1.7844241 -0.90928876 0.23420238 4294967295
1.7920001 0.8126691 0.20482826 4294967295
1.7845 0.80926788 0.21442744 4294967295
1.7743334 0.51511157 0.1962719 4294967295
1.7824444 0.49439016 0.20590231 4294967295
1.7927406 0.46576491 0.20348576 4294967295
1.7890937 0.43455064 0.20493418 4294967295
1.7894577 0.4054693 0.20476222 4294967295
1.793592 0.37558785 0.20601562 4294967295
1.7970002 0.35491553 0.20130917 4294967295
1.794 0.28204632 0.19851643 4294967295
1.7915845 0.25499803 0.20408946 4294967295
1.7931401 0.22590941 0.20482439 4294967295
1.7951958 0.19648077 0.20286599 4294967295
1.7950313 0.16330084 0.19740447 4294967295
1.7918333 0.13506208 0.19897944 4294967295
1.7937857 0.10595172 0.19619676 4294967295
1.798 0.08952003 0.19751668 4294967295
1.798 0.034593087 0.20725057 4294967295
1.7980002 0.016098699 0.21142226 4294967295
1.7871666 -0.91851085 0.20550275 4294967295
1.7780665 -0.93649465 0.1980637 4294967295
1.7750001 0.81319624 0.16663516 4294967295
1.7842999 0.55270523 0.16685107 4294967295
1.7830005 0.52251482 0.17447591 4294967295
1.7812738 0.49403396 0.17483616 4294967295
1.7807069 0.46569103 0.17349476 4294967295
1.7829995 0.43473333 0.17500162 4294967295
1.7912939 0.40568221 0.17418495 4294967295
1.7962717 0.37624842 0.17472231 4294967295
1.7971249 0.34809303 0.175053 4294967295
1.7980002 0.30869296 0.17216569 4294967295
1.7965152 0.28346193 0.17782199 4294967295
1.7938862 0.25533271 0.1746943 4294967295
1.7938255 0.22638027 0.17437345 4294967295
1.7917659 0.19429161 0.17581066 4294967295
1.79175 0.16421048 0.17395154 4294967295
1.7905117 0.13513725 0.17566222 4294967295
1.7928091 0.10589237 0.17556107 4294967295
1.7980002 0.087781839 0.17804888 4294967295
1.78704 -0.91994041 0.17436808 4294967295
1.7776842 -0.9382754 0.1827125 4294967295
1.7837143 0.81599832 0.14744681 4294967295
1.774889 0.57383984 0.15178844 4294967295
1.7819997 0.55459666 0.14588758 4294967295
1.7849998 0.52515227 0.14600101 4294967295
1.7758214 0.49955657 0.14543146 4294967295
1.7760231 0.46157709 0.14348179 4294967295
1.7831663 0.43478334 0.14529237 4294967295
1.7883674 0.40437958 0.14531046 4294967295
1.7944114 0.37578216 0.14567411 4294967295
1.798 0.3554638 0.15684292 4294967295
1.798 0.3064467 0.15997168 4294967295
1.7980001 0.27585447 0.15348241 4294967295
1.7971483 0.25564897 0.14674446 4294967295
1.7979064 0.22663197 0.1450032 4294967295
1.7980001 0.19798338 0.15267125 4294967295
1.7977369 0.16063443 0.15124249 4294967295
1.7980002 0.13784185 0.15719059 4294967295
1.798 0.10537238 0.15997168 4294967295
1.7963901 0.073789597 0.14088252 4294967295
1.7980001 0.05290208 0.13540521 4294967295
1.798 -0.063788719 0.13181293 4294967295
1.785195 -0.91041535 0.14668801 4294967295
1.798 0.81539005 0.10574001 4294967295
1.782739 0.54750985 0.12185448 4294967295
1.7887597 0.5257439 0.11618876 4294967295
1.7784667 0.49706608 0.11877251 4294967295
1.7748666 0.46406248 0.12163985 4294967295
1.7795236 0.43423209 0.11796865 4294967295
1.7819088 0.40525219 0.11795539 4294967295
1.7870167 0.37411222 0.11516508 4294967295
1.7899734 0.34518272 0.10804769 4294967295
1.7885249 0.31406388 0.10950279 4294967295
1.7901045 0.2857109 0.11061499 4294967295
1.7930434 0.25730655 0.10399827 4294967295
1.7931664 0.22503695 0.11296594 4294967295
1.7869294 0.19545799 0.11443591 4294967295
1.7876596 0.16481024 0.11213288 4294967295
1.7944546 0.13873194 0.10581023 4294967295
1.7927179 0.10376555 0.10932222 4294967295
1.7904834 0.075075552 0.11412853 4294967295
1.794552 0.051438835 0.1110056 4294967295
1.798 -0.021029133 0.10156834 4294967295
1.7910668 -0.045461107 0.10208175 4294967295
1.7914826 -0.074215576 0.11261117 4294967295
1.7879999 -0.10503698 0.1085315 4294967295
1.7918001 -0.13466492 0.10322833 4294967295
1.7955335 -0.16389968 0.1038129 4294967295
1.798 -0.18372414 0.10156834 4294967295
1.798 -0.26437637 0.10295889 4294967295
1.7959411 -0.28413022 0.10523766 4294967295
1.79245 -0.31353852 0.10307688 4294967295
1.798 -0.33598998 0.10156831 4294967295
1.798 -0.46948335 0.10156831 4294967295
1.798 -0.59463328 0.10156831 4294967295
1.798 -0.60297662 0.10156834 4294967295
1.798 -0.68432415 0.10156834 4294967295
1.7934116 -0.7069239 0.10288808 4294967295
1.7965715 -0.73231745 0.10249674 4294967295
1.7849308 -0.9060356 0.11446807 4294967295
1.793 0.81312257 0.096491814 4294967295
1.7751429 0.34020534 0.098062426 4294967295
1.775 0.31848654 0.097655326 4294967295
1.7747501 0.28446615 0.09822917 4294967295
1.7781177 0.25475547 0.096251786 4294967295
1.7770001 0.22682756 0.097294927 4294967295
1.774 0.20563063 0.098921657 4294967295
1.7750001 0.15220743 0.098684311 4294967295
1.7815002 0.1313173 0.096894056 4294967295
1.7784166 0.10815375 0.096847594 4294967295
1.7742859 0.075987414 0.098853856 4294967295
1.7816002 0.041015953 0.097403198 4294967295
1.7852397 0.01333747 0.094945788 4294967295
1.7840002 -0.014649765 0.096559584 4294967295
1.7800001 -0.042606045 0.097501874 4294967295
1.774 -0.11747403 0.098921657 4294967295
1.7792308 -0.1368847 0.096415609 4294967295
1.7827085 -0.16578884 0.095316917 4294967295
1.7864 -0.19441448 0.091578811 4294967295
1.7846955 -0.22439343 0.088658184 4294967295
1.7887408 -0.25631353 0.092519373 4294967295
1.7843915 -0.28411719 0.095926464 4294967295
1.7798126 -0.315561 0.096000135 4294967295
1.78624 -0.34539697 0.094375074 4294967295
1.7855519 -0.37465733 0.089773864 4294967295
1.7849998 -0.40360242 0.089083105 4294967295
1.7865558 -0.43562707 0.092120349 4294967295
1.7836781 -0.46485022 0.094130605 4294967295
1.7858635 -0.49266866 0.087087363 4294967295
1.7860715 -0.52524656 0.075647682 4294967295
1.7861428 -0.55696434 0.081450611 4294967295
1.7859259 -0.58402497 0.094109684 4294967295
1.7849256 -0.61499751 0.092820168 4294967295
1.7867244 -0.64535278 0.089632869 4294967295
1.7853223 -0.67420506 0.093314826 4294967295
1.7815264 -0.70294726 0.096056342 4294967295
1.7839526 -0.73484617 0.096571386 4294967295
1.7841365 -0.7646448 0.096528441 4294967295
1.7855238 -0.79467845 0.096396536 4294967295
1.7879093 -0.82509309 0.09281075 4294967295
1.7847224 -0.85409665 0.084889024 4294967295
1.7847728 -0.88632071 0.090347141 4294967295
1.793 -0.90082461 0.098571867 4294967295
1.7821429 0.80641896 0.019609869 4294967295
1.7837 0.81923729 -0.013047993 4294967295
1.7873334 0.80593491 0.0022220612 4294967295
1.78825 0.84906864 -0.033859968 4294967295
1.791846 0.83272988 -0.031328619 4294967295
1.7875001 0.7981841 -0.044252157 4294967295
1.7869999 0.78344703 -0.055502892 4294967295
1.781 0.76842451 -0.072161019 4294967295
1.7858335 0.76567787 -0.13728929 4294967295
1.7776667 0.75392407 -0.14804453 4294967295
1.8165499 -0.91453063 1.520654 4294967295
1.8068181 -0.93367505 1.5202699 4294967295
1.814711 -0.92012352 1.4962687 4294967295
1.8167043 -0.92324299 1.464213 4294967295
1.8099999 -0.93036312 1.4510176 4294967295
1.8244286 -0.92688644 1.4433064 4294967295
1.8175745 -0.93692368 1.4331738 4294967295
1.8262221 -0.92693001 1.4019322 4294967295
1.8168799 -0.94086349 1.4062401 4294967295
1.8279999 -0.92689157 1.3881747 4294967295
1.8163095 -0.94010133 1.3764852 4294967295
1.8171599 -0.94211745 1.3435531 4294967295
1.8216249 -0.92523479 1.3131185 4294967295
1.8107224 -0.93305862 1.3143831 4294967295
1.8225652 -0.92504483 1.2841084 4294967295
1.8107039 -0.93428987 1.2869146 4294967295
1.8210626 -0.92626816 1.2618146 4294967295
1.8132569 -0.93490022 1.2519248 4294967295
1.8256 -0.92651826 1.2142169 4294967295
1.8163056 -0.93731976 1.2266922 4294967295
1.816517 -0.9239527 1.1933475 4294967295
1.8068001 -0.93206578 1.2053907 4294967295
1.8099999 0.52266687 1.1780494 4294967295
1.8140911 -0.92403549 1.1647931 4294967295
1.816273 -0.92615628 1.1333253 4294967295
1.8157208 -0.92552781 1.1036971 4294967295
1.8065 -0.93065572 1.1097147 4294967295
1.8162498 -0.92446363 1.0764101 4294967295
1.8156819 -0.92503279 1.0447192 4294967295
1.8184999 0.51457101 1.0165944 4294967295
1.8180001 0.50492901 1.0037926 4294967295
1.818853 -0.92483544 1.0141869 4294967295
1.8107777 -0.93355644 1.0051403 4294967295
1.8160715 0.50334072 0.98433411 4294967295
1.8230526 -0.92549062 0.98489141 4294967295
1.810513 -0.93653077 0.98640442 4294967295
1.8147143 0.50205809 0.95327944 4294967295
1.8158333 -0.92631495 0.95364588 4294967295
1.8069998 -0.93230987 0.96453905 4294967295
1.8163334 0.49582511 0.92524356 4294967295
1.8154377 -0.92576289 0.92623889 4294967295
1.817 0.49516356 0.89813554 4294967295
1.8159999 -0.92297763 0.89606965 4294967295
1.8181251 0.49441963 0.85724938 4294967295
1.8158997 -0.92213857 0.86448264 4294967295
1.8156296 0.48947939 0.83544159 4294967295
1.8202143 -0.92593962 0.84449714 4294967295
1.8146856 -0.93996692 0.83172154 4294967295
1.8152798 0.48879269 0.80595344 4294967295
1.8171751 -0.9410879 0.80574131 4294967295
1.8083125 0.81716913 0.76626241 4294967295
1.8155112 0.7932561 0.77049875 4294967295
1.8268 0.77419686 0.77132845 4294967295
1.8146 0.49282962 0.77469152 4294967295
1.8162333 -0.92427248 0.7749325 4294967295
1.8065 -0.93065572 0.78697789 4294967295
1.8163824 0.81948614 0.74888158 4294967295
1.8248847 0.80103123 0.75174677 4294967295
1.8160669 0.4980019 0.74625361 4294967295
1.8153793 -0.91916275 0.74544263 4294967295
1.8148001 0.49344468 0.71550119 4294967295
1.8148462 -0.91728848 0.71386737 4294967295
1.8132501 0.49203831 0.69540471 4294967295
1.8150301 -0.92003506 0.68474406 4294967295
1.803 0.82184082 0.66932917 4294967295
1.8148458 -0.92360485 0.65572262 4294967295
1.8140967 -0.92402655 0.62394673 4294967295
1.8132666 0.7906037 0.59080082 4294967295
1.8158529 -0.92479515 0.59356433 4294967295
1.8099169 0.81273711 0.5589605 4294967295
1.8155209 0.79759419 0.56696463 4294967295
1.8188888 0.49287015 0.56094098 4294967295
1.8164319 -0.92032433 0.56440979 4294967295
1.817032 0.81611186 0.53435141 4294967295
1.8253751 0.8076846 0.54359668 4294967295
1.8114167 0.49119666 0.53728968 4294967295
1.8158841 -0.91366273 0.53694469 4294967295
1.8181763 0.81632817 0.50632209 4294967295
1.8271667 0.80812538 0.5010522 4294967295
1.8143636 0.49215755 0.50532073 4294967295
1.8173331 -0.92083728 0.50576544 4294967295
1.8199232 0.81590003 0.47631973 4294967295
1.8257 0.8080411 0.47804525 4294967295
1.8152143 0.49678728 0.47659308 4294967295
1.814697 -0.91756862 0.47649717 4294967295
1.8200324 0.81773281 0.44721374 4294967295
1.8279999 0.80778867 0.4593361 4294967295
1.8167645 0.49684188 0.44433594 4294967295
1.8161032 -0.92272758 0.44477165 4294967295
1.8157274 0.81729186 0.40996686 4294967295
1.8245 0.80412197 0.40018815 4294967295
1.8138888 0.49314916 0.41586152 4294967295
1.8165556 -0.92021543 0.41382894 4294967295
1.819625 0.81752437 0.38387853 4294967295
1.8262939 0.80329412 0.38785219 4294967295
1.8143002 0.49485448 0.3857061 4294967295
1.813769 -0.90832078 0.38761967 4294967295
1.8155 0.81888789 0.35507923 4294967295
1.8169999 0.50149119 0.35644662 4294967295
1.8123332 -0.89884543 0.35939986 4294967295
1.8146402 -0.90880251 0.34761763 4294967295
1.8195711 0.81672227 0.32451871 4294967295
1.8240952 0.8024317 0.31838971 4294967295
1.8231429 -0.92259979 0.33622134 4294967295
1.8167061 -0.93999141 0.32483491 4294967295
1.8167773 0.81567991 0.29484922 4294967295
1.8267999 0.80358475 0.29831094 4294967295
1.8175 -0.9489693 0.30576503 4294967295
1.8165998 0.81756395 0.26685691 4294967295
1.8166001 0.52203262 0.25571942 4294967295
1.8143331 -0.91431767 0.26344121 4294967295
1.8171667 0.81681025 0.23390472 4294967295
1.8127142 0.5150308 0.24656001 4294967295
1.8108518 0.494434 0.23864836 4294967295
1.8089026 0.46460214 0.23213774 4294967295
1.809114 0.43501481 0.23104188 4294967295
1.8098252 0.40545347 0.23237634 4294967295
1.8097439 0.37455255 0.2324684 4294967295
1.8131067 0.34445044 0.23036239 4294967295
1.8180664 0.31534871 0.22739455 4294967295
1.8163545 0.28388616 0.22740877 4294967295
1.8089167 0.25421488 0.22892123 4294967295
1.8092723 0.2247975 0.22859526 4294967295
1.8090569 0.19500247 0.22913688 4294967295
1.8109001 0.16648926 0.22743452 4294967295
1.8141724 0.13603868 0.22656143 4294967295
1.8142051 0.10468639 0.22808149 4294967295
1.8123142 0.073410153 0.22860971 4294967295
1.8118925 0.043969665 0.22656935 4294967295
1.8088126 0.013728387 0.22838855 4294967295
1.8075428 -0.014849371 0.22937506 4294967295
1.8101469 -0.043957081 0.23080972 4294967295
1.8067716 -0.073536858 0.2294955 4294967295
1.8104857 -0.10393722 0.22842529 4294967295
1.8180382 -0.13337928 0.22621858 4294967295
1.8203914 -0.16553001 0.22748065 4294967295
1.8178184 -0.19667248 0.2280919 4294967295
1.8156068 -0.22554086 0.2259621 4294967295
1.8129641 -0.25465608 0.2263867 4294967295
1.8157499 -0.28454491 0.22593769 4294967295
1.819296 -0.3141804 0.2256034 4294967295
1.8185713 -0.34510019 0.22548455 4294967295
1.8177564 -0.37512469 0.22761524 4294967295
1.8169721 -0.40569341 0.22797051 4294967295
1.8142351 -0.43471333 0.22804907 4294967295
1.811607 -0.46463498 0.22660887 4294967295
1.8152224 -0.49457338 0.22579345 4294967295
1.82012 -0.52374244 0.22599334 4294967295
1.8207275 -0.55490464 0.22743401 4294967295
1.8182855 -0.58446592 0.22763351 4294967295
1.8185002 -0.61483645 0.22740823 4294967295
1.8210999 -0.6451624 0.22739515 4294967295
1.8205215 -0.67534912 0.22709143 4294967295
1.8172694 -0.70673221 0.22666407 4294967295
1.8157856 -0.73458093 0.22668639 4294967295
1.8221875 -0.76329476 0.22647613 4294967295
1.8257858 -0.79444712 0.22430637 4294967295
1.822158 -0.82623869 0.22589698 4294967295
1.8156049 -0.8556354 0.22818467 4294967295
1.8153503 -0.88721061 0.23270833 4294967295
1.8080001 -0.90566176 0.24004003 4294967295
1.818381 0.81698179 0.20512056 4294967295
1.801 0.45947793 0.21787173 4294967295
1.801 0.44694203 0.21787173 4294967295
1.801 0.36128017 0.21787173 4294967295
1.8029189 0.34176204 0.20658782 4294967295
