# .PCD v0.7 - Point Cloud Data file format
VERSION 0.7
FIELDS x y z rgb
SIZE 4 4 4 4
TYPE F F F U
COUNT 1 1 1 1
WIDTH 1129
HEIGHT 1
VIEWPOINT 0 0 0 1 0 0 0
POINTS 1129
DATA ascii
2.102875 0.044931911 0.27518103 4294967295
2.1010001 0.020924022 0.27803773 4294967295
2.1010001 -0.054042622 0.2685838 4294967295
2.1032932 -0.073701479 0.26511949 4294967295
2.1071227 -0.10257018 0.26465848 4294967295
2.1108606 -0.1351141 0.26533276 4294967295
2.1114886 -0.16636688 0.26401159 4294967295
2.1133165 -0.19581774 0.26510718 4294967295
2.1126583 -0.22619218 0.26518348 4294967295
2.113842 -0.25472495 0.26504263 4294967295
2.1228335 -0.28588086 0.26486227 4294967295
2.1259229 -0.31265745 0.25822526 4294967295
2.1272502 -0.34507659 0.25321621 4294967295
2.1235359 -0.37728187 0.26283738 4294967295
2.1141903 -0.40487903 0.26589775 4294967295
2.1141112 -0.43675876 0.26590207 4294967295
2.1164412 -0.46597794 0.26604655 4294967295
2.1211059 -0.49635321 0.26466843 4294967295
2.1218615 -0.52696913 0.26497266 4294967295
2.1178107 -0.5559054 0.26513684 4294967295
2.1135383 -0.58569115 0.26491773 4294967295
2.1107957 -0.61515069 0.26398548 4294967295
2.1094768 -0.64485133 0.26403645 4294967295
2.1113958 -0.67514753 0.26403424 4294967295
2.109628 -0.70463526 0.26435027 4294967295
2.1130004 -0.73558533 0.26603895 4294967295
2.1158333 -0.76601785 0.26569381 4294967295
2.1123517 -0.79462737 0.2657879 4294967295
2.1119001 -0.82547039 0.26471162 4294967295
2.1099322 -0.85477763 0.26408732 4294967295
2.1081135 -0.88482964 0.26486036 4294967295
2.1039338 -0.91286647 0.27005422 4294967295
2.1010001 -0.079819337 0.24391493 4294967295
2.1024706 -0.10422158 0.24248126 4294967295
2.1052725 -0.1336313 0.24720484 4294967295
2.1010001 -0.16837598 0.24553984 4294967295
2.1040769 -0.19866702 0.24551785 4294967295
2.1038668 -0.22262318 0.2448447 4294967295
2.104059 -0.25592151 0.24399629 4294967295
2.1071484 -0.28457659 0.24094579 4294967295
2.1091073 -0.31320861 0.24047923 4294967295
2.11115 -0.34405103 0.2434912 4294967295
2.1100004 -0.37543455 0.24461728 4294967295
2.1071308 -0.40651187 0.24262053 4294967295
2.1105521 -0.43644741 0.2397413 4294967295
2.1155176 -0.46607333 0.23840886 4294967295
2.1159358 -0.49548551 0.23901162 4294967295
2.1091566 -0.52487713 0.2394419 4294967295
2.1053481 -0.55461645 0.24391562 4294967295
2.1045835 -0.58290243 0.24588963 4294967295
2.1010001 -0.68752927 0.24553984 4294967295
2.1025 -0.70712602 0.24168727 4294967295
2.1069171 -0.7346859 0.24212536 4294967295
2.1080651 -0.76469982 0.23958173 4294967295
2.1065812 -0.79459512 0.24103546 4294967295
2.1045001 -0.82155412 0.24404052 4294967295
2.1017499 -0.84869397 0.24544185 4294967295
2.1559999 -0.91312236 1.7240344 4294967295
2.1474288 -0.90912217 1.7071379 4294967295
2.145 -0.90746313 1.6765685 4294967295
2.146909 -0.91107148 1.647384 4294967295
2.1460998 -0.90344113 1.6134245 4294967295
2.1451819 -0.9117015 1.5858682 4294967295
2.143091 -0.9221158 1.5554396 4294967295
2.1489999 -0.93010187 1.5406276 4294967295
2.1468334 -0.93746805 1.5271357 4294967295
2.1451428 -0.92272776 1.4897264 4294967295
2.148 -0.93465048 1.5052643 4294967295
2.1472857 -0.91298681 1.4615228 4294967295
2.1464 -0.90505832 1.4352956 4294967295
2.145 -0.90458602 1.4065635 4294967295
2.1400001 0.49879584 1.3675323 4294967295
2.1452727 -0.91038114 1.3736917 4294967295
2.1454999 0.49310285 1.3423187 4294967295
2.145375 -0.9154669 1.3441433 4294967295
2.1440001 0.54200506 1.3094285 4294967295
2.151 0.52129918 1.3169966 4294967295
2.148 0.50397664 1.3241904 4294967295
2.1497142 0.45760325 1.3101032 4294967295
2.1412501 0.44443843 1.3133962 4294967295
2.1415002 -0.92353833 1.3159618 4294967295
2.1459999 0.55496418 1.2902485 4294967295
2.1495554 0.45502973 1.2870791 4294967295
2.1371112 0.44413078 1.2787867 4294967295
2.1441112 -0.91968775 1.2834866 4294967295
2.1440001 0.44252783 1.2671399 4294967295
2.1465001 -0.91095966 1.2536991 4294967295
2.1450911 -0.92206717 1.2238631 4294967295
2.1449232 -0.91339093 1.1945336 4294967295
2.1515715 0.5300203 1.1546156 4294967295
2.1433334 -0.89780116 1.1749146 4294967295
2.1463335 -0.90653312 1.1629561 4294967295
2.1472499 0.58391255 1.1262875 4294967295
2.1511998 0.55230707 1.132406 4294967295
2.1432145 0.52261841 1.1382978 4294967295
2.1470001 0.50706303 1.1245613 4294967295
2.1475 -0.91450489 1.1338308 4294967295
2.135 0.58184093 1.1178792 4294967295
2.135 0.55707312 1.1178792 4294967295
2.1452858 0.50144446 1.1043997 4294967295
2.1450002 -0.91841054 1.1057336 4294967295
2.1460001 0.49769637 1.0736575 4294967295
2.1470001 -0.92362952 1.0776422 4294967295
2.1438003 0.49768063 1.0462213 4294967295
2.1520002 -0.92640734 1.0452552 4294967295
2.1446667 0.49988353 1.0185548 4294967295
2.1457143 -0.91800499 1.0127749 4294967295
2.1394999 0.50364321 0.98262131 4294967295
2.1473334 -0.91276652 0.98183197 4294967295
2.1424999 0.50434941 0.95345354 4294967295
2.1451666 -0.90935528 0.9539957 4294967295
2.1508334 0.50631106 0.92518258 4294967295
2.1419091 -0.90488994 0.92463833 4294967295
2.1559999 0.50752735 0.89615595 4294967295
2.145 -0.91542619 0.89820862 4294967295
2.1358001 0.50772762 0.86041766 4294967295
2.1431251 -0.91636574 0.86159182 4294967295
2.1452 0.50696641 0.83653533 4294967295
2.145 -0.91218978 0.83451557 4294967295
2.1437144 0.50320607 0.80340672 4294967295
2.143625 -0.91596037 0.80571073 4294967295
2.1517498 0.50277513 0.77812195 4294967295
2.1444445 -0.91983038 0.77721095 4294967295
2.1401665 0.50380015 0.74442017 4294967295
2.1470001 -0.917606 0.74431247 4294967295
2.1448333 0.50489867 0.71505392 4294967295
2.1473637 -0.92168641 0.71415198 4294967295
2.145 0.50658906 0.68522996 4294967295
2.1459167 -0.92128873 0.68528998 4294967295
2.1489999 0.90974933 0.66308343 4294967295
2.1459999 0.5101524 0.65541506 4294967295
2.1389999 0.50848836 0.65497333 4294967295
2.1463335 -0.92063922 0.65295541 4294967295
2.1459999 0.5101524 0.61558235 4294967295
2.1446667 0.50816804 0.6321184 4294967295
2.1457777 -0.91708529 0.62304753 4294967295
2.1475 0.51050895 0.59572297 4294967295
2.1437273 -0.91017783 0.59581506 4294967295
2.1489999 0.85988885 0.55339038 4294967295
2.1442857 0.50618643 0.56682187 4294967295
2.1481431 -0.91406405 0.56761396 4294967295
2.1489999 0.5025447 0.53841603 4294967295
2.1386669 -0.9107433 0.53587461 4294967295
2.1542499 0.5021171 0.51098502 4294967295
2.145 -0.91716653 0.50606173 4294967295
2.1475 0.51798457 0.47115302 4294967295
2.1400001 0.5054152 0.48373517 4294967295
2.1440001 -0.92544478 0.4861635 4294967295
2.1468334 -0.93662775 0.47283059 4294967295
2.1436665 -0.94270641 0.44554591 4294967295
2.1559999 0.54254335 0.42343968 4294967295
2.1459999 0.53255826 0.40646076 4294967295
2.1456668 -0.89877307 0.40398923 4294967295
2.1453001 -0.9135595 0.41695285 4294967295
2.1436 0.51753449 0.39614695 4294967295
2.1444445 0.49263948 0.3885839 4294967295
2.14025 0.46782735 0.38566971 4294967295
2.1481431 0.43589702 0.38819551 4294967295
2.1559999 0.41748622 0.38842368 4294967295
2.1400001 0.37714925 0.38443497 4294967295
2.1408 0.34895724 0.38538474 4294967295
2.1520002 0.31437013 0.38866779 4294967295
2.1431999 0.28573003 0.38920483 4294967295
2.1370001 0.25348404 0.38958323 4294967295
2.1489999 0.23414005 0.38885087 4294967295
2.135 0.18555585 0.38475171 4294967295
2.1439998 0.16392559 0.38418156 4294967295
2.1559999 0.14486153 0.38342139 4294967295
2.1559999 0.092337511 0.38342139 4294967295
2.1470001 0.074517138 0.38399154 4294967295
2.1467001 0.042634428 0.38202631 4294967295
2.1418002 0.016189938 0.38383278 4294967295
2.1489999 -0.015162284 0.38885087 4294967295
2.1427999 -0.045417644 0.38625526 4294967295
2.1418333 -0.07475847 0.38431883 4294967295
2.1473334 -0.10481584 0.38148665 4294967295
2.1445 -0.13206103 0.37544721 4294967295
2.1436665 -0.164324 0.37425536 4294967295
2.1470001 -0.19448343 0.37402871 4294967295
2.1489999 -0.22457623 0.37389272 4294967295
2.1437778 -0.25635666 0.37591162 4294967295
2.1424999 -0.28232148 0.38055825 4294967295
2.1440001 -0.31605312 0.38205862 4294967295
2.1377144 -0.34846032 0.37820458 4294967295
2.1500001 -0.36935031 0.37507129 4294967295
2.1559999 -0.44790956 0.37341684 4294967295
2.1496668 -0.4640407 0.37384742 4294967295
2.1459999 -0.49313337 0.37409669 4294967295
2.1496665 -0.52391005 0.37384742 4294967295
2.1559999 -0.55795991 0.37341684 4294967295
2.1456668 -0.58513862 0.3757824 4294967295
2.1453333 -0.61244422 0.37911958 4294967295
2.1445456 -0.64545304 0.37691969 4294967295
2.1458571 -0.67482245 0.37482101 4294967295
2.1448333 -0.7068429 0.37417603 4294967295
2.1492 -0.73572516 0.37387913 4294967295
2.1542499 -0.76118785 0.37353581 4294967295
2.1511998 -0.8012715 0.37374318 4294967295
2.1430001 -0.82384139 0.38004309 4294967295
2.1440001 -0.86076254 0.38915601 4294967295
2.1467144 -0.88213545 0.39610597 4294967295
2.135 -0.14633295 0.36989099 4294967295
2.135 -0.15624008 0.36989099 4294967295
2.135 -0.20329894 0.36989099 4294967295
2.135 -0.22311321 0.36989099 4294967295
2.135 -0.25366017 0.36080948 4294967295
2.135 -0.28503275 0.3422336 4294967295
2.135 -0.31227735 0.34016961 4294967295
2.1395557 -0.3783119 0.36736709 4294967295
2.1440001 -0.40561515 0.36677682 4294967295
2.1415 -0.43345991 0.36794794 4294967295
2.1363335 -0.46612257 0.36979726 4294967295
2.135 -0.49555925 0.36989099 4294967295
2.1356668 -0.52544856 0.36984414 4294967295
2.1389999 -0.55604184 0.36960977 4294967295
2.135 -0.57481629 0.36989099 4294967295
2.1389999 -0.76696271 0.36960977 4294967295
2.1383333 -0.79400706 0.36965665 4294967295
2.135 -0.2652185 0.33026251 4294967295
2.1383543 -0.28468671 0.32372802 4294967295
2.1434703 -0.3142426 0.32350677 4294967295
2.1376312 -0.34424368 0.32245356 4294967295
2.136333 -0.37236235 0.3181617 4294967295
2.135 -0.39401117 0.31044823 4294967295
2.135 -0.29659104 0.3021923 4294967295
2.1367271 -0.31755799 0.29571629 4294967295
2.137064 -0.34433073 0.29329711 4294967295
2.137769 -0.37365967 0.2936455 4294967295
2.135 -0.39401117 0.3005411 4294967295
2.135571 -0.31814343 0.26721343 4294967295
2.1367772 -0.34475997 0.26620671 4294967295
2.136091 -0.36537406 0.26888859 4294967295
2.1763332 -0.90993834 1.7294884 4294967295
2.1787269 -0.91033107 1.7077665 4294967295
2.1749997 -0.9133957 1.6752346 4294967295
2.1775382 -0.91018105 1.6455021 4294967295
2.1736872 -0.90420532 1.6147398 4294967295
2.1742632 -0.91792703 1.5871198 4294967295
2.1721666 -0.92583477 1.5650593 4294967295
2.1783998 -0.93675238 1.5505443 4294967295
2.1819999 -0.92919666 1.5107368 4294967295
2.1736426 -0.93930662 1.5242213 4294967295
2.1759164 -0.92279607 1.4953262 4294967295
2.174583 -0.91382533 1.4648836 4294967295
2.1752222 -0.90723753 1.434741 4294967295
2.1889999 0.50005907 1.3920226 4294967295
2.1736152 -0.91048187 1.4048953 4294967295
2.1849999 0.53970188 1.3853598 4294967295
2.1715999 0.49657753 1.3724957 4294967295
2.1770711 -0.91554213 1.3749912 4294967295
2.1709228 0.48932874 1.3417993 4294967295
2.1833334 0.471742 1.3374269 4294967295
2.1708887 -0.92109519 1.3461858 4294967295
2.1849999 -0.93047422 1.3346639 4294967295
2.1700001 0.54981697 1.3102037 4294967295
2.182833 0.52308798 1.3237269 4294967295
2.1753335 0.49307692 1.3245523 4294967295
2.1709373 0.47076476 1.3155334 4294967295
2.1689999 -0.92866522 1.3110583 4294967295
2.1811666 -0.93305755 1.3163691 4294967295
2.171 0.55639225 1.2992216 4294967295
2.1725333 0.46606115 1.2856412 4294967295
2.1600001 0.44331867 1.2702156 4294967295
2.1744611 -0.91937 1.2857068 4294967295
2.1751664 -0.91618502 1.2552829 4294967295
2.1747854 -0.92502475 1.2245257 4294967295
2.1845 0.52436906 1.1836925 4294967295
2.1718001 -0.89863563 1.1846101 4294967295
2.1753569 -0.90974706 1.2009119 4294967295
2.1724284 0.54812235 1.1643617 4294967295
2.1728001 0.52380556 1.1655092 4294967295
2.1655002 -0.89955437 1.1766636 4294967295
2.1778569 -0.91009492 1.1652467 4294967295
2.174 0.60255754 1.1489768 4294967295
2.1760001 0.58693838 1.1344144 4294967295
2.1752 0.55748999 1.1442559 4294967295
2.1675 0.51274496 1.1445777 4294967295
2.1773331 0.50664133 1.1330901 4294967295
2.1739998 -0.91840452 1.1353641 4294967295
2.1701 0.4992564 1.1060528 4294967295
2.1763842 -0.92329913 1.1049848 4294967295
2.1733332 0.49590841 1.0776119 4294967295
2.1720998 -0.92748773 1.0783789 4294967295
2.1869998 -0.93132585 1.0690088 4294967295
2.1735997 0.49804646 1.0434394 4294967295
2.1783333 -0.92761588 1.0339668 4294967295
2.1789999 -0.93128181 1.0484523 4294967295
2.1768885 0.50233561 1.0139886 4294967295
2.1749997 -0.92042458 1.0137116 4294967295
2.1733332 0.50543648 0.98740941 4294967295
2.1735711 -0.91370314 0.98458165 4294967295
2.1889999 0.51021677 0.94762301 4294967295
2.1807499 0.50829387 0.96118098 4294967295
2.1742141 -0.90928811 0.95517617 4294967295
2.1708667 -0.90765274 0.92509925 4294967295
2.1889999 0.51021677 0.8917557 4294967295
2.1787498 -0.92232394 0.89717257 4294967295
2.1889999 0.51021677 0.87144029 4294967295
2.16625 0.50867283 0.86398566 4294967295
2.1739998 -0.92072994 0.86649895 4294967295
2.182143 0.5071674 0.8338154 4294967295
2.1746922 -0.91636413 0.83711833 4294967295
2.1742997 0.50375217 0.80751503 4294967295
2.1733842 -0.92124933 0.80473 4294967295
2.1744285 0.50464779 0.77362502 4294967295
2.1765451 -0.92411053 0.77464211 4294967295
2.1709998 0.50602132 0.74262315 4294967295
2.1753571 -0.920582 0.74377513 4294967295
2.1742725 0.50401998 0.71383834 4294967295
2.1772139 -0.92353737 0.71364999 4294967295
2.1744998 0.50640416 0.68495476 4294967295
2.1780586 -0.92274511 0.6852228 4294967295
2.164 0.896016 0.64399874 4294967295
2.1703634 0.50860745 0.65580142 4294967295
2.1769164 -0.92449832 0.65482664 4294967295
2.1719 0.50823754 0.62479591 4294967295
2.1749997 -0.91934919 0.62480074 4294967295
2.1747689 0.50882506 0.59570789 4294967295
2.1737647 -0.91083765 0.59590048 4294967295
2.1600001 0.86930197 0.55356133 4294967295
2.1728461 0.50450015 0.56734478 4294967295
2.1739166 -0.91606832 0.56975985 4294967295
2.1803331 0.50313795 0.53615463 4294967295
2.1761665 -0.9216634 0.53612316 4294967295
2.1754999 0.50453073 0.50591207 4294967295
2.1694 -0.92381757 0.50440979 4294967295
2.1849999 -0.93047422 0.49311489 4294967295
2.1816666 0.51864278 0.47289693 4294967295
2.1795001 0.50800246 0.48559096 4294967295
2.1773074 -0.94000918 0.47299907 4294967295
2.1746247 -0.9449625 0.44436657 4294967295
2.174 0.5420289 0.41254541 4294967295
2.1766665 0.53258479 0.4039945 4294967295
2.178 -0.89462167 0.40224105 4294967295
2.1757498 -0.91430271 0.41539377 4294967295
2.1795001 -0.93065411 0.42744401 4294967295
2.1706667 0.51600856 0.39760122 4294967295
2.1744442 0.496732 0.39403325 4294967295
2.1743999 0.46392876 0.3903411 4294967295
2.1841667 0.43560389 0.39177236 4294967295
2.1709998 0.40272501 0.38750827 4294967295
2.1799998 0.37662712 0.38695902 4294967295
2.1643999 0.34782094 0.38791102 4294967295
2.1889999 0.30706269 0.39148861 4294967295
2.1815999 0.28578812 0.39192304 4294967295
2.1809998 0.25784683 0.39195827 4294967295
2.1610003 0.22040236 0.38811854 4294967295
2.1663332 0.19581576 0.38779306 4294967295
2.178 0.16653332 0.38708109 4294967295
2.1682 0.13414189 0.38366431 4294967295
2.1624 0.10766861 0.38301596 4294967295
2.1798332 0.075671978 0.38696921 4294967295
2.1766665 0.04523918 0.38716245 4294967295
2.1730001 0.014918479 0.38991487 4294967295
2.1751666 -0.015364498 0.39230072 4294967295
2.171 -0.04703122 0.38852403 4294967295
2.1803334 -0.076108791 0.38693866 4294967295
2.171 -0.1084683 0.3837409 4294967295
2.1719999 -0.13626152 0.37905401 4294967295
2.1668 -0.16861217 0.37770987 4294967295
2.1763332 -0.19208136 0.37793031 4294967295
2.177 -0.22495791 0.37704006 4294967295
2.1731248 -0.25609472 0.38045606 4294967295
2.1762497 -0.28360483 0.38530737 4294967295
2.177 -0.31501219 0.38547003 4294967295
2.1668 -0.34458876 0.38273722 4294967295
2.1731248 -0.37707594 0.37730816 4294967295
2.1728332 -0.40348977 0.37311882 4294967295
2.1735833 -0.43389711 0.37475419 4294967295
2.1669998 -0.46527827 0.37769675 4294967295
2.1651666 -0.49753907 0.37781715 4294967295
2.1708 -0.52654433 0.37744719 4294967295
2.1746664 -0.55605757 0.37552279 4294967295
2.1738 -0.58275145 0.37826598 4294967295
2.1769998 -0.61388183 0.38209108 4294967295
2.1749997 -0.64362544 0.38221776 4294967295
2.1762221 -0.67481697 0.37990808 4294967295
2.1730001 -0.70604527 0.37730274 4294967295
2.1755998 -0.73466367 0.377132 4294967295
2.1783748 -0.76777691 0.37569687 4294967295
2.1759996 -0.79480153 0.37599206 4294967295
2.1740003 -0.82086062 0.38127697 4294967295
2.1777499 -0.85283947 0.38836402 4294967295
2.174 -0.87954193 0.39573577 4294967295
2.2075 -0.90163833 1.752795 4294967295
2.2050002 -0.90742648 1.7334716 4294967295
2.2078574 -0.91091609 1.7039505 4294967295
2.2190001 -0.89861691 1.6613966 4294967295
2.2071249 -0.91021496 1.6751204 4294967295
2.212625 -0.89281482 1.6414328 4294967295
2.201643 -0.90434873 1.6470007 4294967295
2.2096667 -0.8951664 1.621035 4294967295
2.202842 -0.90550971 1.6097529 4294967295
2.2087951 -0.916668 1.5853064 4294967295
2.2153637 -0.92704415 1.5599835 4294967295
2.204 -0.93669385 1.5530238 4294967295
2.2099092 -0.92708397 1.5210794 4294967295
2.2019 -0.93612212 1.5335633 4294967295
2.2068574 -0.92001772 1.493485 4294967295
2.2070003 -0.91060871 1.4645466 4294967295
2.2064447 -0.90830332 1.4339387 4294967295
2.2071428 0.49906453 1.3977773 4294967295
2.2190001 -0.89861691 1.4013996 4294967295
2.2072964 -0.90808296 1.4044278 4294967295
2.2031429 0.49013889 1.3742861 4294967295
2.2150002 0.47258008 1.3638318 4294967295
2.2086787 -0.91399956 1.3766067 4294967295
2.1966667 0.48311999 1.3543037 4294967295
2.2037499 0.47146541 1.3531635 4294967295
2.2094762 -0.92525727 1.3459725 4294967295
2.1972501 -0.93186492 1.334131 4294967295
2.2066472 0.55016077 1.3110943 4294967295
2.2088001 0.52455914 1.3178921 4294967295
2.2047083 0.49811685 1.3125803 4294967295
2.2101905 -0.92238063 1.3140167 4294967295
2.1951666 -0.93225455 1.3206276 4294967295
2.2097392 0.49054381 1.2859126 4294967295
2.2023571 0.46807021 1.2768872 4294967295
2.2080503 -0.91593689 1.2853519 4294967295
2.2158 0.48561913 1.2628595 4294967295
2.2096665 0.47743317 1.2652519 4294967295
2.2069001 -0.92007309 1.2529546 4294967295
2.2190001 0.51463503 1.2134807 4294967295
2.2190001 -0.89861691 1.2134807 4294967295
2.2057691 -0.91645968 1.2252879 4294967295
2.208158 0.51628429 1.1944568 4294967295
2.207278 -0.89669585 1.1930298 4294967295
2.2013333 -0.90337896 1.2062581 4294967295
2.2075 0.60415584 1.1561041 4294967295
2.2161429 0.58045572 1.1560277 4294967295
2.2 0.56382447 1.1616096 4294967295
2.2038336 0.51365948 1.1695273 4294967295
2.2150002 0.50598931 1.1539836 4294967295
2.2130001 -0.89874738 1.1782241 4294967295
2.2060835 -0.9110707 1.1642203 4294967295
2.2020001 0.58885843 1.1448216 4294967295
2.1930001 0.51114917 1.1493857 4294967295
2.2096817 0.49730349 1.1334246 4294967295
2.2081583 -0.91929221 1.1348538 4294967295
2.20225 0.49540827 1.1111625 4294967295
2.2074001 -0.91847557 1.1041746 4294967295
2.2061877 0.49277046 1.0741415 4294967295
2.2092223 -0.92011565 1.0762901 4294967295
2.1989999 -0.93133408 1.0669158 4294967295
2.2074285 0.4954766 1.0470567 4294967295
2.2115333 -0.91969109 1.0445563 4294967295
2.1976664 -0.93246537 1.0495931 4294967295
2.2087224 0.4991402 1.0146694 4294967295
2.2077241 -0.91380429 1.0158308 4294967295
2.2075558 0.50257337 0.98510402 4294967295
2.2065713 -0.90873313 0.98560709 4294967295
2.2020001 0.51068193 0.9424991 4294967295
2.2097001 0.50734514 0.95934767 4294967295
2.2190001 -0.89861691 0.9474771 4294967295
2.2053638 -0.90587163 0.95593929 4294967295
2.2039168 0.51112711 0.92496824 4294967295
2.2190001 0.50691235 0.91487014 4294967295
2.2058573 -0.90814394 0.92544544 4294967295
2.2020001 0.51068193 0.90673602 4294967295
2.2108183 0.50736958 0.89430654 4294967295
2.2072916 -0.92116743 0.89485991 4294967295
2.21 0.50484473 0.86456275 4294967295
2.2089999 -0.91595769 0.86531639 4294967295
2.2076473 0.50159103 0.83420217 4294967295
2.2088234 -0.91799295 0.83437932 4294967295
2.2066002 0.49997023 0.80617166 4294967295
2.2051251 -0.92304415 0.80431205 4294967295
2.2060668 0.50292051 0.77333957 4294967295
2.2035296 -0.92331594 0.77588469 4294967295
2.2027144 0.50463718 0.74661076 4294967295
2.2066319 -0.91945904 0.74560022 4294967295
2.2090001 0.50257128 0.71372002 4294967295
2.2061334 -0.91726822 0.71551251 4294967295
2.1960001 0.96021676 0.68149805 4294967295
2.2095001 0.95329267 0.6747902 4294967295
2.2071335 0.50316226 0.68334466 4294967295
2.2190001 -0.89861691 0.67289257 4294967295
2.2069118 -0.91327107 0.68380904 4294967295
2.204 0.93303287 0.66163176 4294967295
2.204 0.92280555 0.65140444 4294967295
2.2071669 0.50419098 0.65415472 4294967295
2.2142 -0.86790109 0.64585114 4294967295
2.214077 -0.88694251 0.65240628 4294967295
2.2059045 -0.91376168 0.65407443 4294967295
2.204 0.90746456 0.63606346 4294967295
2.2190001 0.89819527 0.62140799 4294967295
2.2076116 0.50429356 0.62344551 4294967295
2.2150002 -0.86872691 0.63664275 4294967295
2.217572 -0.88829696 0.62501556 4294967295
2.2054703 -0.9104256 0.62440425 4294967295
2.2084002 0.50139916 0.59376597 4294967295
2.214143 -0.89186925 0.59990507 4294967295
2.2041054 -0.9060269 0.59407383 4294967295
2.2061255 0.49915904 0.56547165 4294967295
2.2048752 -0.9187839 0.56640464 4294967295
2.2062223 0.50171041 0.5400548 4294967295
2.207375 -0.92783242 0.54084945 4294967295
2.2045555 0.5058766 0.50367284 4294967295
2.1930001 -0.92879289 0.51082492 4294967295
2.2091429 -0.93269175 0.49940777 4294967295
2.2078001 0.51920056 0.46977997 4294967295
2.21 0.50826776 0.48597282 4294967295
2.2063529 -0.93865019 0.47357836 4294967295
2.2075 0.54525948 0.44929424 4294967295
2.2144284 -0.92538363 0.43403789 4294967295
2.2051854 -0.94094312 0.44606757 4294967295
2.21 0.54758579 0.41675749 4294967295
2.2066429 0.52272463 0.40545887 4294967295
2.2097001 0.4970884 0.40258276 4294967295
2.2160001 0.47279924 0.40018648 4294967295
2.2150002 0.010074903 0.40024054 4294967295
2.2142003 -0.01306478 0.40028381 4294967295
2.2091112 -0.88890517 0.40341121 4294967295
2.2066114 -0.91434938 0.41805041 4294967295
2.1960001 -0.93006349 0.4267433 4294967295
2.19625 0.48897007 0.39615864 4294967295
2.2045 0.46523595 0.39569345 4294967295
2.2058575 0.43298471 0.39488906 4294967295
2.2088749 0.40722361 0.39160889 4294967295
2.2074285 0.37183368 0.39114219 4294967295
2.2065456 0.34396324 0.39326257 4294967295
2.2042501 0.31813225 0.39379948 4294967295
2.211 0.28962916 0.39532691 4294967295
2.2093332 0.25182793 0.39457291 4294967295
2.2082503 0.2252185 0.39293271 4294967295
2.2045 0.1941507 0.39057863 4294967295
2.2083333 0.16374277 0.39035359 4294967295
2.2038751 0.13721597 0.38743031 4294967295
2.2051113 0.10466842 0.38714164 4294967295
2.2104445 0.074150972 0.39194584 4294967295
2.2068336 0.045879386 0.39300895 4294967295
2.2005715 0.019849826 0.39446121 4294967295
2.1976669 -0.015522665 0.39607877 4294967295
2.2046251 -0.043686964 0.39313859 4294967295
2.2078333 -0.077057071 0.39038295 4294967295
2.2083335 -0.10638428 0.38808811 4294967295
2.2038002 -0.13416369 0.38449496 4294967295
2.2057779 -0.16652247 0.38368905 4294967295
2.2075455 -0.19601196 0.38295925 4294967295
2.2092001 -0.22779632 0.3821097 4294967295
2.203125 -0.25323504 0.38427484 4294967295
2.2086248 -0.28332326 0.38969958 4294967295
2.2045715 -0.31842214 0.38911968 4294967295
2.2099001 -0.34373337 0.38770849 4294967295
2.2066252 -0.37523198 0.38342088 4294967295
2.2038183 -0.40763095 0.37807876 4294967295
2.2078333 -0.43561739 0.38013786 4294967295
2.2045 -0.46307805 0.38291782 4294967295
2.20575 -0.49406525 0.38284016 4294967295
2.2108335 -0.52597696 0.38252205 4294967295
2.2082858 -0.5561204 0.38158017 4294967295
2.2100909 -0.5836035 0.38233504 4294967295
2.2105715 -0.6130963 0.3850933 4294967295
2.2040002 -0.64453006 0.38549435 4294967295
2.2022858 -0.67723662 0.38487208 4294967295
2.2075 -0.70701462 0.38272858 4294967295
2.2091429 -0.73205727 0.38152587 4294967295
2.2079999 -0.76608884 0.38012731 4294967295
2.2064998 -0.79372245 0.38022232 4294967295
2.2071669 -0.82339203 0.38445401 4294967295
2.2089 -0.8565864 0.39186209 4294967295
2.2023335 -0.87652957 0.39581561 4294967295
2.2279999 -0.89966989 1.7642434 4294967295
2.234 -0.90469134 1.754636 4294967295
2.2345831 -0.9079417 1.7324607 4294967295
2.2340999 -0.90575778 1.7028482 4294967295
2.231909 -0.89488 1.6708521 4294967295
2.2276001 -0.90312314 1.6854534 4294967295
2.2298334 -0.88660961 1.646262 4294967295
2.2314284 -0.89513099 1.6152719 4294967295
2.2379999 -0.90111864 1.6036667 4294967295
2.2312274 -0.90708816 1.5824895 4294967295
2.2331998 -0.92577612 1.5567653 4294967295
2.2332997 -0.92460269 1.5246894 4294967295
2.2305 -0.91533667 1.4965236 4294967295
2.2339997 -0.90797949 1.466017 4294967295
2.2310002 -0.89754677 1.4257597 4294967295
2.2294443 -0.9039821 1.4397414 4294967295
2.243 0.49417818 1.3979174 4294967295
2.2327645 -0.89503241 1.4057877 4294967295
2.224 0.48483202 1.3775828 4294967295
2.2219999 0.4766652 1.3690808 4294967295
2.2259998 -0.89972383 1.3878219 4294967295
2.2327778 -0.90936118 1.3723285 4294967295
2.2347825 -0.91738629 1.3446493 4294967295
2.2271428 0.54567385 1.304599 4294967295
2.2273333 0.52604651 1.3046187 4294967295
2.2311904 -0.90993989 1.3156428 4294967295
2.2409999 0.54313505 1.2983487 4294967295
2.2399497 0.52183861 1.2899191 4294967295
2.2260001 0.5044955 1.2822263 4294967295
2.2314 0.46937454 1.2773936 4294967295
2.2305291 -0.90905768 1.2858729 4294967295
2.2449999 0.51285183 1.2684853 4294967295
2.2341113 0.49597231 1.2531242 4294967295
2.2279999 0.47795233 1.2653952 4294967295
2.231647 -0.91438419 1.2548864 4294967295
2.2363331 0.51721299 1.2269758 4294967295
2.2402 0.50499058 1.2258306 4294967295
2.2331667 -0.89743429 1.2196355 4294967295
2.2314286 -0.9073301 1.2314135 4294967295
2.2314165 0.50715089 1.1966369 4294967295
2.2324445 -0.89599741 1.1952243 4294967295
2.2344999 0.60376173 1.1638871 4294967295
2.2327499 0.58518517 1.1659563 4294967295
2.2318568 0.50243634 1.1653385 4294967295
2.2324615 -0.90804189 1.1642913 4294967295
2.2271428 0.48956817 1.1377496 4294967295
2.2317221 -0.91295695 1.1354618 4294967295
2.2353334 0.48471186 1.1027638 4294967295
2.2309999 -0.90536618 1.1044345 4294967295
2.2312727 0.48617724 1.0737628 4294967295
2.2315295 -0.90672094 1.073941 4294967295
2.2328887 0.49223378 1.0451291 4294967295
2.230526 -0.90544635 1.0465685 4294967295
2.2371817 0.493128 1.0129524 4294967295
2.234 -0.89950806 1.0004716 4294967295
2.2295997 -0.90255249 1.0181413 4294967295
2.2349999 0.49629605 0.98426521 4294967295
2.2324374 -0.89918506 0.9839384 4294967295
2.2331998 0.505485 0.95313644 4294967295
2.2310712 -0.89757675 0.95620215 4294967295
2.2331998 0.50651789 0.92464322 4294967295
2.2279999 -0.89966989 0.93714905 4294967295
2.2321665 -0.90652525 0.92239296 4294967295
2.2317498 0.50118369 0.89383829 4294967295
2.233222 -0.91270465 0.89436775 4294967295
2.2339089 0.49711671 0.86427653 4294967295
2.231421 -0.90553951 0.86529803 4294967295
2.23 0.49583662 0.8379128 4294967295
2.2342501 -0.91644931 0.8346231 4294967295
2.2319999 0.49606475 0.8032577 4294967295
2.2320585 -0.91972893 0.80508411 4294967295
2.2328179 0.49734291 0.77603889 4294967295
2.2304614 -0.92076212 0.77559614 4294967295
2.2327776 0.5014174 0.7429108 4294967295
2.2333999 -0.91583782 0.74383676 4294967295
2.2298748 0.49968708 0.71696293 4294967295
2.2324615 -0.9092322 0.71523726 4294967295
2.243 0.975559 0.67714596 4294967295
2.2279999 0.49862969 0.68642908 4294967295
2.2309999 -0.89569724 0.67630756 4294967295
2.231375 -0.90426368 0.6905691 4294967295
2.2290001 0.94103622 0.65548658 4294967295
2.2333333 0.4998233 0.65574491 4294967295
2.2311249 -0.86598432 0.65042853 4294967295
2.2290001 -0.88139182 0.66496682 4294967295
2.2296665 0.91627836 0.63048786 4294967295
2.2273333 0.49848053 0.62438357 4294967295
2.23 -0.86685359 0.63743263 4294967295
2.2310002 -0.87833172 0.62268859 4294967295
2.2219999 0.49728686 0.60607886 4294967295
2.224 -0.8903262 0.59325385 4294967295
2.2319999 -0.90647298 0.5831601 4294967295
2.2275999 -0.91863769 0.56701064 4294967295
2.2275712 0.50000668 0.5354045 4294967295
2.2260001 -0.92727512 0.54942209 4294967295
2.23175 -0.93225038 0.53656662 4294967295
2.2346666 0.50530642 0.50545108 4294967295
2.234 -0.9357909 0.50028688 4294967295
2.2287142 0.51724213 0.46302798 4294967295
2.234 0.50736648 0.47844511 4294967295
2.2309167 -0.93621337 0.4722755 4294967295
2.2219999 0.548841 0.44110543 4294967295
2.2384999 0.52952731 0.4561007 4294967295
2.2333 -0.92252994 0.43811142 4294967295
2.2292857 -0.93380457 0.45267466 4294967295
2.2363331 0.54718733 0.41638088 4294967295
2.2346361 0.52461535 0.41474596 4294967295
2.2306924 0.49723995 0.4113476 4294967295
2.2384 0.46977738 0.40416884 4294967295
2.2367499 0.010174054 0.40425423 4294967295
2.2390001 -0.0080073057 0.40413779 4294967295
2.23 -0.8906464 0.40667498 4294967295
2.2321429 -0.90984201 0.4192867 4294967295
2.2219999 0.45604351 0.39986208 4294967295
2.2290001 0.43677038 0.39948362 4294967295
2.2289999 0.40187615 0.39431196 4294967295
2.2274001 0.37341452 0.39544207 4294967295
2.2379999 0.3450914 0.39899701 4294967295
2.2346666 0.31605712 0.39917722 4294967295
2.2413332 0.28318897 0.39881679 4294967295
2.2449999 0.25241271 0.39861852 4294967295
2.2233334 0.19580609 0.39463148 4294967295
2.2319996 0.16549377 0.39414278 4294967295
2.2316668 0.13444296 0.39158386 4294967295
2.233 0.10339355 0.39236793 4294967295
2.2350001 0.074955881 0.3970952 4294967295
2.2306669 0.046384085 0.3993935 4294967295
2.2219999 0.025566017 0.39986208 4294967295
2.2219999 -0.028565882 0.39986208 4294967295
2.2327499 -0.04294239 0.39799201 4294967295
2.23 -0.075245693 0.39425558 4294967295
2.2426665 -0.10429124 0.39354134 4294967295
2.23 -0.1373446 0.3890816 4294967295
2.2436666 -0.16244991 0.38827926 4294967295
2.2414 -0.1952388 0.38841233 4294967295
2.2335 -0.22046483 0.38629839 4294967295
2.2291999 -0.2531015 0.38912857 4294967295
2.2318332 -0.28498873 0.39415216 4294967295
2.2286665 -0.31564972 0.39433074 4294967295
2.2314999 -0.34704673 0.39159328 4294967295
2.2305 -0.37800965 0.38819301 4294967295
2.23475 -0.40595645 0.3836177 4294967295
2.2311666 -0.43502679 0.38383639 4294967295
2.2354 -0.4695738 0.38876456 4294967295
2.234 -0.49521366 0.38884676 4294967295
2.2423332 -0.52568138 0.38835752 4294967295
2.2219999 -0.55570745 0.38439584 4294967295
2.2449999 -0.58880574 0.38820097 4294967295
2.2365716 -0.61511505 0.38869578 4294967295
2.2260001 -0.64579898 0.38931641 4294967295
2.2219999 -0.67557096 0.38955125 4294967295
2.2308002 -0.70673412 0.38903463 4294967295
2.2316668 -0.73543537 0.386406 4294967295
2.2219999 -0.79414564 0.38439584 4294967295
2.2336667 -0.82419831 0.38886631 4294967295
2.2331429 -0.85622847 0.39556426 4294967295
2.2259998 -0.87304109 0.39964581 4294967295
2.2650001 -0.90673488 1.7849064 4294967295
2.2670002 -0.91279536 1.7518321 4294967295
2.2700002 -0.91224313 1.7323865 4294967295
2.263 -0.89805144 1.6918979 4294967295
2.2620001 -0.90552229 1.7074987 4294967295
2.2610002 -0.89238685 1.6754996 4294967295
2.2641666 -0.89326143 1.6478611 4294967295
2.276 -0.90057701 1.6379088 4294967295
2.257 -0.89829564 1.6233399 4294967295
2.2635715 -0.90315139 1.612296 4294967295
2.2659001 -0.91550606 1.5861492 4294967295
2.276 -0.93226129 1.5745404 4294967295
2.253 -0.92806768 1.5638838 4294967295
2.2700002 -0.93419033 1.5533198 4294967295
2.2635 -0.92450202 1.5240916 4294967295
2.2627501 -0.91500926 1.4942226 4294967295
2.2637501 -0.90819383 1.4611864 4294967295
2.257 0.51035649 1.4243482 4294967295
2.2665 0.50460559 1.4255145 4294967295
2.2610002 -0.89725775 1.4285624 4294967295
2.2646668 -0.90132928 1.4414054 4294967295
2.2550001 0.49420375 1.4026096 4294967295
2.2636669 -0.89744246 1.4112694 4294967295
2.2678001 -0.90363634 1.3992178 4294967295
2.257 0.48417345 1.3876919 4294967295
2.2690001 0.47621876 1.3870407 4294967295
2.2630911 -0.91169006 1.3728454 4294967295
2.2653847 -0.9109152 1.343595 4294967295
2.2617002 -0.90750474 1.3144472 4294967295
2.2576153 0.52943808 1.2815518 4294967295
2.2628999 -0.91271275 1.2833697 4294967295
2.2623158 0.52428603 1.2585108 4294967295
2.2648001 0.49214691 1.2519661 4294967295
2.2649999 -0.91460544 1.2558841 4294967295
2.253 0.52774775 1.2371747 4294967295
2.2614286 0.50235891 1.2282304 4294967295
2.257 -0.89829564 1.2175015 4294967295
2.2660003 -0.90319151 1.2281715 4294967295
2.2690001 0.61309487 1.1817265 4294967295
2.257 0.58890587 1.1834635 4294967295
2.2665715 0.50650758 1.1967745 4294967295
2.2673335 -0.90503561 1.194388 4294967295
2.2670002 0.60466242 1.1758834 4294967295
2.2550001 0.59100235 1.1750252 4294967295
2.2618003 0.49778774 1.1701748 4294967295
2.2639 -0.91311717 1.1628828 4294967295
2.2693334 0.48681924 1.1370513 4294967295
2.2652223 -0.9126544 1.1362395 4294967295
2.276 0.48824933 1.0939959 4294967295
2.2642999 -0.90539306 1.1067985 4294967295
2.2683334 0.48834714 1.0780694 4294967295
2.2614448 -0.90763479 1.075748 4294967295
2.2637274 0.49133435 1.0441083 4294967295
2.2610002 -0.90302777 1.0435255 4294967295
2.2694001 0.48998663 1.013871 4294967295
2.2656367 -0.90411061 1.0163468 4294967295
2.2666669 0.49500194 0.98383069 4294967295
2.2655716 -0.9024539 0.98622644 4294967295
2.2648573 0.50537187 0.95680612 4294967295
2.2655003 -0.90254986 0.95293045 4294967295
2.2686667 0.50597066 0.92633092 4294967295
2.26475 -0.91122699 0.92497742 4294967295
2.2626002 0.50007069 0.89533335 4294967295
2.2666001 -0.91209644 0.89651799 4294967295
2.2688003 0.49723279 0.86584008 4294967295
2.2661998 -0.90773541 0.86647183 4294967295
2.2623334 0.49581555 0.83597279 4294967295
2.2627144 -0.92006934 0.8371349 4294967295
2.273 0.4981533 0.80580544 4294967295
2.2670002 -0.92331511 0.80506331 4294967295
2.253 0.49899739 0.76410007 4294967295
2.26475 -0.92633307 0.7824502 4294967295
2.2686667 0.50246722 0.74734986 4294967295
2.2648335 -0.91980231 0.7443707 4294967295
2.2608001 0.50072485 0.71671766 4294967295
2.2662501 -0.91380018 0.71820855 4294967295
2.2536666 0.49914503 0.68312067 4294967295
2.2610002 -0.89200723 0.67578185 4294967295
2.2678335 -0.90609992 0.6902808 4294967295
2.2690001 0.96054971 0.65527982 4294967295
2.2650001 0.95097363 0.6471585 4294967295
2.2656002 0.50178802 0.65505385 4294967295
2.257 -0.87473083 0.66241926 4294967295
2.263 0.93963975 0.63655216 4294967295
2.2627501 0.92245686 0.620767 4294967295
2.276 0.50409138 0.63985503 4294967295
2.2637501 -0.88259542 0.62870598 4294967295
2.2550001 -0.91058189 0.58381099 4294967295
2.2616 0.50090206 0.56566334 4294967295
2.2550001 -0.92104125 0.57335168 4294967295
2.2705002 -0.93527639 0.55790579 4294967295
2.2578001 0.50110775 0.53830701 4294967295
2.2657502 -0.94251347 0.53287572 4294967295
2.2715001 0.50836504 0.51048487 4294967295
2.261667 -0.94213259 0.50530642 4294967295
2.257 0.51035649 0.46080923 4294967295
2.2683334 0.50939876 0.46753517 4294967295
2.2637501 -0.94102216 0.47243926 4294967295
2.2616 0.55653656 0.4407379 4294967295
2.2658825 0.51947951 0.44479966 4294967295
2.2725 0.50858885 0.43668014 4294967295
2.2623336 -0.926651 0.439661 4294967295
2.2662001 -0.93454176 0.45109934 4294967295
2.2695 0.55529702 0.42230588 4294967295
2.2622726 0.52349353 0.42488423 4294967295
2.2630908 0.49741808 0.4186582 4294967295
2.2583334 0.4617829 0.40489218 4294967295
2.2673333 0.44429067 0.40267164 4294967295
2.276 0.34038949 0.40222314 4294967295
2.276 0.32190704 0.40222314 4294967295
2.2640002 0.04445564 0.40284413 4294967295
2.253 0.025922701 0.40341333 4294967295
2.2583334 -0.023802547 0.40313736 4294967295
2.276 -0.034540813 0.40222314 4294967295
2.2616 -0.88961607 0.40506667 4294967295
2.2653334 -0.91649234 0.42116866 4294967295
2.2550001 0.42357427 0.39807785 4294967295
2.2723334 0.40836275 0.39714068 4294967295
2.2579999 0.377 0.39791566 4294967295
2.2536666 0.22462438 0.39814994 4294967295
2.2700002 0.19463849 0.39726683 4294967295
2.2596667 0.12822805 0.39258271 4294967295
2.2633333 0.10739296 0.39413619 4294967295
2.2610002 0.08372435 0.39775345 4294967295
2.257 -0.055198964 0.39796972 4294967295
2.27075 -0.068712652 0.3972263 4294967295
2.2636669 -0.1289006 0.39235717 4294967295
2.253 -0.16748905 0.38773131 4294967295
2.2540002 -0.22508854 0.3876726 4294967295
2.2639999 -0.26020503 0.3923384 4294967295
2.2667501 -0.28945619 0.39744255 4294967295
2.2642002 -0.31279936 0.39758044 4294967295
2.2576003 -0.34640899 0.39375538 4294967295
2.266 -0.3761417 0.39222562 4294967295
2.2610002 -0.39890826 0.38726163 4294967295
2.2670002 -0.44729835 0.3869094 4294967295
2.2610002 -0.45660394 0.38726163 4294967295
2.276 -0.48340103 0.39166173 4294967295
2.2546 -0.55732727 0.38763738 4294967295
2.253 -0.57522196 0.38773131 4294967295
2.27075 -0.64823854 0.39195776 4294967295
2.2655716 -0.67566121 0.39224976 4294967295
2.2642 -0.70680475 0.3923271 4294967295
2.276 -0.72631365 0.39166173 4294967295
2.2667501 -0.76677394 0.38692406 4294967295
2.2654002 -0.79647577 0.3870033 4294967295
2.2657502 -0.82951123 0.39093286 4294967295
2.2593999 -0.8552224 0.39574718 4294967295
2.3050001 -0.91739988 1.8072448 4294967295
2.2979999 -0.9178046 1.7606616 4294967295
2.2939 -0.91243094 1.7344882 4294967295
2.2985001 -0.89701867 1.6960489 4294967295
2.2922001 -0.90271515 1.7086102 4294967295
2.2872002 -0.89439529 1.6752335 4294967295
2.309 -0.90292007 1.6701894 4294967295
2.2839999 -0.89844316 1.6524367 4294967295
2.2939999 -0.9044947 1.6435645 4294967295
2.2967999 -0.91093367 1.6145353 4294967295
2.2923999 -0.9219529 1.5917069 4294967295
2.2939999 -0.93536556 1.5786238 4294967295
2.3025 -0.92975277 1.5414023 4294967295
2.2957141 -0.93652493 1.5555223 4294967295
2.2941113 -0.92428088 1.5261339 4294967295
2.2918 -0.91691834 1.4962349 4294967295
2.2930999 -0.90892148 1.465934 4294967295
2.3070002 0.51363128 1.4470565 4294967295
2.2826664 -0.8979187 1.4293363 4294967295
2.2978332 -0.90208936 1.4424548 4294967295
2.3050001 0.49447045 1.4114933 4294967295
2.309 0.47925672 1.4023257 4294967295
2.2839999 -0.89844316 1.4192688 4294967295
2.294909 -0.90756345 1.4032271 4294967295
2.2938333 -0.91175169 1.3731571 4294967295
2.2950003 -0.90772188 1.34584 4294967295
2.2919168 -0.91085249 1.31602 4294967295
2.2839999 0.54295814 1.2867872 4294967295
2.2944999 0.48689434 1.28231 4294967295
2.28 0.47588244 1.2933793 4294967295
2.2954168 -0.91623747 1.2852678 4294967295
2.286 0.53812963 1.2582941 4294967295
2.2934287 0.49654397 1.254216 4294967295
2.2943001 -0.91313052 1.2556448 4294967295
2.2928336 0.5060389 1.2232648 4294967295
2.2941668 -0.90776527 1.2236412 4294967295
2.2880001 0.61292022 1.1899265 4294967295
2.293 0.50572532 1.1940492 4294967295
2.3 -0.91451699 1.1934246 4294967295
2.296 0.49786687 1.1789465 4294967295
2.2963636 -0.91734242 1.1669229 4294967295
2.296 0.48721263 1.1203482 4294967295
2.2933638 -0.91178942 1.1341717 4294967295
2.2896664 0.48939535 1.1098531 4294967295
2.2963336 -0.91039008 1.1008863 4294967295
2.2819998 0.48953643 1.0716786 4294967295
2.2942998 -0.91047043 1.0746632 4294967295
2.2857997 0.48928016 1.0402186 4294967295
2.2964544 -0.90671635 1.0473104 4294967295
2.2985001 0.48862481 1.0170022 4294967295
2.2946665 -0.90796316 1.0161813 4294967295
2.2952309 0.49195212 0.98413932 4294967295
2.2906666 -0.90638041 0.98343265 4294967295
2.2919166 0.50317276 0.95620227 4294967295
2.2921667 -0.90785706 0.95270014 4294967295
2.2977142 0.5058434 0.92656708 4294967295
2.2931249 -0.91665494 0.92473936 4294967295
2.2950001 0.50118899 0.89376152 4294967295
2.2952728 -0.91158223 0.89504278 4294967295
2.3040001 0.49960163 0.86585569 4294967295
2.297375 -0.91502869 0.86284322 4294967295
2.2974999 0.4981921 0.83554518 4294967295
2.2957273 -0.92677176 0.83409405 4294967295
2.309 0.50068575 0.81302559 4294967295
2.2956002 -0.92749709 0.80546385 4294967295
2.2888334 0.50162327 0.7759124 4294967295
2.28 -0.92860967 0.76173544 4294967295
2.2952857 -0.93254066 0.77476102 4294967295
2.309 0.50604302 0.75677419 4294967295
2.2927144 -0.92314214 0.7433219 4294967295
2.2947998 0.50293094 0.71541858 4294967295
2.2941666 -0.91751963 0.71266854 4294967295
2.2839999 0.9933961 0.6773712 4294967295
2.28 0.98107636 0.67180562 4294967295
2.2853334 0.50085616 0.68540889 4294967295
2.2944999 -0.8919118 0.6754328 4294967295
2.2946668 -0.90796006 0.6887511 4294967295
2.2940001 0.97110432 0.65353692 4294967295
2.302 0.50450891 0.66257519 4294967295
2.2880001 -0.87984043 0.6564033 4294967295
2.309 0.96141136 0.63623554 4294967295
2.30075 0.94462132 0.62246537 4294967295
2.2855999 0.50621766 0.62443495 4294967295
2.29 -0.88751346 0.63262945 4294967295
2.2839999 0.91920632 0.60848069 4294967295
2.2809999 0.50519878 0.60042948 4294967295
2.2920001 -0.90690798 0.59815496 4294967295
2.3004999 0.50418013 0.5530808 4294967295
2.2963333 -0.94236565 0.55922252 4294967295
2.2921665 0.50412178 0.53345066 4294967295
2.2995 -0.9525575 0.53171682 4294967295
2.2944999 0.51083612 0.50513232 4294967295
2.2932856 -0.94921786 0.50319111 4294967295
2.2929997 0.51088208 0.47353622 4294967295
2.2927778 -0.94621748 0.47583783 4294967295
2.28 0.57374716 0.43904608 4294967295
2.2977142 0.55078804 0.44219965 4294967295
2.2878001 0.52314281 0.44515586 4294967295
2.2948332 0.50648189 0.43941036 4294967295
2.29125 -0.92786103 0.43598482 4294967295
2.2994287 -0.93803805 0.45055437 4294967295
2.2965 0.55303597 0.42248508 4294967295
2.2839999 0.53765887 0.42830551 4294967295
2.2932222 0.49429679 0.41907299 4294967295
2.2939999 0.4654617 0.40661418 4294967295
2.302 0.43506238 0.40087771 4294967295
2.2972 0.37556869 0.40112609 4294967295
2.28 0.3542127 0.40201616 4294967295
2.2853334 0.30465952 0.40174016 4294967295
2.302 0.28283441 0.40087771 4294967295
2.3082001 0.25416306 0.40055689 4294967295
2.309 0.23282208 0.4005155 4294967295
2.2881999 0.071483105 0.40159184 4294967295
2.3066001 0.045275953 0.40599138 4294967295
2.2853334 0.015705463 0.40704253 4294967295
2.2906666 -0.0081989877 0.40677893 4294967295
2.3025 -0.04296381 0.40085185 4294967295
2.3070002 -0.29461169 0.40061897 4294967295
2.3080001 -0.31081003 0.40056723 4294967295
2.2951429 -0.88683057 0.40351462 4294967295
2.2908332 -0.91794974 0.42005327 4294967295
2.28 0.40446758 0.39672616 4294967295
2.2833335 0.1639978 0.39654595 4294967295
2.3033335 0.14139049 0.3954646 4294967295
2.2976668 0.10374589 0.39577097 4294967295
2.28 -0.084856406 0.39672616 4294967295
2.2946 -0.10405466 0.39593679 4294967295
2.2949998 -0.13597004 0.39237303 4294967295
2.3033333 -0.16322549 0.39012045 4294967295
2.2895999 -0.19412251 0.39089486 4294967295
2.3033333 -0.22468606 0.39012045 4294967295
2.2952499 -0.25585413 0.39324504 4294967295
2.2880001 -0.27625734 0.39629364 4294967295
2.2955 -0.34643045 0.39588812 4294967295
2.3016 -0.37345797 0.39449847 4294967295
2.2870002 -0.40612066 0.38839647 4294967295
2.2824001 -0.43179914 0.38600528 4294967295
2.2985001 -0.46414205 0.39039302 4294967295
2.28 -0.49747556 0.39143616 4294967295
2.2866666 -0.52547753 0.39106026 4294967295
2.3013999 -0.55822361 0.39022946 4294967295
2.3005002 -0.58733368 0.39028025 4294967295
2.2906666 -0.61670399 0.39083469 4294967295
2.28 -0.63501531 0.39143616 4294967295
2.2813332 -0.73860484 0.391361 4294967295
2.299 -0.76033688 0.39036483 4294967295
2.28 -0.79106998 0.38614619 4294967295
2.2943332 -0.81995666 0.39062798 4294967295
2.2956002 -0.85504138 0.39588273 4294967295
2.3309999 -0.92233962 1.8163517 4294967295
2.3284285 -0.92053497 1.7936867 4294967295
2.3264117 -0.9166944 1.7671125 4294967295
2.3369999 -0.8976025 1.7248039 4294967295
2.3261766 -0.9083479 1.7365154 4294967295
2.3303335 -0.89804095 1.7066441 4294967295
2.3249998 -0.90107584 1.7023878 4294967295
2.313 -0.89911765 1.6855983 4294967295
2.3281999 -0.90609777 1.6721847 4294967295
2.3276668 -0.90984386 1.6434795 4294967295
2.3296316 -0.91638219 1.614458 4294967295
2.3309999 -0.92593122 1.5891713 4294967295
2.3281302 -0.93645 1.5838866 4294967295
2.3316667 -0.92367548 1.5534474 4294967295
2.3215001 -0.93405819 1.5599396 4294967295
2.3280585 -0.92115724 1.5249345 4294967295
2.3276668 -0.91379976 1.4949603 4294967295
2.329 0.51906103 1.4575187 4294967295
2.3266001 -0.9054665 1.4637353 4294967295
2.3169999 0.50779629 1.4430135 4294967295
2.3266001 -0.90547389 1.4333463 4294967295
2.3269999 0.49376765 1.4172909 4294967295
2.326647 -0.90821677 1.4042946 4294967295
2.3325002 -0.89790052 1.3714001 4294967295
2.3232501 -0.90578192 1.3784628 4294967295
2.3329999 -0.89786744 1.3510458 4294967295
2.3247647 -0.90431231 1.3426477 4294967295
2.3247893 -0.91191649 1.3149524 4294967295
2.3309999 0.49463966 1.2782171 4294967295
2.3280585 -0.91575891 1.2853653 4294967295
2.3269999 0.50188702 1.252624 4294967295
2.3271539 -0.91208231 1.2555799 4294967295
2.3285556 0.50791889 1.2248962 4294967295
2.3281112 -0.91459101 1.2277584 4294967295
2.3232858 0.50377554 1.1975557 4294967295
2.3279092 -0.9186545 1.1949699 4294967295
2.3301113 -0.91656774 1.1638043 4294967295
2.3278236 -0.90931028 1.1347005 4294967295
2.327667 0.49393237 1.1043179 4294967295
2.3272221 -0.91003072 1.1059957 4294967295
2.3274 0.49387577 1.0745702 4294967295
2.3274 -0.910101 1.0763571 4294967295
2.3255 0.49076489 1.0444162 4294967295
2.3293078 -0.9087736 1.0446641 4294967295
2.3295712 0.48738232 1.0117509 4294967295
2.3256154 -0.91148204 1.0156032 4294967295
2.3286924 0.48832208 0.98384285 4294967295
2.3246365 -0.9109835 0.98366946 4294967295
2.326333 0.49843198 0.95585096 4294967295
2.3273156 -0.91063255 0.95431072 4294967295
2.3303335 0.50350046 0.92656398 4294967295
2.3277199 -0.91497046 0.92470938 4294967295
2.3267779 0.50093412 0.8962543 4294967295
2.3257501 -0.90945375 0.89608753 4294967295
2.329 0.49961895 0.86419678 4294967295
2.3267775 -0.91555721 0.86536014 4294967295
2.3316667 0.50019091 0.83483046 4294967295
2.3297999 -0.92617911 0.83548057 4294967295
2.325 -0.93075436 0.83393645 4294967295
2.3263333 0.50173318 0.80264604 4294967295
2.3298001 -0.92725933 0.81079173 4294967295
2.325 -0.93164098 0.7970717 4294967295
2.329 0.50285369 0.7771948 4294967295
2.3292353 -0.9346602 0.77522051 4294967295
2.3232222 0.50615692 0.74356228 4294967295
2.3283846 -0.92420012 0.74359584 4294967295
2.3210001 -0.93183631 0.7553122 4294967295
2.3274 0.50250858 0.71331006 4294967295
2.3260667 -0.92073351 0.7162509 4294967295
2.3369999 1.0218699 0.67288959 4294967295
2.3289998 1.0111762 0.67326069 4294967295
2.3231819 0.50081092 0.68397892 4294967295
2.3309999 -0.89529109 0.67654753 4294967295
2.3263333 -0.90968263 0.69108403 4294967295
2.3369999 1.0218699 0.6430673 4294967295
2.3332222 1.002177 0.65307939 4294967295
2.323 0.98340523 0.64770359 4294967295
2.329 0.51042622 0.64264601 4294967295
2.3266001 0.50665802 0.65871769 4294967295
2.3233998 -0.88913673 0.6574443 4294967295
2.3369999 1.0010847 0.63131911 4294967295
2.3346667 0.97616339 0.62849671 4294967295
2.3329999 0.94975251 0.61037892 4294967295
2.3336666 0.51144898 0.62393248 4294967295
2.3169999 -0.90604836 0.62051076 4294967295
2.323 0.93758994 0.60728967 4294967295
2.3369999 0.51217949 0.60240054 4294967295
2.3329999 -0.92854393 0.58872706 4294967295
2.335 0.95327777 0.5671156 4294967295
2.3329999 0.51130289 0.57519931 4294967295
2.3249998 0.50684541 0.55881298 4294967295
2.329 -0.95216286 0.55619335 4294967295
2.326 0.50166017 0.53365386 4294967295
2.3281109 -0.95660001 0.53455967 4294967295
2.3245556 0.51184142 0.50098366 4294967295
2.3323333 0.50573921 0.51293838 4294967295
2.3285556 -0.95287317 0.50485772 4294967295
2.3263333 0.51163375 0.4796772 4294967295
2.3329999 0.50723851 0.46829572 4294967295
2.3300524 -0.94584644 0.47312093 4294967295
2.319 0.56024277 0.4358663 4294967295
2.3276663 0.50291777 0.44545811 4294967295
2.3325999 -0.92621315 0.4404355 4294967295
2.32675 -0.93549204 0.45089769 4294967295
2.3183334 0.56188405 0.42692715 4294967295
2.3253999 0.49075139 0.4201813 4294967295
2.3280001 0.46767169 0.41101858 4294967295
2.329 0.43837106 0.40398824 4294967295
2.3276665 0.39491749 0.40316129 4294967295
2.3295 0.37135983 0.40689284 4294967295
2.323 0.34471217 0.40788728 4294967295
2.325 0.31713295 0.40628585 4294967295
2.3354001 0.28424519 0.4045679 4294967295
