# .PCD v0.7 - Point Cloud Data file format
VERSION 0.7
FIELDS x y z rgb
SIZE 4 4 4 4
TYPE F F F U
COUNT 1 1 1 1
WIDTH 1116
HEIGHT 1
VIEWPOINT 0 0 0 1 0 0 0
POINTS 1116
DATA ascii
1.7324002 -0.13642493 0.066995233 4294967295
1.7290001 -0.16583672 0.059862614 4294967295
1.7294 -0.19756044 0.057351232 4294967295
1.7272856 -0.21341611 0.06593287 4294967295
1.7260001 -0.3766951 0.065325528 4294967295
1.725105 -0.40366229 0.058092237 4294967295
1.733889 -0.4357416 0.057039559 4294967295
1.72975 -0.46269646 0.06628713 4294967295
1.724 -0.56101459 0.069082975 4294967295
1.7304001 -0.58513224 0.069122344 4294967295
1.7286251 -0.61380422 0.0665811 4294967295
1.7301818 -0.64664149 0.06663081 4294967295
1.7322 -0.66932005 0.068653345 4294967295
1.7285556 -0.70935768 0.068271428 4294967295
1.7301364 -0.73712385 0.064282477 4294967295
1.7307417 -0.76564097 0.063091725 4294967295
1.7315184 -0.79493797 0.063193321 4294967295
1.7306429 -0.81957781 0.065624505 4294967295
1.7273334 0.80648178 0.024079859 4294967295
1.7267499 0.81427658 -0.0073755383 4294967295
1.735 0.80828434 0.0061972141 4294967295
1.73375 0.81239706 -0.022255123 4294967295
1.7268751 0.79414886 -0.028116524 4294967295
1.7265713 0.76581079 -0.039759696 4294967295
1.7308 0.75840956 -0.1273365 4294967295
1.761893 -0.89015114 1.4960451 4294967295
1.7538835 -0.9111374 1.4900886 4294967295
1.7524667 -0.91096663 1.4660454 4294967295
1.7525499 -0.92063046 1.4353603 4294967295
1.7518002 -0.92206132 1.4052041 4294967295
1.7516999 -0.92204958 1.3757679 4294967295
1.7539666 -0.92025661 1.3451215 4294967295
1.7535428 -0.92096168 1.3145448 4294967295
1.7529169 -0.92222732 1.2840353 4294967295
1.7511085 -0.91604149 1.2554545 4294967295
1.7512918 -0.91439074 1.2257634 4294967295
1.7507693 -0.92052454 1.1936849 4294967295
1.748 0.5250417 1.1514529 4294967295
1.7619165 -0.8916685 1.1557977 4294967295
1.7518623 -0.91803324 1.1644101 4294967295
1.7410001 -0.93125105 1.1630621 4294967295
1.7497499 0.51642239 1.1439645 4294967295
1.7523333 0.50600618 1.1326811 4294967295
1.7585555 -0.89484715 1.1461906 4294967295
1.7504328 -0.91449362 1.1361387 4294967295
1.7410001 -0.93125105 1.1489242 4294967295
1.7500005 -0.91485071 1.1053784 4294967295
1.7510813 -0.9201448 1.0753645 4294967295
1.7511253 -0.91073531 1.044261 4294967295
1.7690001 0.52314067 1.0030725 4294967295
1.7500747 -0.91192007 1.0143387 4294967295
1.7511111 0.51739073 0.99277574 4294967295
1.7542857 0.50539684 0.97868288 4294967295
1.7594544 -0.89658362 0.97745693 4294967295
1.749314 -0.91107732 0.98512399 4294967295
1.7536362 0.50046217 0.95744026 4294967295
1.7627499 -0.89789104 0.96762234 4294967295
1.7545081 -0.91608751 0.9568224 4294967295
1.766 0.50176638 0.91210997 4294967295
1.7524 -0.91810876 0.92524517 4294967295
1.7485 0.50287074 0.8919878 4294967295
1.7519262 -0.92051607 0.89587593 4294967295
1.7690001 0.50261873 0.86352348 4294967295
1.7526085 -0.92648119 0.86580628 4294967295
1.7546667 0.48858085 0.82862866 4294967295
1.7543159 -0.92100155 0.83495915 4294967295
1.7435 0.8129226 0.79182374 4294967295
1.7496225 0.79351377 0.80264926 4294967295
1.7498825 0.48929393 0.80416471 4294967295
1.7512858 -0.91796714 0.80571413 4294967295
1.7523588 0.82114279 0.7755239 4294967295
1.7608333 0.8060165 0.78703666 4294967295
1.7534616 0.49224836 0.77476239 4294967295
1.7514285 -0.92127836 0.77403849 4294967295
1.750625 0.82283056 0.7538411 4294967295
1.7528571 0.49221286 0.75290018 4294967295
1.7526001 -0.91563934 0.74549609 4294967295
1.7410001 0.49466321 0.72882485 4294967295
1.7525791 -0.91859615 0.71587366 4294967295
1.7518889 -0.92486328 0.68450344 4294967295
1.766 0.49357152 0.64168018 4294967295
1.7516667 -0.8990202 0.64204603 4294967295
1.7511725 -0.91004878 0.65522832 4294967295
1.7435001 0.78325528 0.61450708 4294967295
1.7485 0.77873898 0.61410099 4294967295
1.7503333 0.49486342 0.62543643 4294967295
1.7538573 -0.89858854 0.632119 4294967295
1.7496488 -0.90676862 0.62211698 4294967295
1.7550646 0.79561263 0.59547508 4294967295
1.7492858 0.49498084 0.59589291 4294967295
1.7505119 -0.91099346 0.59631288 4294967295
1.7556 0.81284523 0.5603286 4294967295
1.7484444 0.80868357 0.57331222 4294967295
1.7473751 0.49444148 0.56538594 4294967295
1.7520715 -0.91116679 0.56551242 4294967295
1.7551429 0.81427032 0.5350579 4294967295
1.753706 0.49730048 0.53360462 4294967295
1.7517201 -0.91680562 0.53291178 4294967295
1.7551874 0.81429064 0.50450784 4294967295
1.7519547 0.49517274 0.50417387 4294967295
1.7489617 -0.91027093 0.50331479 4294967295
1.75175 0.81269318 0.47372144 4294967295
1.75 0.80986333 0.46192461 4294967295
1.7526999 0.49654838 0.47382739 4294967295
1.7503999 -0.91350412 0.47500378 4294967295
1.757 0.81172234 0.45625305 4294967295
1.7486875 0.80899125 0.44497395 4294967295
1.7502668 0.49890801 0.4443171 4294967295
1.7510002 -0.91388112 0.44606075 4294967295
1.7639999 0.81224948 0.42257628 4294967295
1.75 0.80884302 0.42640048 4294967295
1.749591 0.49045086 0.41526183 4294967295
1.7521515 -0.91304517 0.41479293 4294967295
1.7482001 0.80902201 0.3759979 4294967295
1.7518333 0.49366534 0.38700891 4294967295
1.7523335 -0.91269177 0.38382339 4294967295
1.7507999 0.81224889 0.35261896 4294967295
1.7472501 0.80960059 0.36471546 4294967295
1.7472501 0.49643901 0.36269748 4294967295
1.766 -0.89955175 0.3425684 4294967295
1.7525183 -0.90936172 0.35589921 4294967295
1.7614999 0.81312275 0.33177352 4294967295
1.7410001 0.8097378 0.32690281 4294967295
1.766 -0.89955175 0.338471 4294967295
1.7547742 -0.9082517 0.32702434 4294967295
1.7410001 -0.89893574 0.28044951 4294967295
1.7493 -0.91051036 0.29390621 4294967295
1.7515454 0.51243007 0.26053631 4294967295
1.7472 -0.89889193 0.26500627 4294967295
1.7526875 -0.90797621 0.25700554 4294967295
1.7549999 0.51303065 0.23530537 4294967295
1.752 0.50998342 0.24641648 4294967295
1.7558571 -0.9222886 0.24639818 4294967295
1.7550645 -0.94886726 0.23646092 4294967295
1.7508183 -0.96787494 0.22720596 4294967295
1.7503999 0.51926029 0.2023882 4294967295
1.7648181 -0.95776135 0.20830286 4294967295
1.7545073 -0.97453105 0.20482025 4294967295
1.7442501 -0.99318451 0.19602752 4294967295
1.7690001 0.81455189 0.16577858 4294967295
1.7448571 0.80979156 0.16829866 4294967295
1.7620908 0.54934198 0.17829615 4294967295
1.762417 0.5293557 0.17952338 4294967295
1.7648752 -0.92174971 0.16686642 4294967295
1.7653686 -0.9408415 0.16823334 4294967295
1.7630835 -0.98497611 0.18536869 4294967295
1.7548461 -0.99563915 0.1754978 4294967295
1.7657499 0.81305528 0.15209651 4294967295
1.746143 0.80922717 0.15298694 4294967295
1.7641428 -0.92052364 0.15139666 4294967295
1.7552989 -0.94416016 0.14441797 4294967295
1.7548237 -0.97466725 0.15055907 4294967295
1.75975 -0.99229395 0.15845278 4294967295
1.7470001 0.80711621 0.10939762 4294967295
1.7644377 0.57808137 0.10810959 4294967295
1.7598646 0.55376589 0.1080381 4294967295
1.7585196 0.52558416 0.11070716 4294967295
1.7610003 0.49884403 0.10673025 4294967295
1.7641877 0.46517402 0.10355854 4294967295
1.7665714 0.44337228 0.1024439 4294967295
1.7690001 0.35486099 0.10010844 4294967295
1.7685 0.10241313 0.10022715 4294967295
1.7690001 -0.33467519 0.10010844 4294967295
1.7616667 -0.92729479 0.10049567 4294967295
1.7525092 -0.94247115 0.11408257 4294967295
1.7690001 0.81044739 0.087795287 4294967295
1.7539999 0.80647421 0.089711368 4294967295
1.7525001 0.57451063 0.097253501 4294967295
1.7452354 0.55613387 0.095274061 4294967295
1.7430001 0.52280414 0.096722841 4294967295
1.7470952 0.49271613 0.095858455 4294967295
1.7483549 0.46481749 0.094817042 4294967295
1.7525483 0.43484011 0.093014449 4294967295
1.7540219 0.40368819 0.085473686 4294967295
1.755574 0.37509644 0.085003436 4294967295
1.7536175 0.34518182 0.088989943 4294967295
1.7580436 0.31443337 0.084740072 4294967295
1.7574596 0.28553596 0.078074038 4294967295
1.7558889 0.25569385 0.078233331 4294967295
1.7559689 0.22429112 0.077883691 4294967295
1.752643 0.19452824 0.08243525 4294967295
1.7522397 0.16383426 0.085347474 4294967295
1.7516454 0.13563453 0.086400837 4294967295
1.7516485 0.1044425 0.087550789 4294967295
1.7542127 0.076603517 0.084606558 4294967295
1.7536581 0.045659807 0.087290674 4294967295
1.7534163 0.013171226 0.090728402 4294967295
1.7519091 -0.014482193 0.085817009 4294967295
1.7572201 -0.045510184 0.081554145 4294967295
1.7523572 -0.075376078 0.085787416 4294967295
1.7539259 -0.10363801 0.08217001 4294967295
1.7610555 -0.12729542 0.074543059 4294967295
1.7595999 -0.20284659 0.07703948 4294967295
1.7532049 -0.22466803 0.08594808 4294967295
1.7501613 -0.25460562 0.086395055 4294967295
1.7529033 -0.28504261 0.090045661 4294967295
1.7548113 -0.31558177 0.090965599 4294967295
1.7552221 -0.34500363 0.087666541 4294967295
1.7543468 -0.37467647 0.081280768 4294967295
1.758647 -0.4042452 0.078102916 4294967295
1.7652695 -0.43714222 0.077213526 4294967295
1.7540001 -0.46472418 0.080498576 4294967295
1.752 -0.49352169 0.080697924 4294967295
1.7535003 -0.52497542 0.075837791 4294967295
1.7539618 -0.55642712 0.076622099 4294967295
1.7538385 -0.58552516 0.076558471 4294967295
1.7600623 -0.61143756 0.074420005 4294967295
1.76025 -0.64881641 0.07190308 4294967295
1.7553033 -0.67626488 0.076358169 4294967295
1.7561318 -0.70578867 0.078638256 4294967295
1.7521003 -0.73586166 0.078384012 4294967295
1.751 -0.76427686 0.080659389 4294967295
1.7511668 -0.79592806 0.080330074 4294967295
1.751359 -0.82435733 0.078802347 4294967295
1.753296 -0.85509276 0.084867746 4294967295
1.7521002 -0.88431889 0.090181649 4294967295
1.7528216 -0.91343635 0.094961494 4294967295
1.7410001 -0.93125105 0.098675728 4294967295
1.747 0.8074559 0.044527978 4294967295
1.7435714 0.27925599 0.068581671 4294967295
1.7445 0.25279862 0.065634757 4294967295
1.7447333 0.22451195 0.062558889 4294967295
1.7420001 0.207984 0.06812185 4294967295
1.7416668 -0.026431715 0.066188186 4294967295
1.7568836 -0.045272794 0.057390392 4294967295
1.7521034 -0.072966635 0.060382485 4294967295
1.7426001 -0.094371192 0.068370849 4294967295
1.7540767 -0.14121523 0.06734854 4294967295
1.7596154 -0.16567793 0.061213762 4294967295
1.7568334 -0.19453812 0.061792582 4294967295
1.7420001 -0.38817114 0.06812185 4294967295
1.747 -0.40676114 0.064030439 4294967295
1.756706 -0.43471727 0.062162369 4294967295
1.7477692 -0.45697775 0.065846592 4294967295
1.7472306 -0.61807632 0.067549288 4294967295
1.7493126 -0.64141923 0.068262756 4294967295
1.7410001 -0.81410795 0.066360384 4294967295
1.762 0.81132853 0.032271594 4294967295
1.7505001 0.80805689 0.023569077 4294967295
1.7531 0.81207758 -0.012000442 4294967295
1.7527999 0.80789047 -0.00042164326 4294967295
1.758 0.81286681 -0.024397254 4294967295
1.7490002 0.79843318 -0.032303452 4294967295
1.7465 0.77279198 -0.043463469 4294967295
1.7690001 0.76940358 -0.055858016 4294967295
1.7523333 0.76418394 -0.13377041 4294967295
1.7563334 0.75845939 -0.14476383 4294967295
1.79 -0.87992924 1.5140954 4294967295
1.7833 -0.88890564 1.4983046 4294967295
1.7868574 -0.90365511 1.487077 4294967295
1.7839546 -0.91640323 1.4656408 4294967295
1.786353 -0.92380196 1.433962 4294967295
1.7859411 -0.92383736 1.4059583 4294967295
1.7826471 -0.92504805 1.3743958 4294967295
1.7869999 -0.92310935 1.3435974 4294967295
1.7858237 -0.92377317 1.3137721 4294967295
1.7846665 -0.91988647 1.2855537 4294967295
1.7873847 -0.91713876 1.2556262 4294967295
1.7820001 -0.923316 1.2280521 4294967295
1.798 -0.93253833 1.2237468 4294967295
1.7843999 -0.92270392 1.1916368 4294967295
1.798 0.54006004 1.1736867 4294967295
1.7865 0.52209026 1.156033 4294967295
1.7843333 -0.8939777 1.1629183 4294967295
1.78 -0.91079473 1.1762265 4294967295
1.7763333 -0.89794445 1.1465745 4294967295
1.7846667 -0.91065776 1.1327116 4294967295
1.7860557 -0.91943139 1.1046348 4294967295
1.7844167 -0.92237967 1.0752456 4294967295
1.7833334 -0.91435075 1.0469724 4294967295
1.79 0.52103537 1.0046446 4294967295
1.7851999 -0.91283667 1.0136977 4294967295
1.7775 0.51121593 0.99095523 4294967295
1.7785001 0.50531793 0.97885019 4294967295
1.77975 -0.89777553 0.98277903 4294967295
1.7848572 -0.90262973 0.98904455 4294967295
1.79 0.50443226 0.95275521 4294967295
1.774 -0.89951074 0.96739399 4294967295
1.7838078 -0.91226822 0.95314205 4294967295
1.78385 -0.91753036 0.9261986 4294967295
1.781 0.50602823 0.90509307 4294967295
1.7830003 -0.92646986 0.8986547 4294967295
1.79325 -0.93319243 0.88695407 4294967295
1.7838181 -0.9342047 0.86488515 4294967295
1.7887499 0.49265957 0.83100748 4294967295
1.7879231 -0.92634308 0.83464622 4294967295
1.7895 -0.932262 0.84881079 4294967295
1.7848754 0.79389393 0.80319905 4294967295
1.7854 0.49401909 0.80209053 4294967295
1.7849001 -0.92697877 0.80201662 4294967295
1.7872999 0.82089096 0.77459818 4294967295
1.7817501 0.8059361 0.78745413 4294967295
1.788143 0.49561128 0.77597725 4294967295
1.7839233 -0.9265002 0.77566648 4294967295
1.7869999 0.83113229 0.75402606 4294967295
1.7945 0.49737328 0.75813735 4294967295
1.7833333 -0.92171073 0.74539328 4294967295
1.7833999 -0.92660636 0.71985674 4294967295
1.7866665 -0.93356973 0.70666212 4294967295
1.7826667 -0.92870712 0.67315316 4294967295
1.7928333 -0.93748546 0.68721592 4294967295
1.791 0.49640322 0.6434027 4294967295
1.7846154 -0.91316414 0.65633786 4294967295
1.7878002 0.49757963 0.62660599 4294967295
1.7863125 -0.9067781 0.62312973 4294967295
1.7858571 0.79418129 0.59021038 4294967295
1.7857144 0.49729523 0.59361672 4294967295
1.7857645 -0.91253185 0.59551328 4294967295
1.785091 0.81781095 0.56581128 4294967295
1.779778 0.49649519 0.56555909 4294967295
1.7868574 -0.91756737 0.56553441 4294967295
1.7854288 0.82211643 0.53530622 4294967295
1.7882859 0.49980006 0.53531945 4294967295
1.7841334 -0.92229736 0.53502107 4294967295
1.7884285 0.82349783 0.50629336 4294967295
1.7883751 0.49774528 0.50628859 4294967295
1.7840002 -0.91064101 0.50715762 4294967295
1.7845001 0.82044017 0.47360653 4294967295
1.7827142 0.49705431 0.47088331 4294967295
1.7852222 -0.91439492 0.47617286 4294967295
1.7818573 0.81633782 0.44433886 4294967295
1.7860768 0.5004456 0.44477868 4294967295
1.7857999 -0.91901886 0.44471392 4294967295
1.79 0.8200683 0.42321381 4294967295
1.7800001 0.49151838 0.41735107 4294967295
1.7862 -0.91756743 0.41541141 4294967295
1.7870001 0.81869388 0.37985969 4294967295
1.786 0.4975014 0.38614017 4294967295
1.7839998 -0.91243279 0.38650167 4294967295
1.78125 0.81657416 0.35550106 4294967295
1.7923332 0.50508982 0.36487228 4294967295
1.7820001 -0.8994326 0.34302932 4294967295
1.7848948 -0.9052397 0.35680795 4294967295
1.792143 0.82105011 0.32390383 4294967295
1.7835001 -0.89949059 0.3325268 4294967295
1.7847915 -0.90703744 0.32135111 4294967295
1.795 0.82235903 0.29799783 4294967295
1.7880834 -0.92392522 0.296785 4294967295
1.7945 0.52026874 0.25642595 4294967295
1.7861429 -0.91098756 0.26416895 4294967295
1.791 0.82052648 0.22370473 4294967295
1.7808461 0.51360488 0.2339904 4294967295
1.7878809 0.4973928 0.23222867 4294967295
1.7895162 0.46585599 0.22677478 4294967295
1.7901818 0.43744829 0.22498205 4294967295
1.797091 0.40787598 0.22421405 4294967295
1.798 0.15418087 0.22254667 4294967295
1.798 0.14583755 0.22254667 4294967295
1.7864166 -0.91822863 0.24242261 4294967295
1.7828126 -0.94713527 0.22971421 4294967295
1.774 0.81273812 0.21828514 4294967295
1.781607 0.51652777 0.20459375 4294967295
1.7899444 0.49573025 0.20466214 4294967295
1.7809179 0.46469045 0.20472157 4294967295
1.7857965 0.43433523 0.20469564 4294967295
1.7936243 0.40557796 0.2045424 4294967295
1.7936662 0.37616315 0.20479748 4294967295
1.7927902 0.34507021 0.20422843 4294967295
1.7968155 0.31458753 0.20047671 4294967295
1.7934757 0.28487298 0.20041469 4294967295
1.7932501 0.25601867 0.19993749 4294967295
1.7942789 0.22506474 0.20042187 4294967295
1.7956337 0.19518279 0.20018306 4294967295
1.7931223 0.16391192 0.20493287 4294967295
1.7953198 0.14220047 0.20665964 4294967295
1.7980002 -0.014771635 0.20130911 4294967295
1.783774 -0.95531034 0.20407677 4294967295
1.7750667 0.55293989 0.16428781 4294967295
1.7757642 0.51931906 0.17242673 4294967295
1.7815658 0.49503171 0.17519826 4294967295
1.780306 0.46452731 0.17589244 4294967295
1.783268 0.43425646 0.17533171 4294967295
1.7925104 0.40576386 0.17407855 4294967295
1.7955548 0.37573853 0.17461783 4294967295
1.7958881 0.34469354 0.17538795 4294967295
1.797483 0.31772232 0.17934394 4294967295
1.795738 0.28523046 0.17499879 4294967295
1.7908041 0.25482798 0.17468771 4294967295
1.7867143 0.22575517 0.17467219 4294967295
1.7947632 0.19594786 0.17440459 4294967295
1.7980002 0.16627872 0.18416736 4294967295
1.7980002 0.13491759 0.17518592 4294967295
1.7953169 0.10442789 0.17199534 4294967295
1.7962284 0.077355757 0.17561081 4294967295
1.798 0.056146704 0.16414332 4294967295
1.7954999 -0.073073223 0.16255811 4294967295
1.7849584 -0.91782141 0.16880697 4294967295
1.7821842 -0.94769979 0.18045813 4294967295
1.7773172 -0.97331256 0.17305735 4294967295
1.7768182 -0.99425387 0.16720882 4294967295
1.7927999 0.82135111 0.14022234 4294967295
1.7760835 0.5757134 0.14307168 4294967295
1.7796727 0.5547955 0.14371467 4294967295
1.7828588 0.52491724 0.14282998 4294967295
1.7848046 0.49492517 0.1454027 4294967295
1.7859247 0.46552843 0.14457577 4294967295
1.783378 0.43500182 0.14480346 4294967295
1.7925658 0.40555647 0.14467129 4294967295
1.7976599 0.37630206 0.14590347 4294967295
1.7975345 0.34138328 0.14648938 4294967295
1.7949798 0.31426376 0.14474744 4294967295
1.7963197 0.28602487 0.14561266 4294967295
1.7973685 0.25673953 0.15219539 4294967295
1.7942814 0.22450152 0.14899909 4294967295
1.7959753 0.19429624 0.14848119 4294967295
1.7980002 0.16739115 0.13897428 4294967295
1.7980002 0.13485216 0.14606601 4294967295
1.7975653 0.10708842 0.15244189 4294967295
1.7980002 0.075422674 0.15378612 4294967295
1.798 0.052809373 0.15830302 4294967295
1.798 -0.027286634 0.13911334 4294967295
1.7917376 -0.045197509 0.14292058 4294967295
1.789885 -0.075031169 0.14635336 4294967295
1.7968094 -0.097745404 0.14373308 4294967295
1.7980001 -0.20170201 0.14328501 4294967295
1.798 -0.2116743 0.13577601 4294967295
1.798 -0.31513163 0.14745668 4294967295
1.784619 -0.90989357 0.14441618 4294967295
1.7785001 -0.93273777 0.13086492 4294967295
1.7776 -0.97929204 0.1574612 4294967295
1.7785001 -0.9925738 0.15768957 4294967295
1.7874 0.8188771 0.11069179 4294967295
1.7757369 0.57956189 0.12062854 4294967295
1.7747828 0.55600297 0.12237009 4294967295
1.7765627 0.52356791 0.12485167 4294967295
1.7784735 0.49368727 0.12067485 4294967295
1.7761458 0.46533239 0.11773807 4294967295
1.7791399 0.4339053 0.11445874 4294967295
1.7857867 0.40515542 0.11508521 4294967295
1.7884822 0.37478822 0.11461663 4294967295
1.7865354 0.3449094 0.11463192 4294967295
1.7846226 0.31427315 0.11488232 4294967295
1.7911665 0.28525653 0.11409464 4294967295
1.798 0.26890168 0.12242666 4294967295
1.7934999 0.18552491 0.10626951 4294967295
1.7908388 0.16395663 0.11364946 4294967295
1.7915649 0.13628414 0.11104372 4294967295
1.7881221 0.10477555 0.1123715 4294967295
1.7898287 0.079139307 0.10883051 4294967295
1.798 0.043631703 0.10156834 4294967295
1.7885386 0.013562385 0.10538197 4294967295
1.7886667 -0.007432628 0.10409793 4294967295
1.7952728 -0.046934213 0.1252999 4294967295
1.7930827 -0.076524585 0.11278921 4294967295
1.7918694 -0.10221207 0.107353 4294967295
1.7960954 -0.20227824 0.11451223 4294967295
1.7928362 -0.2232396 0.11216646 4294967295
1.7959 -0.25351074 0.1062282 4294967295
1.7932308 -0.28692645 0.10541114 4294967295
1.7907046 -0.31526074 0.10886079 4294967295
1.7881393 -0.34485412 0.11016166 4294967295
1.7914736 -0.37021396 0.10572553 4294967295
1.798 -0.44653916 0.10156834 4294967295
1.798 -0.45279667 0.10156834 4294967295
1.798 -0.74898499 0.10156834 4294967295
1.798 -0.75941408 0.10156834 4294967295
1.7915455 -0.92691034 0.11743903 4294967295
1.7840688 -0.93728423 0.11423591 4294967295
1.7910001 0.81755 0.085366875 4294967295
1.7746668 0.42668092 0.097391427 4294967295
1.7757857 0.40566269 0.096438825 4294967295
1.7747501 0.37815005 0.09822917 4294967295
1.7739999 0.33940002 0.098921657 4294967295
1.7753574 0.31317645 0.096247166 4294967295
1.7815877 0.28454757 0.092028946 4294967295
1.7856557 0.25552943 0.089575946 4294967295
1.7868619 0.22577478 0.087599993 4294967295
1.7845417 0.19823666 0.093674451 4294967295
1.7759233 0.16607913 0.09688139 4294967295
1.776909 0.13607268 0.096734464 4294967295
1.774 0.11713699 0.098921657 4294967295
1.7792665 0.071230598 0.096029043 4294967295
1.7859998 0.045411546 0.095567316 4294967295
1.7765001 0.015813448 0.097813785 4294967295
1.7831252 -0.019063117 0.095476627 4294967295
1.7855198 -0.043995593 0.094051421 4294967295
1.7783334 -0.072809733 0.098354816 4294967295
1.781 -0.11046299 0.094945729 4294967295
1.7876302 -0.13578269 0.085619599 4294967295
1.7897249 -0.16418904 0.081055224 4294967295
1.7866598 -0.19399498 0.086161077 4294967295
1.779889 -0.22293329 0.094778061 4294967295
1.7823707 -0.25586993 0.095111847 4294967295
1.7798824 -0.28303462 0.096317917 4294967295
1.7748573 -0.31518942 0.098718256 4294967295
1.7742857 -0.34685045 0.098265857 4294967295
1.7801902 -0.37712184 0.095103145 4294967295
1.7853231 -0.40598351 0.092117935 4294967295
1.785167 -0.43447125 0.090581447 4294967295
1.7868969 -0.46414629 0.093452334 4294967295
1.7864999 -0.49492052 0.089187741 4294967295
1.7853531 -0.52538151 0.08015877 4294967295
1.7866665 -0.55376559 0.080532491 4294967295
1.7862902 -0.58646864 0.085731745 4294967295
1.7857296 -0.61497587 0.085417956 4294967295
1.7878529 -0.64494479 0.077480972 4294967295
1.7871815 -0.67409796 0.083246738 4294967295
1.7857742 -0.70511693 0.089731544 4294967295
1.7851762 -0.7349807 0.092393517 4294967295
1.7852256 -0.76530045 0.092805773 4294967295
1.7864764 -0.79469126 0.087885737 4294967295
1.7882 -0.82413119 0.087476045 4294967295
1.7852222 -0.85525465 0.087063611 4294967295
1.7846817 -0.88514519 0.093572766 4294967295
1.7859333 -0.91355115 0.097756267 4294967295
1.798 0.81956172 0.068194985 4294967295
1.774 -0.054362297 0.048157871 4294967295
1.7757 -0.16908535 0.067620158 4294967295
1.776 -0.18353644 0.069602549 4294967295
1.7798573 0.81542146 0.02321136 4294967295
1.7882856 0.81394076 -0.0064022541 4294967295
1.776 0.80953377 -0.0045685768 4294967295
1.788 0.81677288 -0.032411098 4294967295
1.7778 0.79798079 -0.043869853 4294967295
1.7885001 0.78826761 -0.053900719 4294967295
1.774 0.77157825 -0.13568932 4294967295
1.7840002 0.76669747 -0.14605057 4294967295
1.8151429 -0.88395578 1.5162168 4294967295
1.814 -0.8930434 1.5035632 4294967295
1.8151482 -0.9091239 1.4901428 4294967295
1.8155673 -0.92249876 1.4653668 4294967295
1.8149354 -0.92350572 1.4358782 4294967295
1.8100001 -0.92754889 1.4118235 4294967295
1.82025 -0.93104702 1.4006801 4294967295
1.8150868 -0.92691118 1.3734171 4294967295
1.8146667 -0.93135577 1.3874547 4294967295
1.8163999 -0.9273175 1.3468249 4294967295
1.815357 -0.92451537 1.3144541 4294967295
1.8153666 -0.91821468 1.284867 4294967295
1.8154331 -0.92190379 1.2556925 4294967295
1.822 -0.93018562 1.2415951 4294967295
1.8279999 -0.92689157 1.2100413 4294967295
1.8161998 -0.93420351 1.2242856 4294967295
1.8180001 -0.89818543 1.183485 4294967295
1.8156667 -0.91517252 1.1952091 4294967295
1.8096666 -0.9322781 1.2059146 4294967295
1.8137143 0.52613324 1.1649754 4294967295
1.8134446 -0.89611626 1.1678404 4294967295
1.81575 -0.90539229 1.1537991 4294967295
1.8150001 0.51568854 1.1461785 4294967295
1.8161201 -0.91630179 1.1349198 4294967295
1.8154997 -0.923994 1.1055722 4294967295
1.8158332 -0.92544073 1.0751839 4294967295
1.8150001 -0.91825002 1.0446336 4294967295
1.8186666 0.52164209 1.0095952 4294967295
1.8155624 -0.91134083 1.0160402 4294967295
1.8123332 0.51281178 0.99456954 4294967295
1.8131112 0.50859809 0.97818929 4294967295
1.8122668 -0.90572757 0.98796928 4294967295
1.8151249 0.50782359 0.95458734 4294967295
1.8131764 -0.91440266 0.95078224 4294967295
1.8139999 0.50850755 0.92200381 4294967295
1.8172889 -0.9178701 0.92442405 4294967295
1.8182499 0.51133293 0.89364266 4294967295
1.81925 0.50950283 0.90492582 4294967295
1.8226128 -0.92427558 0.89874613 4294967295
1.8116666 -0.93260974 0.89061743 4294967295
1.821 0.51316828 0.87784648 4294967295
1.818 0.4996686 0.85406333 4294967295
1.8226399 -0.92484069 0.86413825 4294967295
1.8101999 -0.93520945 0.86662686 4294967295
1.808 0.79056096 0.82075846 4294967295
1.8157272 0.49558648 0.83659226 4294967295
1.8160002 -0.92747641 0.84093451 4294967295
1.816375 -0.93151909 0.83003008 4294967295
1.8123142 0.79278892 0.80260783 4294967295
1.8148181 0.49725646 0.80733573 4294967295
1.8279999 -0.92689157 0.79015529 4294967295
1.8156668 -0.93273038 0.8050018 4294967295
1.8116128 0.81991923 0.7705034 4294967295
1.8217447 0.80023831 0.77527261 4294967295
1.8167143 0.4993152 0.77584219 4294967295
1.8206499 -0.9273634 0.77196956 4294967295
1.8118 -0.93099779 0.77907169 4294967295
1.8150001 0.84415513 0.75033414 4294967295
1.8212608 0.82242954 0.75424057 4294967295
1.8258458 0.80324775 0.75398821 4294967295
1.8151109 0.50167531 0.7475462 4294967295
1.8154824 -0.92647624 0.74647135 4294967295
1.826 -0.93011409 0.73054689 4294967295
1.8076667 0.50102264 0.72424275 4294967295
1.8172965 -0.93706661 0.71485382 4294967295
1.8223 -0.92526162 0.67558324 4294967295
1.8164616 -0.93755722 0.68617892 4294967295
1.8175 0.49741286 0.64311957 4294967295
1.8149998 -0.91606367 0.65447938 4294967295
1.8164119 0.49822503 0.62260401 4294967295
1.8157333 -0.90828991 0.62432927 4294967295
1.8068571 0.79094338 0.58370501 4294967295
1.8191427 0.49846351 0.59498364 4294967295
1.8169256 -0.9151665 0.5946008 4294967295
1.8135803 0.81904697 0.56214434 4294967295
1.8188607 0.79814029 0.56816393 4294967295
1.8093334 0.49902812 0.56385922 4294967295
1.8164734 -0.91824681 0.56330794 4294967295
1.8176439 0.8211773 0.5350244 4294967295
1.8255 0.80738682 0.54059798 4294967295
1.812 0.50011563 0.53553581 4294967295
1.8164498 -0.92163819 0.53706324 4294967295
1.8099999 -0.93036312 0.54602337 4294967295
1.8185649 0.82129568 0.50661379 4294967295
1.825 0.80827564 0.49875626 4294967295
1.8115 0.49945205 0.51189291 4294967295
1.8153335 -0.91389555 0.50609064 4294967295
1.819139 0.82131886 0.47670311 4294967295
1.8254446 0.80759788 0.48247775 4294967295
1.8153 0.49890918 0.46776751 4294967295
1.8146666 -0.91538405 0.4753491 4294967295
1.8185405 0.82080024 0.44608882 4294967295
1.8167143 0.49910051 0.44566983 4294967295
1.8160468 -0.91786134 0.4443514 4294967295
1.8202726 0.82457376 0.41377649 4294967295
1.8148125 0.49351856 0.41662657 4294967295
1.8179997 -0.91254693 0.41436535 4294967295
1.8202928 0.82135499 0.38398683 4294967295
1.8279999 0.80778867 0.37451068 4294967295
1.8163 0.50130671 0.38385969 4294967295
1.8156216 -0.91147965 0.38449365 4294967295
1.814 0.82262731 0.35762593 4294967295
1.826 0.51034063 0.3661966 4294967295
1.8045 0.50851846 0.35334986 4294967295
1.8156086 -0.90813738 0.35535246 4294967295
1.8225999 0.82145536 0.3191157 4294967295
1.8255 0.80668277 0.31611913 4294967295
1.8149523 -0.9040193 0.3250232 4294967295
1.8232681 0.82075423 0.29419601 4294967295
1.8256924 0.80546439 0.29551122 4294967295
1.815222 -0.92109531 0.29643095 4294967295
1.8099999 -0.93036312 0.28775358 4294967295
1.8269998 0.82046068 0.26516852 4294967295
1.8269999 0.80628645 0.27391458 4294967295
1.8157142 0.5219 0.25512597 4294967295
1.816346 -0.91772366 0.26376635 4294967295
1.8239206 0.82089657 0.23431143 4294967295
1.8248334 0.80779922 0.2272853 4294967295
1.8103333 0.51295894 0.24851388 4294967295
1.8140001 0.49474564 0.24296072 4294967295
1.8114544 0.46365896 0.23752645 4294967295
1.813518 0.43375617 0.23496157 4294967295
1.8102727 0.40336078 0.23352423 4294967295
1.8078501 0.37502578 0.23079985 4294967295
1.8073608 0.34448862 0.22952211 4294967295
1.8124704 0.31570822 0.22771716 4294967295
1.8126563 0.28383851 0.22776484 4294967295
1.8100886 0.25502408 0.22822645 4294967295
1.8091072 0.22439118 0.22702238 4294967295
1.8091787 0.1950112 0.22700846 4294967295
1.8112692 0.16663012 0.22715694 4294967295
1.8119258 0.13505292 0.22726756 4294967295
1.817448 0.10559569 0.22588298 4294967295
1.8205 0.073744796 0.22516307 4294967295
1.8175001 0.043480664 0.22375655 4294967295
1.8129997 0.014086899 0.22615671 4294967295
1.8133214 -0.014902895 0.22633752 4294967295
1.8149641 -0.044386528 0.22606796 4294967295
1.8126785 -0.073771857 0.22643542 4294967295
1.8160714 -0.10341164 0.2258887 4294967295
1.8183844 -0.13339004 0.22421595 4294967295
1.8174345 -0.16636318 0.22410706 4294967295
1.8200433 -0.19524425 0.22717208 4294967295
1.8188752 -0.22699921 0.22648972 4294967295
1.8132498 -0.25469318 0.22634485 4294967295
1.8145002 -0.28435114 0.22614598 4294967295
1.8163638 -0.31356338 0.22411558 4294967295
1.8173214 -0.3457728 0.224933 4294967295
1.8153328 -0.37649208 0.22722414 4294967295
1.814486 -0.40558353 0.22825819 4294967295
1.8154286 -0.43506944 0.22614476 4294967295
1.8182142 -0.46526986 0.22554222 4294967295
1.8193159 -0.49393353 0.22436059 4294967295
1.8233846 -0.52590263 0.22453305 4294967295
1.8207896 -0.55658162 0.22523239 4294967295
1.8165454 -0.58467042 0.22350818 4294967295
1.8214288 -0.61445612 0.22652817 4294967295
1.8243332 -0.64425951 0.22595438 4294967295
1.82365 -0.67652106 0.22613654 4294967295
1.8229047 -0.70578194 0.22689289 4294967295
1.8221428 -0.73508114 0.22701415 4294967295
1.8228823 -0.76283371 0.22639626 4294967295
1.8245332 -0.79503042 0.22436836 4294967295
1.8205 -0.82614422 0.22685587 4294967295
1.8204287 -0.8554762 0.22728747 4294967295
1.8220937 -0.88663828 0.23045883 4294967295
1.8149377 -0.91173506 0.23492327 4294967295
1.8076874 -0.94279027 0.22487482 4294967295
1.8234997 0.82030106 0.20577514 4294967295
1.8235455 0.80774271 0.20870197 4294967295
1.801 0.33202976 0.21787173 4294967295
1.8018001 0.31378135 0.21495178 4294967295
1.801857 0.28620204 0.21563861 4294967295
1.8016667 0.25435358 0.21497414 4294967295
1.8012502 0.22524607 0.21443462 4294967295
1.8010002 0.19469225 0.21508595 4294967295
1.801 0.17324196 0.21787173 4294967295
1.8016666 0.12836766 0.20487213 4294967295
1.8058152 0.10518593 0.20559636 4294967295
1.8070004 0.074314855 0.20584896 4294967295
1.8044205 0.044042669 0.20508674 4294967295
1.8023882 0.014469226 0.20509496 4294967295
1.8016844 -0.014803612 0.20654002 4294967295
1.806163 -0.044180568 0.20443892 4294967295
1.8067956 -0.073528215 0.20432523 4294967295
1.8071086 -0.10472348 0.20404437 4294967295
1.8072199 -0.13611378 0.2045114 4294967295
1.8118575 -0.16622816 0.20344201 4294967295
1.8130555 -0.19600809 0.20507023 4294967295
1.8112451 -0.22451963 0.20482445 4294967295
1.80753 -0.25389382 0.20419469 4294967295
1.8084074 -0.28339103 0.20404166 4294967295
1.8086723 -0.31463528 0.2037707 4294967295
1.8073198 -0.34578544 0.20448852 4294967295
1.807734 -0.37555432 0.20416015 4294967295
1.8041025 -0.40409988 0.2047962 4294967295
1.8042355 -0.43409589 0.20436978 4294967295
1.8079363 -0.46422809 0.20458028 4294967295
1.8115771 -0.49453402 0.20446569 4294967295
1.8137102 -0.5238539 0.20495656 4294967295
1.8132602 -0.55301166 0.20475426 4294967295
1.8130013 -0.58487147 0.20323935 4294967295
1.8112589 -0.61567283 0.20511004 4294967295
1.8145278 -0.64564717 0.20489508 4294967295
1.8141043 -0.67513573 0.20559257 4294967295
1.8129297 -0.70472991 0.20535758 4294967295
1.8143222 -0.73473752 0.20511255 4294967295
1.8149471 -0.76446718 0.20500925 4294967295
1.815184 -0.79516655 0.20441258 4294967295
1.8147504 -0.82430339 0.20568874 4294967295
1.8171182 -0.85351044 0.20607376 4294967295
1.8206934 -0.88517171 0.206112 4294967295
1.8221827 -0.91548586 0.20585835 4294967295
1.8144006 -0.94457603 0.2044237 4294967295
1.8186667 0.83037877 0.1713306 4294967295
1.8010002 0.31139785 0.16825053 4294967295
1.801 0.18159921 0.17399615 4294967295
1.8011287 0.16368262 0.1712074 4294967295
1.801062 0.13589974 0.17685744 4294967295
1.8013077 0.10993963 0.18599328 4294967295
1.801 0.063204758 0.18165696 4294967295
1.8012503 0.043447666 0.17629924 4294967295
1.80398 0.014475087 0.17551482 4294967295
1.8046122 -0.014826952 0.17538947 4294967295
1.8067343 -0.044186827 0.17499071 4294967295
1.8053262 -0.073469497 0.17608634 4294967295
1.8047146 -0.10485505 0.17537782 4294967295
1.8070405 -0.13643457 0.17492658 4294967295
1.8068157 -0.16575773 0.17498228 4294967295
1.8037552 -0.19477032 0.17557013 4294967295
1.803225 -0.22400691 0.17566448 4294967295
1.8055716 -0.25362241 0.17521587 4294967295
1.8071564 -0.28385019 0.17450732 4294967295
1.8057588 -0.31493646 0.1755698 4294967295
1.8081015 -0.34627706 0.17472667 4294967295
1.8125105 -0.37654993 0.17388427 4294967295
1.8077143 -0.40489981 0.17479616 4294967295
1.8033928 -0.43389174 0.17603302 4294967295
1.8059183 -0.46437141 0.17514217 4294967295
1.8100635 -0.49417281 0.1739051 4294967295
1.813572 -0.52404463 0.17368293 4294967295
1.8126353 -0.55417705 0.17338061 4294967295
1.809491 -0.58456463 0.17495257 4294967295
1.8060409 -0.61405665 0.17512953 4294967295
1.8120619 -0.64553791 0.17397341 4294967295
1.8143473 -0.67581284 0.17353541 4294967295
1.8144288 -0.70531213 0.17351809 4294967295
1.8150003 -0.7350111 0.17341205 4294967295
1.8143065 -0.76419455 0.17354253 4294967295
1.8131083 -0.79524124 0.17377299 4294967295
1.8136194 -0.82492447 0.17367715 4294967295
1.8177779 -0.85462528 0.17444906 4294967295
1.8208133 -0.88608098 0.17388922 4294967295
1.8141756 -0.91373289 0.17713687 4294967295
1.8080715 -0.93744653 0.18492931 4294967295
1.8176473 0.82750928 0.14535987 4294967295
1.801 0.36295164 0.13931355 4294967295
1.8010001 0.35292286 0.14137074 4294967295
1.801 0.31531528 0.1576995 4294967295
1.801 0.27352899 0.14683506 4294967295
1.8017097 0.25650841 0.14034849 4294967295
1.8015999 0.2259708 0.13542473 4294967295
1.801 0.1916279 0.13262773 4294967295
1.8012307 0.16169007 0.15209234 4294967295
1.8009998 0.13627717 0.14394224 4294967295
1.8009996 0.10591961 0.13662052 4294967295
1.801133 0.075188428 0.13803136 4294967295
1.8022277 0.04268847 0.14534026 4294967295
1.8026335 0.014466077 0.14649418 4294967295
1.8027087 -0.01446094 0.14631072 4294967295
1.8027143 -0.039903339 0.15574288 4294967295
1.8031251 -0.11182413 0.14691958 4294967295
1.8069587 -0.1364305 0.14560318 4294967295
1.805245 -0.16560912 0.14595512 4294967295
1.801235 -0.19019949 0.14641798 4294967295
1.8028004 -0.22487706 0.14562836 4294967295
1.8050002 -0.25353989 0.14600638 4294967295
1.8034649 -0.28470057 0.14632514 4294967295
1.8021673 -0.31586504 0.1465936 4294967295
1.8060611 -0.34588721 0.14578983 4294967295
1.8099794 -0.37602457 0.14498201 4294967295
1.8072245 -0.40479809 0.14555278 4294967295
1.8052603 -0.43401819 0.14570618 4294967295
1.8060584 -0.46443945 0.14554837 4294967295
1.8077346 -0.49479377 0.14544824 4294967295
1.8104804 -0.52525008 0.14488041 4294967295
1.8074809 -0.55485338 0.14598846 4294967295
1.803164 -0.58378893 0.14638782 4294967295
1.8050617 -0.61372876 0.14599186 4294967295
1.8118169 -0.64544952 0.14459577 4294967295
1.8138169 -0.67561805 0.14418089 4294967295
1.8148371 -0.70546895 0.14396906 4294967295
1.8136208 -0.73478609 0.14397347 4294967295
1.8130405 -0.7645883 0.14417815 4294967295
1.8107412 -0.79474097 0.14521253 4294967295
1.8118089 -0.82566965 0.14414984 4294967295
1.8150004 -0.85620761 0.14410442 4294967295
1.8125002 -0.88687414 0.14445829 4294967295
1.8031667 -0.90314037 0.14674553 4294967295
1.8245425 0.82075727 0.11474797 4294967295
1.8279999 0.80778867 0.11579308 4294967295
1.8023565 0.25374472 0.11437795 4294967295
1.8038042 0.22372869 0.11486575 4294967295
1.8032569 0.19760084 0.11654502 4294967295
1.801 0.12936637 0.12259898 4294967295
1.8012499 0.1131907 0.1253655 4294967295
1.8020968 0.069624513 0.12017408 4294967295
1.8051111 0.043801807 0.11512202 4294967295
1.8040274 0.01504371 0.12041759 4294967295
1.8036091 -0.015727017 0.11636722 4294967295
1.8031842 -0.043217268 0.10982752 4294967295
1.8016155 -0.06881848 0.11294499 4294967295
1.8019443 -0.10852764 0.11760721 4294967295
1.8044111 -0.13623598 0.11473373 4294967295
1.8036257 -0.16546513 0.11491212 4294967295
1.8013445 -0.18802802 0.11390615 4294967295
1.8015 -0.23528446 0.12583369 4294967295
1.803154 -0.25542799 0.12021846 4294967295
1.8027893 -0.28470656 0.12159094 4294967295
1.8019092 -0.31524822 0.1253646 4294967295
1.8028094 -0.34525701 0.12554806 4294967295
1.8049473 -0.37674364 0.11946675 4294967295
1.8045717 -0.40420651 0.11470127 4294967295
1.8026783 -0.43474713 0.11559355 4294967295
1.8026735 -0.46675086 0.11538741 4294967295
1.8055198 -0.49633405 0.116236 4294967295
1.8051839 -0.5258038 0.11664906 4294967295
1.8034496 -0.55459243 0.11703467 4294967295
1.8043079 -0.58464527 0.11587805 4294967295
1.8046037 -0.61414295 0.11425772 4294967295
1.8075 -0.64391118 0.11572248 4294967295
1.8116531 -0.67481434 0.11521107 4294967295
1.812861 -0.70503402 0.11468878 4294967295
1.8069837 -0.73450083 0.11481744 4294967295
1.8044423 -0.76495332 0.11586091 4294967295
1.8076793 -0.79479647 0.11575922 4294967295
1.8120412 -0.82631123 0.11511713 4294967295
1.8130009 -0.85618877 0.11490348 4294967295
1.8115937 -0.88649547 0.1149101 4294967295
1.8054717 -0.91403764 0.11263615 4294967295
1.8022499 -0.93369615 0.11155629 4294967295
1.8217432 0.81876689 0.086728752 4294967295
1.8275 0.80756772 0.088345826 4294967295
1.8009999 0.24845725 0.095646888 4294967295
1.801 0.22570693 0.095762968 4294967295
1.801 -0.037778731 0.096691549 4294967295
1.801 -0.14433372 0.095646888 4294967295
1.801 -0.16661975 0.095762998 4294967295
1.801 -0.18507534 0.095646888 4294967295
1.8032502 -0.49831295 0.096949399 4294967295
1.8047355 -0.52666491 0.091753453 4294967295
1.8048856 -0.55503213 0.091593951 4294967295
1.8032857 -0.58163393 0.094562232 4294967295
1.8012221 -0.6189177 0.095710754 4294967295
1.8032761 -0.6486057 0.092409194 4294967295
1.8039999 -0.67405206 0.094247848 4294967295
1.8055621 -0.70421773 0.097455889 4294967295
1.8023334 -0.72291088 0.097774118 4294967295
1.804625 -0.79806834 0.09558171 4294967295
1.8073639 -0.82493424 0.095009744 4294967295
1.8075383 -0.85473627 0.093551457 4294967295
1.8051177 -0.8820222 0.096959174 4294967295
1.8237098 0.81748229 0.054786205 4294967295
1.8260001 0.80690479 0.056922436 4294967295
1.8190001 0.81982267 0.024466276 4294967295
1.8246001 0.8082599 0.024540216 4294967295
1.8138518 0.8155548 -0.0034194589 4294967295
1.8223888 0.80601126 -0.0069934726 4294967295
1.8155999 0.81779414 -0.035304189 4294967295
1.824 0.80884087 -0.024388015 4294967295
1.823 0.81403852 -0.052288115 4294967295
1.8178333 0.79449695 -0.063672066 4294967295
1.801 0.77496433 -0.070453525 4294967295
1.8427999 -0.88907051 1.5221742 4294967295
1.8366667 -0.89577001 1.5059216 4294967295
1.8447058 -0.9106763 1.4945412 4294967295
1.8414736 -0.92021739 1.4676427 4294967295
1.8394166 -0.92342573 1.4405329 4294967295
1.8513333 -0.93299347 1.4293243 4294967295
1.831 -0.92841268 1.419337 4294967295
1.8420999 -0.93317187 1.4051075 4294967295
1.8384999 -0.92687625 1.3782281 4294967295
1.8499999 -0.93160355 1.3685863 4294967295
1.8322001 -0.92902106 1.3434081 4294967295
1.8533334 -0.93400067 1.350021 4294967295
1.8444002 -0.92206722 1.3135 4294967295
1.8429443 -0.91735035 1.2840846 4294967295
1.8414999 -0.92389667 1.2595718 4294967295
1.8482857 -0.93532598 1.2471006 4294967295
1.848857 -0.92274112 1.2148468 4294967295
1.8433636 -0.93583715 1.2286637 4294967295
1.8425 0.53630006 1.1834395 4294967295
1.8355 -0.8987515 1.1873145 4294967295
1.841875 -0.90879482 1.2013745 4294967295
1.8417499 0.5254246 1.1682354 4294967295
1.8395 -0.898579 1.178103 4294967295
1.846077 -0.9106828 1.160845 4294967295
1.8436157 -0.91999364 1.1359688 4294967295
1.8409411 -0.92464191 1.1076443 4294967295
1.853 -0.93182594 1.0973766 4294967295
1.8421664 -0.92550921 1.0736058 4294967295
1.854 -0.93147171 1.0865064 4294967295
1.8441334 -0.91822708 1.0429797 4294967295
1.842 0.52120912 1.0130237 4294967295
1.8430001 -0.90960509 1.0174314 4294967295
1.8495555 0.51071173 0.98690665 4294967295
1.8426666 0.50928956 0.98184288 4294967295
1.836 -0.912835 0.98730266 4294967295
1.844 0.51047742 0.95448369 4294967295
1.8517143 0.50954407 0.95322675 4294967295
1.8424615 -0.91381222 0.94978052 4294967295
1.841 0.51026148 0.93516958 4294967295
1.8443638 0.50806993 0.92329013 4294967295
1.8444642 -0.90984333 0.92478663 4294967295
1.8468572 0.513098 0.88782227 4294967295
1.8418751 0.50889242 0.90331018 4294967295
1.8407332 -0.91595882 0.89467096 4294967295
1.8486667 0.50237411 0.85754788 4294967295
1.8412918 -0.91972637 0.86616409 4294967295
1.8408751 0.49633631 0.83424139 4294967295
1.8407778 -0.92623585 0.84329474 4294967295
1.8443638 -0.93439573 0.82953078 4294967295
1.8408571 0.49984416 0.80487704 4294967295
1.8426666 -0.92789912 0.79445744 4294967295
1.844923 -0.93513036 0.80879259 4294967295
1.8401667 0.78573954 0.7673921 4294967295
1.8426666 0.77863973 0.7723701 4294967295
1.8442856 0.50261408 0.775428 4294967295
1.8419167 -0.92288876 0.77547085 4294967295
1.8442222 0.82445514 0.74261725 4294967295
1.8442757 0.79636192 0.74902618 4294967295
1.8430001 0.5065397 0.74104345 4294967295
1.8441365 -0.92610931 0.74566674 4294967295
1.854 0.50956303 0.72732306 4294967295
1.8503333 -0.92888665 0.71828818 4294967295
1.8439333 -0.93451709 0.71293813 4294967295
1.8456666 -0.92698264 0.68371522 4294967295
1.841 -0.93461955 0.69616407 4294967295
1.854 0.50095987 0.64559269 4294967295
1.8431668 -0.91627342 0.65507591 4294967295
1.8442857 0.498335 0.62568188 4294967295
1.8426 -0.90834635 0.62473267 4294967295
1.8523334 0.50050956 0.59173501 4294967295
1.8451998 -0.9167645 0.59576255 4294967295
1.840818 0.79557651 0.55870128 4294967295
1.8342857 0.49988884 0.56552094 4294967295
1.8428696 -0.9121024 0.56406438 4294967295
1.8416665 0.80445051 0.53641105 4294967295
1.8415455 0.50030047 0.53344381 4294967295
1.8429585 -0.91503388 0.53652191 4294967295
1.8393527 0.80752307 0.5074119 4294967295
1.8364286 0.49985725 0.50774819 4294967295
1.8459289 -0.91669893 0.50586015 4294967295
1.8425 0.81201869 0.46312982 4294967295
1.8386874 0.80609876 0.47551686 4294967295
1.8451999 0.49943173 0.47074899 4294967295
1.844389 -0.91450351 0.4744744 4294967295
1.8348666 0.81223208 0.44719693 4294967295
1.8455333 0.80839068 0.44361651 4294967295
1.8462858 0.49672526 0.4458878 4294967295
1.8432273 -0.91224104 0.44562024 4294967295
1.83752 0.81488347 0.41535497 4294967295
1.8488233 0.80739468 0.41725472 4294967295
1.8442857 0.49466285 0.41965935 4294967295
1.8392308 -0.89843678 0.41202796 4294967295
1.8422726 -0.90379339 0.42348871 4294967295
1.833889 0.81416947 0.3948459 4294967295
1.8401201 0.80578893 0.38517958 4294967295
1.8405 0.50052494 0.38950354 4294967295
1.8413846 -0.90770632 0.38888991 4294967295
1.836 0.80280417 0.36961412 4294967295
1.84275 -0.91245455 0.3546434 4294967295
1.8491428 -0.91187006 0.32563102 4294967295
1.8400909 -0.91981691 0.29126519 4294967295
1.831 0.8176108 0.25532138 4294967295
1.831 0.80769831 0.26169375 4294967295
1.8419999 0.52549911 0.25480846 4294967295
1.8439131 -0.91895127 0.2636959 4294967295
1.831 0.80911434 0.24257669 4294967295
1.846 0.51593035 0.24887004 4294967295
1.8436 0.49812233 0.24494508 4294967295
1.835875 0.46408987 0.24183807 4294967295
1.8484285 0.43512639 0.23993605 4294967295
1.8401426 0.40327913 0.24119142 4294967295
1.8425 0.37818852 0.238709 4294967295
1.8435 0.34199107 0.23640552 4294967295
1.8411666 0.31313223 0.23392767 4294967295
1.8464 0.28380004 0.23425779 4294967295
1.8416001 0.25326008 0.23414701 4294967295
1.8408573 0.22405805 0.23254097 4294967295
1.8361431 0.19366938 0.23327717 4294967295
1.8412857 0.16428161 0.23247406 4294967295
1.8385714 0.13422222 0.23289791 4294967295
1.8382857 0.10429702 0.23294252 4294967295
1.8425 0.074627183 0.23015869 4294967295
1.8332857 0.044496253 0.22946975 4294967295
1.8416251 0.016400211 0.23189002 4294967295
1.8378571 -0.015105382 0.23300946 4294967295
1.8444999 -0.04368557 0.23197213 4294967295
1.8424283 -0.074974835 0.2322956 4294967295
1.8446 -0.1093149 0.23195651 4294967295
1.8448889 -0.13545537 0.23002225 4294967295
1.8397778 -0.16023017 0.22987634 4294967295
1.8515999 -0.198208 0.23086342 4294967295
1.854 -0.21525593 0.23048866 4294967295
1.8477143 -0.25521696 0.23147023 4294967295
1.8391429 -0.28395343 0.23280868 4294967295
1.842889 -0.31395158 0.22985917 4294967295
1.8441998 -0.34205094 0.23074287 4294967295
1.8338 -0.36819947 0.233643 4294967295
1.85625 -0.40609512 0.23444414 4294967295
1.8357999 -0.43677136 0.23333067 4294967295
1.8458569 -0.46486196 0.2317602 4294967295
1.8400002 -0.4953723 0.22947967 4294967295
1.8391428 -0.52715534 0.22854155 4294967295
1.8327999 -0.55085677 0.22954673 4294967295
1.8324287 -0.58476508 0.22960562 4294967295
1.8473333 -0.61670667 0.2301136 4294967295
1.8442726 -0.64529663 0.23046285 4294967295
1.8453 -0.67319888 0.23099756 4294967295
1.8438569 -0.7039215 0.2320725 4294967295
1.84025 -0.73454851 0.2326358 4294967295
1.839375 -0.76728767 0.23170981 4294967295
1.8415555 -0.79370141 0.2291159 4294967295
1.8431667 -0.83123523 0.23076156 4294967295
1.8396155 -0.85725212 0.23438758 4294967295
1.8411875 -0.88764453 0.23970541 4294967295
1.8417499 -0.90393794 0.24736726 4294967295
1.831 0.8133626 0.19159791 4294967295
1.831 0.80911434 0.19159791 4294967295
1.8358206 0.82270986 0.1732505 4294967295
1.8329999 0.80999815 0.18698633 4294967295
1.8337811 0.82044613 0.14616761 4294967295
1.8323334 0.80828589 0.13821873 4294967295
1.831 0.81548667 0.1278744 4294967295
1.8443 0.80213666 -0.011889696 4294967295
1.8423334 0.81695187 -0.042196572 4294967295
1.8417499 0.80583441 -0.027186632 4294967295
1.8478 0.82081801 -0.056635499 4294967295
1.8477999 0.80365485 -0.070374608 4294967295
1.849 0.79132855 -0.081900179 4294967295
1.8720001 -0.89562291 1.5480429 4294967295
1.8890001 -0.90084535 1.5530123 4294967295
1.8678 -0.89593428 1.532748 4294967295
1.8770833 -0.90749079 1.5189066 4294967295
1.8755653 -0.92091203 1.4939957 4294967295
1.8699999 -0.92720795 1.4666994 4294967295
1.8857145 -0.9324035 1.4618347 4294967295
1.876 -0.93902874 1.4346766 4294967295
1.8746191 -0.9355942 1.4057422 4294967295
1.8753077 -0.93915778 1.3764795 4294967295
1.8771539 -0.93638748 1.3448362 4294967295
1.8749999 -0.92518234 1.3170912 4294967295
1.8742307 -0.92389464 1.2880373 4294967295
1.8843335 -0.93213701 1.275026 4294967295
1.867 -0.92933953 1.2680807 4294967295
1.8778 -0.94036639 1.2530067 4294967295
1.8783529 -0.9190715 1.2216052 4294967295
1.872875 -0.93549311 1.2334933 4294967295
1.8795 0.54272109 1.1967685 4294967295
1.8758999 -0.91112632 1.1967635 4294967295
1.873 0.53216785 1.1792256 4294967295
1.8769335 -0.92237389 1.1608541 4294967295
1.8761002 -0.92536592 1.1346045 4294967295
1.8690001 -0.92888498 1.1156642 4294967295
1.8782666 -0.93493283 1.1043849 4294967295
1.8746251 -0.92767972 1.0666959 4294967295
1.878 -0.93355054 1.0813708 4294967295
1.873 0.53651351 1.0314724 4294967295
1.8766668 -0.92131066 1.0447991 4294967295
1.8748 0.51786911 1.0123746 4294967295
1.886 0.50960642 1.0000157 4294967295
1.875 -0.91867942 1.0173783 4294967295
1.873 0.51043946 0.99453419 4294967295
1.8786155 0.50793213 0.98136979 4294967295
1.865 -0.92834401 0.98168957 4294967295
1.8795 -0.93337381 0.98748207 4294967295
1.8755715 0.50677234 0.95528662 4294967295
1.8771335 -0.91606873 0.95158499 4294967295
1.8737776 0.50652891 0.92541504 4294967295
1.874316 -0.9103058 0.92494106 4294967295
1.8778179 0.51371896 0.89257455 4294967295
1.87475 0.50873131 0.90579569 4294967295
1.8752502 -0.91820222 0.89501679 4294967295
1.8890001 0.51041704 0.87367797 4294967295
1.8757999 0.50421971 0.85899132 4294967295
1.8756665 -0.92444694 0.86587054 4294967295
1.886 -0.93004555 0.85123706 4294967295
1.8746364 0.49980342 0.83460671 4294967295
1.87 -0.92865771 0.848427 4294967295
1.8777037 -0.93641889 0.83250773 4294967295
1.8774287 0.50604481 0.80615854 4294967295
1.8757777 -0.92594784 0.7989136 4294967295
1.8735999 -0.93491459 0.81225967 4294967295
1.8666667 0.7830056 0.76266426 4294967295
1.8890001 0.51041704 0.77944773 4294967295
1.8765 0.50920534 0.7756201 4294967295
1.8744233 -0.92264229 0.77610499 4294967295
1.8801665 0.84900373 0.74041283 4294967295
