# .PCD v0.7 - Point Cloud Data file format
VERSION 0.7
FIELDS x y z rgb
SIZE 4 4 4 4
TYPE F F F U
COUNT 1 1 1 1
WIDTH 1128
HEIGHT 1
VIEWPOINT 0 0 0 1 0 0 0
POINTS 1128
DATA ascii
2.1703334 -0.46851486 0.37664258 4294967295
2.174125 -0.49328181 0.3740859 4294967295
2.1759088 -0.52683872 0.37391007 4294967295
2.1722999 -0.55357927 0.37634635 4294967295
2.1823332 -0.58753264 0.38175324 4294967295
2.1729999 -0.61655021 0.38046396 4294967295
2.1728179 -0.64387822 0.37549585 4294967295
2.1739998 -0.67482531 0.37430766 4294967295
2.1799998 -0.70576537 0.37684307 4294967295
2.1715 -0.73579383 0.37740123 4294967295
2.1738572 -0.76863295 0.37581456 4294967295
2.1785715 -0.79628968 0.37693685 4294967295
2.1715715 -0.82468045 0.38171771 4294967295
2.175 -0.85552019 0.38726413 4294967295
2.1736999 -0.88275707 0.39490771 4294967295
2.1600001 -0.50386786 0.36813331 4294967295
2.1600001 -0.51890254 0.36813331 4294967295
2.1600001 -0.80957359 0.31551182 4294967295
2.1608 -0.82090163 0.31794187 4294967295
2.1600001 -0.81709093 0.30799446 4294967295
2.204 -0.89765602 1.7508404 4294967295
2.2129998 -0.90132159 1.7224898 4294967295
2.1930001 -0.89826411 1.7141687 4294967295
2.209125 -0.90774202 1.7017995 4294967295
2.2089064 -0.92045397 1.6739615 4294967295
2.2126088 -0.9230231 1.6444906 4294967295
2.2006667 -0.93203986 1.6494097 4294967295
2.2083938 -0.91975921 1.6138574 4294967295
2.1960001 -0.93006349 1.6240906 4294967295
2.2190001 -0.89861691 1.5841697 4294967295
2.2076001 -0.91432989 1.5847148 4294967295
2.2070417 -0.91337919 1.5568693 4294967295
2.2076843 -0.91288781 1.5242709 4294967295
2.2074168 -0.91099006 1.495809 4294967295
2.2097142 -0.91169268 1.4643514 4294967295
2.2176666 -0.89636075 1.4257402 4294967295
2.2070625 -0.90624619 1.4344082 4294967295
2.2123334 0.50538629 1.3996079 4294967295
2.2144668 -0.89574575 1.4055877 4294967295
2.203706 -0.90474391 1.4032892 4294967295
2.2078888 0.48899272 1.3727881 4294967295
2.2176666 0.4688741 1.3639958 4294967295
2.2163334 -0.89753699 1.3746289 4294967295
2.2038262 -0.90557379 1.3756888 4294967295
2.2001431 0.49020699 1.3454199 4294967295
2.1992002 0.46820733 1.3481324 4294967295
2.2190001 -0.89861691 1.3550634 4294967295
2.2076666 -0.90702939 1.3467309 4294967295
2.2060001 0.54488462 1.3079345 4294967295
2.206069 0.52442199 1.3195503 4294967295
2.2045999 0.49493703 1.3150115 4294967295
2.2075884 -0.91568077 1.3150475 4294967295
2.2141111 0.4858171 1.2889982 4294967295
2.2033 0.47164255 1.2837104 4294967295
2.2087779 -0.91951692 1.284019 4294967295
2.2094502 -0.91344637 1.2550933 4294967295
2.2150002 0.51370269 1.2122307 4294967295
2.2190001 0.50691235 1.2134807 4294967295
2.2098002 -0.91538513 1.2259771 4294967295
2.211 0.5666436 1.1802012 4294967295
2.2016666 0.51401681 1.2012637 4294967295
2.2103336 0.50577819 1.1936822 4294967295
2.2101581 -0.91553211 1.1942513 4294967295
2.2149999 0.57280785 1.1505605 4294967295
2.1993334 0.56025916 1.1605444 4294967295
2.2071669 0.51315898 1.1602671 4294967295
2.21 0.50826776 1.1764796 4294967295
2.2149999 -0.89552343 1.1579062 4294967295
2.20524 -0.90919119 1.1662033 4294967295
2.2055001 0.60617459 1.140182 4294967295
2.2058001 0.5857873 1.1387317 4294967295
2.1960001 0.5653469 1.1426041 4294967295
2.2 0.51341242 1.138643 4294967295
2.2098889 0.50653321 1.1308831 4294967295
2.2048237 -0.89346528 1.1353216 4294967295
2.1965001 -0.90224177 1.145294 4294967295
2.2016003 0.50088042 1.1048348 4294967295
2.207917 -0.89326197 1.1075561 4294967295
2.2058892 0.49878094 1.0754492 4294967295
2.2038333 -0.89757812 1.0826163 4294967295
2.2081666 -0.90360981 1.0674958 4294967295
2.2064548 0.4961265 1.0443497 4294967295
2.2061179 -0.90814042 1.0441442 4294967295
2.2037003 0.49522731 1.0123566 4294967295
2.2084548 -0.90737003 1.0143042 4294967295
2.2063334 0.49718463 0.98769045 4294967295
2.2190001 -0.89861691 0.9843744 4294967295
2.2074816 -0.90815663 0.98394644 4294967295
2.207 0.4990505 0.96906155 4294967295
2.2093809 -0.91374612 0.9573369 4294967295
2.21 0.50826782 0.9192462 4294967295
2.2081113 -0.92209548 0.92488086 4294967295
2.2062311 0.50595373 0.89370221 4294967295
2.2065003 -0.92596722 0.89471745 4294967295
2.2068825 0.50382745 0.86482209 4294967295
2.2062671 -0.91801578 0.86482084 4294967295
2.2055001 0.50317383 0.83505678 4294967295
2.2163334 -0.89753699 0.82698011 4294967295
2.2056 -0.90647811 0.83469921 4294967295
2.2088573 0.50347978 0.80433726 4294967295
2.2176666 -0.89807689 0.81172252 4294967295
2.2053599 -0.908014 0.80375391 4294967295
2.2121668 0.50277793 0.77506244 4294967295
2.2084289 -0.92194653 0.77610004 4294967295
2.1960001 -0.93006349 0.77066219 4294967295
2.2095001 0.50217068 0.74657118 4294967295
2.2065909 -0.92196357 0.74719983 4294967295
2.2054999 0.49614632 0.71547353 4294967295
2.2063572 -0.92054415 0.71554029 4294967295
2.1965001 0.51196498 0.67388636 4294967295
2.2082779 0.50217456 0.684385 4294967295
2.2063751 -0.91460818 0.68354946 4294967295
2.2060001 0.96712875 0.65559953 4294967295
2.2052858 0.94928807 0.65037006 4294967295
2.2030001 0.51245397 0.6595313 4294967295
2.2115455 0.50753486 0.65373176 4294967295
2.2054737 -0.91413313 0.65337288 4294967295
2.2087998 0.94940072 0.63017154 4294967295
2.2078888 0.91702706 0.62828767 4294967295
2.207 0.89845854 0.62085962 4294967295
2.2062354 0.50427836 0.62263018 4294967295
2.2057858 -0.91133642 0.62391472 4294967295
2.2 0.93644392 0.60522658 4294967295
2.2085502 0.50219804 0.59300059 4294967295
2.2052 -0.90359002 0.59485221 4294967295
2.2086251 0.49972549 0.56552386 4294967295
2.2034001 -0.91529995 0.56701165 4294967295
2.2078001 0.50229901 0.53842038 4294967295
2.2038 -0.9272241 0.53172415 4294967295
2.1989999 0.50573564 0.50657362 4294967295
2.2077692 -0.92242575 0.50504631 4294967295
2.2094169 0.52009308 0.46546447 4294967295
2.2102857 0.50784338 0.48108292 4294967295
2.210077 -0.92260367 0.47505951 4294967295
2.1960001 -0.93006349 0.46240896 4294967295
2.2129998 0.54789352 0.44144124 4294967295
2.2095001 0.53805286 0.45692849 4294967295
2.2179999 -0.92780167 0.43867788 4294967295
2.2058239 -0.93391091 0.44349131 4294967295
2.2096 0.54679537 0.42001128 4294967295
2.2070713 0.5228346 0.41092539 4294967295
2.207 0.49543083 0.40761408 4294967295
2.213125 0.46575764 0.40098548 4294967295
2.2190001 0.44513091 0.40002429 4294967295
2.2085454 -0.88924104 0.40339041 4294967295
2.2059503 -0.91456324 0.41660577 4294967295
2.2 -0.93175757 0.42657346 4294967295
2.198 0.45876274 0.39605996 4294967295
2.2070003 0.43320334 0.39482331 4294967295
2.2072856 0.40473586 0.38749236 4294967295
2.2048001 0.37526381 0.38340887 4294967295
2.2062221 0.34189856 0.38764179 4294967295
2.2066002 0.31465912 0.39045537 4294967295
2.2054446 0.28492105 0.39223933 4294967295
2.2032857 0.25427878 0.39138544 4294967295
2.2054999 0.22494973 0.39051992 4294967295
2.2050002 0.19419301 0.3905493 4294967295
2.2095556 0.16298628 0.38801143 4294967295
2.2036669 0.13187297 0.38381863 4294967295
2.2064283 0.10545114 0.38535476 4294967295
2.2051251 0.079094678 0.38926905 4294967295
2.2076669 0.043320172 0.39210892 4294967295
2.2026668 0.016556054 0.39240241 4294967295
2.2041667 -0.015564467 0.39059821 4294967295
2.2045555 -0.045393329 0.38887936 4294967295
2.2076666 -0.077046029 0.39039272 4294967295
2.2048333 -0.10337719 0.38630003 4294967295
2.2073336 -0.13422169 0.38359046 4294967295
2.2060001 -0.16399041 0.38537228 4294967295
2.2045557 -0.19713198 0.38376361 4294967295
2.2046249 -0.22272265 0.38418418 4294967295
2.2063336 -0.2553089 0.38763911 4294967295
2.2085001 -0.28458694 0.38779318 4294967295
2.2092729 -0.31405553 0.38797829 4294967295
2.2115002 -0.34399095 0.38761085 4294967295
2.2076001 -0.3751407 0.38425887 4294967295
2.2082856 -0.40313789 0.38084468 4294967295
2.2080002 -0.43770644 0.38218576 4294967295
2.2035456 -0.46429566 0.38274461 4294967295
2.2047501 -0.49509951 0.37970471 4294967295
2.2049999 -0.52076185 0.37904531 4294967295
2.2082727 -0.55704278 0.38198131 4294967295
2.2072856 -0.58294261 0.38456696 4294967295
2.2060001 -0.61330646 0.38610777 4294967295
2.2066667 -0.64616632 0.38306272 4294967295
2.2081113 -0.67502463 0.38069904 4294967295
2.2064998 -0.70669174 0.38022232 4294967295
2.2108183 -0.73768437 0.38228896 4294967295
2.2057998 -0.76532972 0.38026667 4294967295
2.2065001 -0.79372251 0.38022232 4294967295
2.2054448 -0.82489008 0.38370472 4294967295
2.207231 -0.8564108 0.39160824 4294967295
2.201 -0.87854743 0.3958908 4294967295
2.2219999 -0.89983171 1.7505817 4294967295
2.2319999 -0.90388137 1.7638903 4294967295
2.2219999 -0.89983171 1.7299601 4294967295
2.2389998 -0.90359086 1.726737 4294967295
2.2305384 -0.90606761 1.7031516 4294967295
2.2325649 -0.90791714 1.6739862 4294967295
2.2314579 -0.9090296 1.6468637 4294967295
2.2375998 -0.89783734 1.6097045 4294967295
2.2279286 -0.9048059 1.6183586 4294967295
2.2289999 -0.89674538 1.584891 4294967295
2.2414999 -0.90252787 1.571553 4294967295
2.231133 -0.90869874 1.5551202 4294967295
2.23 -0.90971845 1.5258696 4294967295
2.2319999 -0.91187632 1.4957675 4294967295
2.2449999 -0.89872831 1.4507927 4294967295
2.2336664 -0.91030675 1.4645172 4294967295
2.232091 -0.89354813 1.4322531 4294967295
2.2286665 -0.90251911 1.4457393 4294967295
2.2279999 0.50122124 1.4049813 4294967295
2.2335999 -0.89208388 1.4071932 4294967295
2.2296667 0.48346838 1.3789021 4294967295
2.2323332 0.46850535 1.3730295 4294967295
2.2305996 -0.89398396 1.3764958 4294967295
2.2305 -0.89722449 1.355073 4294967295
2.2337778 -0.90517026 1.3401735 4294967295
2.2260001 0.54293966 1.3051867 4294967295
2.2296 0.52381587 1.3070498 4294967295
2.224 0.50676566 1.3066308 4294967295
2.2313333 -0.91525149 1.3156872 4294967295
2.2419999 0.51892793 1.2945299 4294967295
2.230042 0.49672127 1.2813764 4294967295
2.2327645 -0.9120931 1.2845049 4294967295
2.2449999 0.51285183 1.2424414 4294967295
2.2396398 0.49667317 1.2577419 4294967295
2.231684 -0.90591455 1.2534175 4294967295
2.2305715 0.51842409 1.22598 4294967295
2.2367854 0.50243747 1.224606 4294967295
2.2317858 -0.90969914 1.2248716 4294967295
2.2305 0.50090468 1.194211 4294967295
2.2326429 -0.90819597 1.1947997 4294967295
2.2375 0.61753577 1.1543614 4294967295
2.2349999 0.58490717 1.1562456 4294967295
2.2219999 0.56946266 1.1757526 4294967295
2.2348571 0.50533563 1.1643558 4294967295
2.2316153 -0.89296031 1.1656483 4294967295
2.2260001 -0.90145165 1.1795155 4294967295
2.2219999 0.61070603 1.1473978 4294967295
2.2219999 0.58492893 1.1473978 4294967295
2.2283001 0.49919888 1.1419392 4294967295
2.2298 -0.89056498 1.1366576 4294967295
2.2309999 0.49238852 1.0964544 4294967295
2.2332857 -0.89625496 1.1061701 4294967295
2.2409999 -0.90232658 1.0903685 4294967295
2.2293332 0.49375567 1.0744643 4294967295
2.2219999 -0.89983171 1.0855328 4294967295
2.2341666 -0.90561807 1.0722048 4294967295
2.23125 0.49223119 1.0425842 4294967295
2.2309284 -0.90491354 1.0445368 4294967295
2.2295833 0.49121571 1.015029 4294967295
2.2333639 -0.89782143 1.0088111 4294967295
2.23 -0.90202546 1.0244408 4294967295
2.2322729 0.49533918 0.98408413 4294967295
2.2306318 -0.89432263 0.98448431 4294967295
2.2219999 0.49728686 0.96695817 4294967295
2.2259998 -0.89886457 0.96776283 4294967295
2.2307272 -0.90994436 0.95553851 4294967295
2.233 0.50492954 0.91996241 4294967295
2.2335558 -0.92523038 0.92667603 4294967295
2.2319999 0.50181717 0.89473689 4294967295
2.232625 -0.92678833 0.89397705 4294967295
2.2352726 0.4974196 0.86448729 4294967295
2.2325714 -0.91371346 0.86362475 4294967295
2.2332857 0.49906856 0.83820432 4294967295
2.2317331 -0.89444125 0.83395374 4294967295
2.2233334 -0.90380865 0.84514058 4294967295
2.2333333 0.4998233 0.80601776 4294967295
2.2327499 -0.89445984 0.81435329 4294967295
2.2321427 -0.90392756 0.79809296 4294967295
2.2346666 0.50012159 0.77507198 4294967295
2.2336469 -0.9136771 0.77450097 4294967295
2.2320001 0.49803796 0.74258173 4294967295
2.2325714 -0.91593999 0.74523592 4294967295
2.2268 0.49319455 0.71477735 4294967295
2.2309091 -0.91989636 0.71558821 4294967295
2.2306666 0.49577251 0.68402767 4294967295
2.2319999 -0.91328645 0.68555641 4294967295
2.2309 0.50237471 0.6566363 4294967295
2.2293077 -0.90994233 0.65450066 4294967295
2.2327499 0.96332955 0.62980777 4294967295
2.2327058 0.94610029 0.62750983 4294967295
2.2344 0.91996878 0.61899346 4294967295
2.2348573 0.50090075 0.62657911 4294967295
2.2219999 -0.89983171 0.61123425 4294967295
2.2343333 -0.90524775 0.62556583 4294967295
2.2219999 0.49728686 0.60350114 4294967295
2.2219999 -0.89983165 0.60092342 4294967295
2.2363334 -0.90562892 0.59193933 4294967295
2.2307498 -0.91890472 0.56758976 4294967295
2.228143 0.50013459 0.53541076 4294967295
2.2249999 -0.93072504 0.53780919 4294967295
2.234 0.50515568 0.50545311 4294967295
2.2345002 -0.92389637 0.50287157 4294967295
2.2379999 -0.93227386 0.51842546 4294967295
2.2341111 0.50690031 0.47178453 4294967295
2.233 -0.92385036 0.47180256 4294967295
2.23575 0.54963756 0.43932259 4294967295
2.2334499 0.51876259 0.44561267 4294967295
2.2385001 0.50746673 0.44312224 4294967295
2.2343996 -0.92558008 0.4417063 4294967295
2.2219999 -0.9307642 0.44626087 4294967295
2.2336667 0.54652864 0.4216828 4294967295
2.2298181 0.52584887 0.42155525 4294967295
2.2309999 0.49707025 0.41897842 4294967295
2.236125 0.46541002 0.40558559 4294967295
2.2315714 -0.88593596 0.40673962 4294967295
2.2305999 -0.91002834 0.42061761 4294967295
2.23175 0.43472108 0.39933491 4294967295
2.2304285 0.40601009 0.39127484 4294967295
2.2331998 0.37545457 0.38889372 4294967295
2.2337143 0.34812266 0.39257315 4294967295
2.2246666 0.31465748 0.39455628 4294967295
2.2219999 0.29622552 0.39470667 4294967295
2.2219999 0.25326368 0.39470667 4294967295
2.2228 0.22722915 0.39466155 4294967295
2.2260001 0.1960301 0.39448112 4294967295
2.2386668 0.16601209 0.39290762 4294967295
2.2279999 0.13417184 0.38919902 4294967295
2.2309999 0.10329243 0.39075759 4294967295
2.2291429 0.07255774 0.39579079 4294967295
2.2311997 0.054144081 0.39627141 4294967295
2.227 -0.020880792 0.39442474 4294967295
2.234 -0.046861567 0.39403 4294967295
2.2268 -0.075130306 0.394436 4294967295
2.2307501 -0.10369819 0.39163324 4294967295
2.2375 -0.13520685 0.3886413 4294967295
2.2331998 -0.16548672 0.38889372 4294967295
2.2332001 -0.1945297 0.38889372 4294967295
2.2322857 -0.22548439 0.3889474 4294967295
2.244 -0.26053745 0.39346614 4294967295
2.2412 -0.2888073 0.39362401 4294967295
2.2392001 -0.3145299 0.39373678 4294967295
2.2423334 -0.34358433 0.39356011 4294967295
2.233 -0.37285453 0.39113516 4294967295
2.2303333 -0.40381715 0.38562196 4294967295
2.22875 -0.42942789 0.38528609 4294967295
2.2418334 -0.46313164 0.38838688 4294967295
2.2271667 -0.49540773 0.38494712 4294967295
2.2266665 -0.52715558 0.38411102 4294967295
2.2342 -0.55748916 0.38677284 4294967295
2.2306669 -0.58504421 0.38904244 4294967295
2.2219999 -0.61422151 0.38955125 4294967295
2.2260001 -0.64323145 0.38931644 4294967295
2.2338889 -0.67656964 0.38656199 4294967295
2.2219999 -0.70650345 0.38439584 4294967295
2.2219999 -0.72454745 0.38439584 4294967295
2.2233334 -0.76453805 0.38431445 4294967295
2.2286665 -0.7965284 0.38398898 4294967295
2.2298334 -0.82799011 0.38737291 4294967295
2.2332499 -0.85773975 0.3966648 4294967295
2.2219999 -0.87405461 0.39986208 4294967295
2.2664001 -0.91149765 1.7635956 4294967295
2.2615001 -0.90729403 1.7344052 4294967295
2.2606363 -0.90736401 1.7047373 4294967295
2.2673335 -0.90648955 1.6780601 4294967295
2.2638752 -0.90693134 1.6470377 4294967295
2.257 -0.89829564 1.60763 4294967295
2.2623336 -0.90216088 1.6259379 4294967295
2.257 -0.89829564 1.5971568 4294967295
2.2634001 -0.90503776 1.5844642 4294967295
2.2658892 -0.91467428 1.5546502 4294967295
2.2603333 -0.91418189 1.5259011 4294967295
2.2671251 -0.91941273 1.4941626 4294967295
2.2690001 -0.89780724 1.4554789 4294967295
2.2603335 -0.90835464 1.4658885 4294967295
2.2615716 -0.89561462 1.4366559 4294967295
2.276 -0.90057701 1.4213998 4294967295
2.257 0.49814084 1.4086477 4294967295
2.253 -0.8967036 1.3966088 4294967295
2.276 -0.90057701 1.4055578 4294967295
2.2610002 0.47190285 1.3866022 4294967295
2.2634001 -0.89768416 1.3765093 4294967295
2.2705002 -0.9036687 1.3639019 4294967295
2.2652857 -0.91135842 1.3465581 4294967295
2.2580001 0.54332316 1.3055507 4294967295
2.2648003 -0.91978192 1.3155365 4294967295
2.2592607 0.52728772 1.2843995 4294967295
2.253 0.48331535 1.2711525 4294967295
2.2620001 -0.91011828 1.2879224 4294967295
2.2624288 0.52559745 1.2575445 4294967295
2.2616003 0.4940623 1.2535605 4294967295
2.263 -0.90789562 1.2548087 4294967295
2.253 0.5199067 1.2397884 4294967295
2.265625 0.49849722 1.2286925 4294967295
2.2647777 -0.91364306 1.2242824 4294967295
2.2648335 0.50161821 1.193621 4294967295
2.2610002 -0.89726013 1.1820117 4294967295
2.2646666 -0.90658361 1.1979656 4294967295
2.2636669 0.61517268 1.1609175 4294967295
2.276 0.59650379 1.1705662 4294967295
2.2616665 0.50090891 1.1673443 4294967295
2.2626252 -0.89330441 1.1641183 4294967295
2.2626002 -0.89736766 1.1378779 4294967295
2.2650001 -0.90147972 1.1227529 4294967295
2.2671669 0.49335709 1.0996544 4294967295
2.2640002 -0.90501845 1.1054144 4294967295
2.2543335 0.49406227 1.0754495 4294967295
2.2615716 -0.90985751 1.0745995 4294967295
2.2648335 0.49285266 1.0464983 4294967295
2.2608888 -0.90624475 1.0452938 4294967295
2.2675002 0.49168691 1.015555 4294967295
2.2620001 -0.89765579 1.0091074 4294967295
2.2657502 -0.90176487 1.0230534 4294967295
2.2648335 0.49548337 0.98782706 4294967295
2.2610002 -0.89568907 0.98528934 4294967295
2.2725 -0.90182436 0.97448415 4294967295
2.276 0.50409138 0.94085538 4294967295
2.2598002 -0.91514033 0.95620197 4294967295
2.260143 0.50431442 0.91993099 4294967295
2.2583334 -0.93374956 0.91839695 4294967295
2.2640002 0.50143361 0.89664048 4294967295
2.2610002 -0.92873091 0.8882364 4294967295
2.2678001 -0.9341535 0.90144563 4294967295
2.276 0.49881077 0.86692548 4294967295
2.2657502 -0.91555738 0.86600316 4294967295
2.2570002 0.49988329 0.8325966 4294967295
2.2642224 -0.89357162 0.8347857 4294967295
2.2650001 -0.90147972 0.84948325 4294967295
2.2670002 0.50209814 0.80507255 4294967295
2.263 -0.89805144 0.81507069 4294967295
2.2626002 -0.90682143 0.80083281 4294967295
2.2666001 0.50200957 0.77609694 4294967295
2.2636669 -0.91670537 0.77312624 4294967295
2.26 0.50054771 0.75175303 4294967295
2.2631431 -0.91948688 0.74494362 4294967295
2.2640002 0.4961808 0.71278453 4294967295
2.2637777 -0.92432588 0.71507967 4294967295
2.2634001 0.49709666 0.68540561 4294967295
2.2641251 -0.91622531 0.68125522 4294967295
2.26175 0.50354892 0.65748847 4294967295
2.2638891 -0.91386694 0.65614414 4294967295
2.2636669 0.96878684 0.61994272 4294967295
2.2624002 0.9430421 0.61708611 4294967295
2.2690001 0.92369848 0.61316407 4294967295
2.266 -0.90938479 0.62655985 4294967295
2.276 0.92126739 0.60817075 4294967295
2.276 0.50409138 0.60024971 4294967295
2.266 -0.91063792 0.5990178 4294967295
2.2640002 0.50143361 0.56570989 4294967295
2.2670002 -0.9259426 0.57363558 4294967295
2.257 -0.93495202 0.55506849 4294967295
2.2588334 0.5011605 0.53673822 4294967295
2.2618001 -0.9421882 0.53415012 4294967295
2.2700002 0.50802934 0.51312768 4294967295
2.2590001 -0.92529804 0.49483195 4294967295
2.2695 -0.93617368 0.51050138 4294967295
2.2725 0.50858885 0.46831971 4294967295
2.2580001 -0.92619759 0.47780436 4294967295
2.2705002 -0.93263608 0.46573588 4294967295
2.2690001 0.54840422 0.44243166 4294967295
2.2550001 0.53213906 0.44254509 4294967295
2.2636669 0.50573444 0.4431403 4294967295
2.26 -0.92569834 0.43844008 4294967295
2.2686667 -0.93276095 0.44996735 4294967295
2.2667501 0.55070072 0.42505896 4294967295
2.2590001 0.53701508 0.42669553 4294967295
2.2642858 0.49322426 0.4200851 4294967295
2.2673333 0.47059366 0.40793222 4294967295
2.2646668 0.44376501 0.40280962 4294967295
2.2640002 -0.88531196 0.40599674 4294967295
2.2631431 -0.91123873 0.42089465 4294967295
2.2705002 0.42648172 0.3972398 4294967295
2.266 0.40722373 0.39222562 4294967295
2.2667501 0.37320891 0.3921833 4294967295
2.2736666 0.34004593 0.39706859 4294967295
2.2616668 0.31465012 0.39771742 4294967295
2.2590001 0.28279904 0.3978616 4294967295
2.2618003 0.25429788 0.3977102 4294967295
2.2610002 0.22536381 0.39775345 4294967295
2.2697501 0.19989301 0.39728037 4294967295
2.253 0.15399264 0.39295864 4294967295
2.2630002 0.1362768 0.39239478 4294967295
2.2610002 0.10996549 0.39250755 4294967295
2.2596667 0.081061311 0.39782554 4294967295
2.253 0.042911571 0.398186 4294967295
2.2543335 0.015477166 0.39811391 4294967295
2.2690001 -0.0081122424 0.39732093 4294967295
2.2713335 -0.073994093 0.39719474 4294967295
2.2690001 -0.11866606 0.39205644 4294967295
2.2690001 -0.12393052 0.39205644 4294967295
2.276 -0.19296207 0.39166173 4294967295
2.2645001 -0.24450067 0.3923102 4294967295
2.253 -0.27464959 0.39295864 4294967295
2.2590001 -0.38283396 0.39262033 4294967295
2.2648001 -0.40533453 0.38914758 4294967295
2.2586002 -0.43357116 0.38740253 4294967295
2.2550001 -0.49725741 0.38761389 4294967295
2.2656667 -0.52587855 0.38698769 4294967295
2.2550001 -0.549568 0.38761389 4294967295
2.2697501 -0.59002131 0.39201415 4294967295
2.2621667 -0.6142695 0.39244175 4294967295
2.255667 -0.64395261 0.39280829 4294967295
2.2725 -0.66983861 0.39185908 4294967295
2.2554002 -0.70404667 0.38759041 4294967295
2.2603335 -0.73441648 0.38730079 4294967295
2.2610002 -0.76612633 0.38726163 4294967295
2.2690001 -0.78988564 0.38679197 4294967295
2.266 -0.82825792 0.38696808 4294967295
2.26475 -0.85407364 0.39492136 4294967295
2.2970002 -0.91886604 1.7941107 4294967295
2.2936156 -0.91243941 1.7664748 4294967295
2.2948334 -0.91067863 1.7349864 4294967295
2.2900999 -0.90826726 1.7027233 4294967295
2.2931001 -0.9089312 1.6728909 4294967295
2.2948 -0.90799671 1.6444412 4294967295
2.29175 -0.90613943 1.6143764 4294967295
2.2922857 -0.91537726 1.5851072 4294967295
2.2920001 -0.9188661 1.556673 4294967295
2.2955558 -0.92191416 1.5249997 4294967295
2.296 -0.91913158 1.4946997 4294967295
2.2839999 -0.89844316 1.4510646 4294967295
2.2898574 -0.90604377 1.4701399 4294967295
2.296 0.5298295 1.439975 4294967295
2.296 0.50852102 1.4346478 4294967295
2.2839999 -0.89844316 1.4457653 4294967295
2.30475 -0.90660554 1.4407948 4294967295
2.29 0.49391618 1.4083552 4294967295
2.28 0.47852743 1.3965341 4294967295
2.2922502 -0.90367216 1.4052258 4294967295
2.2939999 -0.90710199 1.3729296 4294967295
2.2963998 -0.92195344 1.3436978 4294967295
2.2952142 -0.91766667 1.3137342 4294967295
2.2944999 0.5454542 1.2823145 4294967295
2.2939093 -0.91103554 1.2838068 4294967295
2.2932498 0.4946079 1.2526304 4294967295
2.2936668 -0.91347045 1.2551324 4294967295
2.2944999 0.50018656 1.2251229 4294967295
2.2932501 -0.91603625 1.2246921 4294967295
2.296 0.59375483 1.1949278 4294967295
2.2915714 0.50145936 1.1935999 4294967295
2.29 -0.89813983 1.1851873 4294967295
2.2975714 -0.90528983 1.199948 4294967295
2.3050001 0.63351822 1.1761816 4294967295
2.309 0.61318851 1.1773202 4294967295
2.2866666 0.49760637 1.1709592 4294967295
2.2886665 -0.89761531 1.1688821 4294967295
2.3004999 -0.90225512 1.1589074 4294967295
2.296375 -0.90663499 1.1350863 4294967295
2.309 0.49532852 1.096961 4294967295
2.2945557 -0.91441953 1.1021982 4294967295
2.2871249 0.49460804 1.0742223 4294967295
2.2953637 -0.914033 1.074665 4294967295
2.2939093 0.49013868 1.0443051 4294967295
2.2890003 -0.90807402 1.0477093 4294967295
2.2975714 0.49287689 1.0141037 4294967295
2.2839999 -0.89844316 1.0006267 4294967295
2.2964287 -0.90407962 1.0169197 4294967295
2.29 0.49656582 0.98859239 4294967295
2.2839999 -0.89844316 0.99267775 4294967295
2.2992857 -0.90444338 0.98251557 4294967295
2.2892857 -0.91797549 0.9607538 4294967295
2.2965999 -0.93535906 0.94572258 4294967295
2.2954998 0.50573164 0.92310923 4294967295
2.2970002 -0.9416188 0.92494416 4294967295
2.2965 0.50241059 0.89404047 4294967295
2.29425 -0.92907363 0.88300765 4294967295
2.2956667 -0.93586719 0.89832759 4294967295
2.28 0.4996874 0.86436117 4294967295
2.2951541 -0.91264355 0.86452061 4294967295
2.2928333 0.50249994 0.83488488 4294967295
2.2906668 -0.89751422 0.83907312 4294967295
2.30375 -0.90219885 0.83107388 4294967295
2.309 0.50604302 0.81034696 4294967295
2.2956002 -0.91258514 0.80386221 4294967295
2.3070002 0.50560468 0.7672767 4294967295
2.2928183 -0.92075998 0.77517498 4294967295
2.3021998 0.50455272 0.74808645 4294967295
2.2951999 -0.9246701 0.74577773 4294967295
2.2985001 0.49973148 0.71566528 4294967295
2.2952499 -0.92881852 0.71274734 4294967295
2.2934284 0.49882069 0.6848743 4294967295
2.2910001 -0.92092848 0.6854322 4294967295
2.3050001 0.51051438 0.64138216 4294967295
2.2946 0.50607592 0.65681028 4294967295
2.2947001 -0.91648644 0.65202719 4294967295
2.2906668 0.96971273 0.61405373 4294967295
2.2850001 0.94877797 0.61382103 4294967295
2.3050001 0.51051438 0.63603419 4294967295
2.2940001 0.50807804 0.62217659 4294967295
2.2934999 -0.91370451 0.62658447 4294967295
2.3070002 0.96860057 0.60937166 4294967295
2.3026667 0.94363981 0.60385156 4294967295
2.2839999 0.9271552 0.60583103 4294967295
2.2839999 0.50586325 0.60848069 4294967295
2.2940001 -0.92046398 0.59610158 4294967295
2.3070002 0.50560468 0.55317134 4294967295
2.2920001 -0.94945061 0.55029446 4294967295
2.2937999 0.50377166 0.53435731 4294967295
2.296 -0.95110762 0.5237118 4294967295
2.2907999 0.51054329 0.50247985 4294967295
2.2920001 0.50763512 0.5183875 4294967295
2.28 -0.92860967 0.49194598 4294967295
2.3 -0.9390372 0.50389868 4294967295
2.2934999 0.51061231 0.47844642 4294967295
2.296 0.50852102 0.46511355 4294967295
2.28 -0.92860967 0.48665598 4294967295
2.2943749 -0.93445224 0.47315204 4294967295
2.2868571 0.5527311 0.4380416 4294967295
2.2927499 0.50579947 0.44524214 4294967295
2.293 -0.92750537 0.43645924 4294967295
2.2952857 -0.93558413 0.4506796 4294967295
2.2820001 0.55042696 0.42838579 4294967295
2.295857 0.49325818 0.42097935 4294967295
2.2972 0.46187812 0.4075256 4294967295
2.3025 0.43783355 0.40085185 4294967295
2.309 0.31746703 0.4005155 4294967295
2.309 0.23282208 0.4005155 4294967295
2.3022001 0.071899399 0.40086737 4294967295
2.3066001 0.045268528 0.40063968 4294967295
2.309 0.026567029 0.4005155 4294967295
2.293 -0.88069129 0.40400741 4294967295
2.2936003 -0.91231525 0.4194074 4294967295
2.2839999 0.42107499 0.39650989 4294967295
2.2853334 0.40367511 0.39291114 4294967295
2.2985001 0.37841514 0.39484423 4294967295
2.2820001 0.35452572 0.39661804 4294967295
2.2880001 0.18557727 0.39629364 4294967295
2.296833 0.16496964 0.39581603 4294967295
2.3050001 0.14417686 0.39537448 4294967295
2.2955 0.10100055 0.39588812 4294967295
2.2809999 -0.021384759 0.3966721 4294967295
2.2839999 -0.045260765 0.39650989 4294967295
2.29125 -0.10124862 0.39611793 4294967295
2.2922502 -0.13852516 0.39074543 4294967295
2.3028336 -0.16583817 0.39014864 4294967295
2.2850001 -0.1937367 0.39115423 4294967295
2.2873333 -0.22309366 0.39102268 4294967295
2.2992501 -0.26160505 0.39568537 4294967295
2.2908332 -0.28720242 0.39614043 4294967295
2.2815998 -0.31518638 0.39663965 4294967295
2.2819998 -0.34436688 0.39661804 4294967295
2.2848001 -0.37396309 0.39646664 4294967295
2.2962499 -0.40776393 0.3918592 4294967295
2.3032002 -0.4357357 0.39012796 4294967295
2.2953331 -0.46353832 0.39057156 4294967295
2.2962501 -0.49437648 0.39051989 4294967295
2.3070002 -0.52478421 0.38991371 4294967295
2.2983334 -0.55478317 0.39040241 4294967295
2.29125 -0.58102453 0.39214116 4294967295
2.3076668 -0.61862093 0.39523029 4294967295
2.3032002 -0.64415711 0.39547178 4294967295
2.2934999 -0.67329824 0.39334893 4294967295
2.2946 -0.70565122 0.3906129 4294967295
2.309 -0.73148727 0.38980094 4294967295
2.309 -0.76630956 0.38980094 4294967295
2.28 -0.80693996 0.38614619 4294967295
2.28 -0.8175199 0.38614619 4294967295
2.2937999 -0.85118014 0.39278331 4294967295
2.3285556 -0.91354746 1.8161895 4294967295
2.3255453 -0.91230798 1.7956461 4294967295
2.3275001 -0.91081643 1.7651216 4294967295
2.3258004 -0.91218114 1.7352167 4294967295
2.3279333 -0.90994871 1.7058883 4294967295
2.3253076 -0.91094404 1.6745503 4294967295
2.3278003 -0.91026139 1.648756 4294967295
2.3273332 -0.91503251 1.6145078 4294967295
2.3287499 -0.92143601 1.5854638 4294967295
2.3264999 -0.92020845 1.5554199 4294967295
2.32884 -0.91951782 1.5250889 4294967295
2.327476 -0.91089582 1.4955237 4294967295
2.3329999 0.54378062 1.4548004 4294967295
2.3316667 0.51641119 1.4524586 4294967295
2.3253078 -0.90554816 1.4649887 4294967295
2.3169999 0.52661175 1.4483893 4294967295
2.329 0.49779916 1.4261668 4294967295
2.3267777 -0.90986055 1.4325061 4294967295
2.3150001 0.4858686 1.412673 4294967295
2.3369999 0.47964612 1.4184475 4294967295
2.3268666 -0.90521306 1.4041114 4294967295
2.329 -0.91343284 1.3748403 4294967295
2.3276086 -0.91862619 1.3434472 4294967295
2.3272221 -0.91302401 1.3171844 4294967295
2.323 0.55222934 1.2810092 4294967295
2.3276668 0.49393234 1.2798415 4294967295
2.3276668 -0.91291285 1.2852345 4294967295
2.325 0.55809915 1.2466078 4294967295
2.3289998 0.49691245 1.25596 4294967295
2.3280771 -0.91909605 1.2550378 4294967295
2.313 0.57668489 1.2267579 4294967295
2.3236666 0.50205863 1.225545 4294967295
2.3268948 -0.9135865 1.2241716 4294967295
2.3256667 0.61581647 1.1883645 4294967295
2.3257997 0.5005396 1.1955879 4294967295
2.3334444 -0.89863855 1.1939061 4294967295
2.3216665 -0.90248042 1.1979914 4294967295
2.3169999 0.63144052 1.1795976 4294967295
2.313 0.49618661 1.1730924 4294967295
2.3262503 -0.90324277 1.164005 4294967295
2.335 0.49548846 1.122417 4294967295
2.330333 -0.90815949 1.1342063 4294967295
2.325 0.49604976 1.1056688 4294967295
2.3289998 -0.91377777 1.1054718 4294967295
2.3239999 0.49449009 1.0744022 4294967295
2.3274448 -0.9110142 1.0751617 4294967295
2.3369999 0.49049065 1.0497351 4294967295
2.3228183 -0.91076547 1.0450493 4294967295
2.3236666 0.49308351 1.0170392 4294967295
2.3296669 -0.90603667 1.0138404 4294967295
2.3225 0.49552155 0.98986644 4294967295
2.3278236 -0.90581876 0.98220479 4294967295
2.323 0.50505155 0.94414252 4294967295
2.33076 -0.91941917 0.95701993 4294967295
2.3275454 -0.93520111 0.94693792 4294967295
2.3267143 0.50374508 0.92670429 4294967295
2.3369999 -0.92290628 0.92863858 4294967295
2.3300369 -0.93875498 0.92501652 4294967295
2.3265998 0.50125349 0.89568204 4294967295
2.3369999 -0.8976025 0.8816458 4294967295
2.3332856 -0.91762739 0.89325917 4294967295
2.3242002 -0.9347403 0.89962244 4294967295
2.3192856 0.50214148 0.86660367 4294967295
2.3347142 -0.89826858 0.86272538 4294967295
2.3242502 -0.90819395 0.86922812 4294967295
2.3267148 0.50375235 0.83454335 4294967295
2.329 -0.90533209 0.8359735 4294967295
2.329 0.50655586 0.80245245 4294967295
2.3276665 -0.91861182 0.80158925 4294967295
2.3267777 0.50572813 0.7744745 4294967295
2.3261113 -0.92039114 0.77472472 4294967295
2.3294003 0.50240004 0.74536204 4294967295
2.3280001 -0.92383885 0.74622536 4294967295
2.319 -0.9310357 0.7335875 4294967295
2.3276665 0.49992502 0.71637654 4294967295
2.3306 -0.92758137 0.70870709 4294967295
2.3263333 -0.93172371 0.71896642 4294967295
2.3271818 0.49774843 0.68427134 4294967295
2.3271334 -0.92295378 0.68574184 4294967295
2.3329999 0.51130283 0.64826345 4294967295
2.325 0.50595027 0.66401297 4294967295
2.3273637 -0.91523552 0.65606147 4294967295
2.326818 -0.9177314 0.62682146 4294967295
2.3270001 0.97051239 0.6020298 4294967295
2.3221431 0.95225763 0.59917349 4294967295
2.3369999 0.51217949 0.59968936 4294967295
2.3169999 -0.92486376 0.59900743 4294967295
2.3329999 0.51130289 0.57249439 4294967295
2.3289998 0.50681448 0.55617481 4294967295
2.3236668 -0.9517889 0.56328446 4294967295
2.3329999 -0.96102172 0.55083638 4294967295
2.3282001 0.50321871 0.53241062 4294967295
2.3210001 -0.95876187 0.52643549 4294967295
2.3263333 -0.96186566 0.5345434 4294967295
2.3232858 0.51147521 0.49834505 4294967295
2.3315001 0.50691211 0.50752217 4294967295
2.3280771 -0.94028085 0.50256675 4294967295
2.3225999 0.51117021 0.48171747 4294967295
2.3312857 0.50705683 0.47278538 4294967295
2.335 -0.92662883 0.48585165 4294967295
2.328294 -0.93428177 0.47355357 4294967295
2.313 0.57936817 0.43787438 4294967295
2.3260665 0.50293195 0.44532096 4294967295
2.3310001 -0.92266172 0.43893379 4294967295
2.325923 -0.93442917 0.45236886 4294967295
2.3284287 0.49022758 0.42112082 4294967295
2.3285 0.46708032 0.41166586 4294967295
2.3274 0.44095123 0.40388814 4294967295
2.3369999 0.36306798 0.4044888 4294967295
2.3261998 0.34518886 0.40233654 4294967295
2.3329999 0.31334463 0.40391988 4294967295
2.3209999 0.28865382 0.40144372 4294967295
2.325 0.25330183 0.40239865 4294967295
2.3257999 0.22425742 0.40235725 4294967295
2.3269999 0.20764187 0.40229514 4294967295
2.3310001 0.075481862 0.40388939 4294967295
2.3369999 0.04586703 0.4044888 4294967295
2.3169999 0.010531567 0.40010151 4294967295
2.3258886 -0.077264659 0.40205142 4294967295
2.3319998 -0.32349843 0.40339199 4294967295
2.3369999 -0.33911189 0.4044888 4294967295
2.3369999 -0.37164536 0.4044888 4294967295
2.3271818 -0.88743526 0.40792492 4294967295
2.329 -0.91280347 0.42151305 4294967295
2.329 0.42666465 0.39948052 4294967295
2.327909 0.40608582 0.39709175 4294967295
2.3274002 0.3750895 0.39956334 4294967295
2.3210001 0.27172789 0.39989451 4294967295
2.3265998 0.19140257 0.39960474 4294967295
2.3329999 0.1648736 0.39927354 4294967295
2.3265998 0.13258137 0.39745811 4294967295
2.3283331 0.10692004 0.39862061 4294967295
2.3283336 -0.016434532 0.39951503 4294967295
2.3282001 -0.046132937 0.39952195 4294967295
2.3210001 -0.06214932 0.39989451 4294967295
2.3269999 -0.10730505 0.39868963 4294967295
2.3272858 -0.13329497 0.39494416 4294967295
2.3362 -0.1655473 0.39368761 4294967295
2.3283331 -0.19469401 0.39411288 4294967295
2.329 -0.22447388 0.39407688 4294967295
2.3263333 -0.25392309 0.39692754 4294967295
2.3283336 -0.28651783 0.39951503 4294967295
2.323 -0.31282189 0.399791 4294967295
2.3216667 -0.3449693 0.39986002 4294967295
2.3218 -0.37461886 0.39985311 4294967295
2.3269999 -0.40514648 0.39689147 4294967295
2.3322001 -0.43581897 0.39390385 4294967295
2.3329999 -0.465736 0.39386058 4294967295
2.3322001 -0.49533737 0.39390385 4294967295
2.3329999 -0.52527857 0.39386058 4294967295
2.329 -0.55679226 0.39407685 4294967295
2.3281999 -0.58630955 0.39683029 4294967295
2.3259997 -0.61476195 0.39762333 4294967295
2.3323333 -0.6441803 0.39930803 4294967295
2.3280001 -0.67672777 0.39751634 4294967295
2.3266001 -0.70467985 0.39420664 4294967295
2.3284285 -0.73761034 0.39257449 4294967295
2.3289998 -0.76422673 0.39228803 4294967295
2.3210001 -0.79181707 0.390028 4294967295
2.323 -0.82484949 0.3890115 4294967295
2.329 -0.85549301 0.39468348 4294967295
2.329 -0.87291515 0.39948052 4294967295
2.3670001 -0.90912509 1.8418691 4294967295
2.3516665 -0.90686446 1.8235989 4294967295
2.3525004 -0.9051041 1.7959492 4294967295
2.3513999 -0.90857923 1.7649641 4294967295
2.348 -0.90999228 1.7359157 4294967295
2.3511429 -0.90926588 1.7036526 4294967295
2.3495002 -0.9098925 1.6780854 4294967295
2.3537273 -0.91146588 1.6442951 4294967295
2.3538461 -0.91582549 1.6139517 4294967295
2.3540666 -0.91470206 1.5833924 4294967295
2.3670001 -0.89814138 1.5453095 4294967295
2.3517725 -0.90994978 1.5543307 4294967295
2.3585455 -0.89741427 1.5237396 4294967295
2.3462856 -0.90660751 1.5277805 4294967295
2.3583999 -0.89815325 1.5021808 4294967295
2.3495455 -0.90191543 1.4951028 4294967295
2.3643334 0.52731371 1.4710133 4294967295
2.3523002 -0.90729225 1.465256 4294967295
2.342 0.49697387 1.4312373 4294967295
2.3629999 0.47949982 1.428443 4294967295
2.3523333 -0.90802389 1.4352422 4294967295
2.3540001 -0.90263397 1.4051185 4294967295
2.3529999 -0.90979892 1.3739448 4294967295
2.3508947 -0.90550768 1.3459852 4294967295
2.3544998 0.56518036 1.3077142 4294967295
2.3524666 -0.90643895 1.3163222 4294967295
2.3499999 0.49321905 1.2762303 4294967295
2.3524549 -0.91196716 1.2864344 4294967295
2.3670001 0.56818098 1.2652254 4294967295
2.3578334 0.49850968 1.2541194 4294967295
2.352154 -0.91600579 1.2542408 4294967295
2.3670001 0.62309945 1.2103071 4294967295
2.3526666 0.5016523 1.2237179 4294967295
2.3604286 -0.89563662 1.2162138 4294967295
2.3520911 -0.90685529 1.229275 4294967295
2.3479998 0.64260805 1.1938703 4294967295
2.3516667 0.62452239 1.1985646 4294967295
2.3500001 0.49685094 1.1998936 4294967295
2.3547142 -0.89541733 1.1942341 4294967295
2.3562727 -0.89704669 1.1649342 4294967295
2.346 -0.90105933 1.1660807 4294967295
2.3563747 -0.8937571 1.135108 4294967295
2.3454285 -0.90161604 1.1340529 4294967295
2.346 0.49782267 1.0953202 4294967295
2.355875 -0.89459288 1.1059369 4294967295
2.3439999 -0.90300804 1.1057067 4294967295
2.3552001 0.49430072 1.0756991 4294967295
2.3585 -0.89764231 1.0874414 4294967295
2.3505332 -0.90424609 1.076051 4294967295
2.3527999 0.49161002 1.0424299 4294967295
2.3502729 -0.91062587 1.0457989 4294967295
2.3499999 0.49321908 1.0145078 4294967295
2.3548889 -0.90446562 1.015547 4294967295
2.3500001 0.49321905 0.99271178 4294967295
2.3555455 -0.89676982 0.98438424 4294967295
2.346 -0.90105927 0.98373628 4294967295
2.342 0.49697387 0.94219184 4294967295
2.3594003 -0.89744228 0.95571989 4294967295
2.3473887 -0.9073329 0.95284098 4294967295
2.3531668 0.49660525 0.92509186 4294967295
2.3670001 -0.89814138 0.91374755 4294967295
2.3490555 -0.91098791 0.92499352 4294967295
2.3586001 0.50049633 0.89591312 4294967295
2.3543634 -0.89681369 0.89477444 4294967295
2.345 -0.90611136 0.90124619 4294967295
2.3439999 0.5028367 0.86369437 4294967295
2.3524446 -0.89564544 0.8688699 4294967295
2.3525 -0.90081918 0.85129523 4294967295
2.352222 0.50216281 0.8373062 4294967295
2.3540001 -0.90739906 0.83402562 4294967295
2.3516667 0.50538695 0.80480039 4294967295
2.3532 -0.91746688 0.80225116 4294967295
2.3507142 0.50193465 0.77390933 4294967295
2.3519332 -0.91423821 0.77482516 4294967295
2.3500001 0.49867144 0.74462128 4294967295
2.3532224 -0.91837633 0.7449311 4294967295
2.346 0.49782267 0.71703035 4294967295
2.3522859 -0.92490232 0.71560496 4294967295
2.3499999 0.49867147 0.6737355 4294967295
2.3520999 -0.91484696 0.68370318 4294967295
2.3670001 0.51326257 0.65013897 4294967295
2.3473332 0.50718051 0.65995008 4294967295
2.3516667 -0.90731668 0.6547491 4294967295
2.3446665 0.51385975 0.62443095 4294967295
2.34975 -0.91611874 0.62943316 4294967295
2.346 0.97681725 0.59455317 4294967295
2.359 -0.93889207 0.59222966 4294967295
2.3570001 0.50744295 0.55661917 4294967295
2.3499999 -0.9462148 0.57832307 4294967295
2.3553333 0.49858049 0.53412908 4294967295
2.342 -0.95929521 0.52378613 4294967295
2.3546667 -0.96447349 0.5292598 4294967295
2.3550832 0.50247324 0.50466818 4294967295
2.3543332 -0.92184389 0.49346134 4294967295
2.3521538 -0.94244939 0.50911337 4294967295
2.3565001 0.50277507 0.47460967 4294967295
2.3616002 -0.89444071 0.46902955 4294967295
2.3504059 -0.91414756 0.47489768 4294967295
2.3554666 0.49435002 0.44182375 4294967295
2.365 0.47715974 0.43054086 4294967295
2.3573334 -0.89172304 0.44450769 4294967295
2.3463075 -0.91101271 0.44716465 4294967295
2.346 0.48557103 0.42445564 4294967295
2.3555331 0.46485201 0.41961148 4294967295
2.3554547 0.43573022 0.40855235 4294967295
2.362 0.40531409 0.40599906 4294967295
2.354111 0.37755418 0.40668583 4294967295
2.3548334 0.34398893 0.40907097 4294967295
2.3611999 0.31476903 0.40877104 4294967295
2.352 0.28191262 0.40594411 4294967295
2.3588333 0.25699177 0.4079769 4294967295
2.3573334 0.22401631 0.40895319 4294967295
2.3553002 0.19376561 0.40632835 4294967295
2.3528335 0.16535991 0.40462151 4294967295
2.3565001 0.13644831 0.40352497 4294967295
2.3536 0.10627735 0.40366831 4294967295
2.3581667 0.076359212 0.40800831 4294967295
2.365 0.054645054 0.40859205 4294967295
2.3466666 0.016102573 0.40401101 4294967295
2.3559999 -0.013895646 0.40354967 4294967295
2.3493333 -0.04382614 0.4038792 4294967295
2.3575711 -0.07484214 0.40738943 4294967295
2.3568573 -0.10295144 0.40507507 4294967295
2.3670001 -0.12379135 0.40300599 4294967295
2.3600001 -0.26030526 0.40335196 4294967295
2.350143 -0.28571475 0.40462241 4294967295
2.3536251 -0.31218022 0.40709019 4294967295
2.3552499 -0.3472122 0.40769285 4294967295
2.354125 -0.37640986 0.40706548 4294967295
2.3558333 -0.40470666 0.40447325 4294967295
2.3643334 -0.56250131 0.4031378 4294967295
2.355 -0.58486038 0.40359911 4294967295
2.3524287 -0.6173737 0.40451077 4294967295
2.3521669 -0.64692867 0.40465444 4294967295
2.3508 -0.67382783 0.40380672 4294967295
2.3580003 -0.70324731 0.40345085 4294967295
2.3670001 -0.72514826 0.40300599 4294967295
2.3564999 -0.869546 0.40352497 4294967295
2.3545885 -0.88731337 0.41648099 4294967295
2.3439999 -0.90300804 0.42317748 4294967295
2.3469999 -0.13636243 0.39854908 4294967295
2.3573332 -0.16432033 0.39801437 4294967295
2.3473332 -0.19628049 0.39853185 4294967295
2.3467999 -0.2261913 0.39855945 4294967295
2.3433332 -0.24759997 0.39873883 4294967295
2.346 -0.41662154 0.39860082 4294967295
2.3515999 -0.43398997 0.39831105 4294967295
2.3540001 -0.4644666 0.39818686 4294967295
2.3508 -0.49382985 0.39835244 4294967295
2.3506668 -0.5237999 0.39835936 4294967295
2.3453333 -0.55525327 0.39863533 4294967295
2.342 -0.57349259 0.39880782 4294967295
2.3435998 -0.70439118 0.39872503 4294967295
2.3499999 -0.73357856 0.39839384 4294967295
2.3604 -0.76421046 0.39785567 4294967295
2.3532856 -0.79462194 0.39511478 4294967295
2.3453333 -0.8273381 0.39319378 4294967295
2.3555 -0.85823327 0.39810923 4294967295
2.3930001 1.7514772 1.852913 4294967295
2.3935716 1.7352343 1.8527383 4294967295
2.3943338 1.4450644 1.8515722 4294967295
2.3921764 1.4273242 1.850046 4294967295
2.3958571 1.2516923 1.8508368 4294967295
2.3943336 1.0858262 1.8515784 4294967295
2.3861248 1.0710403 1.8470132 4294967295
2.3844445 1.0321553 1.8466945 4294967295
2.3905001 -0.90982395 1.8522122 4294967295
2.3970001 1.2677827 1.8217782 4294967295
2.3964286 1.2511966 1.8297073 4294967295
2.3970001 1.0814741 1.836377 4294967295
2.3872221 1.0635233 1.8279083 4294967295
2.3791873 1.0382268 1.8257087 4294967295
2.3804445 -0.90630019 1.8266486 4294967295
2.3970001 1.2939215 1.7996715 4294967295
2.3969998 1.2799752 1.8021528 4294967295
2.3847778 -0.9091863 1.7939841 4294967295
2.3748333 -0.91213357 1.7608219 4294967295
2.3824 -0.9150399 1.7343976 4294967295
2.3729999 -0.91142946 1.7020769 4294967295
2.3787143 -0.91362429 1.6717731 4294967295
2.3885999 -0.91742122 1.6433229 4294967295
2.3811002 -0.91618496 1.6138229 4294967295
2.383889 -0.91068327 1.5833437 4294967295
2.3885999 -0.89746594 1.550234 4294967295
2.3800001 -0.90306365 1.5605961 4294967295
2.3835998 -0.89668888 1.5276051 4294967295
2.3889999 -0.9009462 1.5104961 4294967295
2.3710001 -0.89965916 1.4975321 4294967295
2.3834002 -0.90435213 1.492703 4294967295
2.3759999 0.54277772 1.4775426 4294967295
2.3824999 0.52213627 1.4746192 4294967295
2.3848751 -0.91252309 1.4672757 4294967295
2.3759999 0.49316323 1.4389535 4294967295
2.38325 -0.90705699 1.4369044 4294967295
2.3842499 -0.9060635 1.4047881 4294967295
2.384222 -0.90712374 1.375123 4294967295
2.3710001 -0.89965916 1.3435006 4294967295
2.3848748 -0.90283829 1.3462453 4294967295
2.3842502 -0.91021341 1.3135051 4294967295
2.3826251 -0.91650313 1.2867103 4294967295
2.3759999 0.49867594 1.2625463 4294967295
2.3826251 -0.91580564 1.2556231 4294967295
2.3889999 0.63997656 1.2111802 4294967295
2.3873332 0.50105453 1.2217922 4294967295
2.3852501 -0.89537603 1.2225493 4294967295
2.3889999 -0.90371764 1.2361231 4294967295
2.3847001 -0.89544207 1.1933247 4294967295
2.3825998 -0.89520252 1.1650889 4294967295
2.3710001 0.49762657 1.1262062 4294967295
2.3843999 -0.89090222 1.1351614 4294967295
2.3803332 0.49958542 1.1064912 4294967295
2.382 -0.89226764 1.1056478 4294967295
2.3800001 0.49399349 1.0732975 4294967295
2.3710001 -0.89965916 1.0849477 4294967295
2.385 -0.90575022 1.0780108 4294967295
2.38325 0.49466807 1.040839 4294967295
2.3821666 -0.91402328 1.0461416 4294967295
2.3970001 0.497522 1.0169902 4294967295
2.3840001 -0.89903051 1.0022953 4294967295
2.3834 -0.90546215 1.0160031 4294967295
2.3850713 -0.89430964 0.98433721 4294967295
2.3822999 -0.89620042 0.95773739 4294967295
2.3840001 0.50035495 0.91104412 4294967295
2.3765717 -0.89940268 0.9231984 4294967295
2.3889999 -0.9009462 0.93403578 4294967295
2.3840001 0.50310552 0.89451063 4294967295
2.3827777 -0.89613199 0.8930366 4294967295
2.3798001 0.50499499 0.86619866 4294967295
2.3787501 -0.89706564 0.87156433 4294967295
2.3889999 -0.90371764 0.86197829 4294967295
2.3775001 0.50450695 0.82446921 4294967295
2.3829999 -0.91342664 0.83531451 4294967295
2.3889999 0.50694722 0.81763518 4294967295
2.3800001 -0.91871631 0.80362922 4294967295
2.3770001 0.50072455 0.77479237 4294967295
2.3839002 -0.91339338 0.77330309 4294967295
2.375 0.49846607 0.74425107 4294967295
2.3835714 -0.91943115 0.74348998 4294967295
2.3954003 0.50274765 0.71616125 4294967295
2.3839164 -0.92298514 0.71468312 4294967295
2.38325 -0.91328174 0.6862793 4294967295
2.3905001 0.51835829 0.6431039 4294967295
2.3800001 0.507788 0.66466916 4294967295
2.3801999 -0.90977865 0.65526748 4294967295
2.3710001 -0.91616255 0.63385552 4294967295
2.3840001 -0.94606143 0.59301019 4294967295
2.3889999 0.50694722 0.55157655 4294967295
2.3710001 -0.97117376 0.55133867 4294967295
2.3829997 0.4936904 0.53029823 4294967295
2.3864999 -0.97197628 0.53308421 4294967295
2.3842223 0.49855119 0.50724971 4294967295
2.3847001 -0.91590756 0.49564049 4294967295
2.3847144 -0.9443751 0.51200342 4294967295
2.3881249 0.49844229 0.47053072 4294967295
2.3827271 -0.89253467 0.47509381 4294967295
2.3792861 0.48910347 0.44972906 4294967295
2.3849998 0.46597072 0.4408704 4294967295
2.3908999 0.43523201 0.44343856 4294967295
2.3952222 0.41317317 0.43928057 4294967295
2.3960588 -0.7345435 0.44898701 4294967295
2.3970001 -0.75380409 0.44601476 4294967295
2.3833635 -0.88523817 0.44493726 4294967295
2.3787501 0.45509276 0.42726728 4294967295
2.3801363 0.4337714 0.42144603 4294967295
2.3901815 0.40560108 0.42127874 4294967295
2.3913333 0.37659001 0.41614404 4294967295
2.3929999 0.34678319 0.41671824 4294967295
2.3935716 0.31750157 0.4143886 4294967295
2.3710001 0.28583327 0.4083094 4294967295
2.3906 0.2521506 0.41293269 4294967295
2.3889999 0.22426002 0.41300437 4294967295
2.3970001 0.19442303 0.41264606 4294967295
2.3820999 0.16445906 0.41056168 4294967295
2.3921669 0.13759418 0.40823922 4294967295
2.3860002 0.10222188 0.40760279 4294967295
2.3722501 0.038298473 0.40825051 4294967295
2.3926668 0.017338721 0.40728876 4294967295
2.3878334 -0.044518694 0.40751642 4294967295
2.3970001 -0.083649434 0.41264606 4294967295
2.385 -0.10702565 0.40876219 4294967295
2.3747501 -0.13797556 0.40262294 4294967295
2.3926668 -0.15845211 0.40173736 4294967295
2.385 -0.19666497 0.4021163 4294967295
2.3840001 -0.22424358 0.40216571 4294967295
2.3808002 -0.25380689 0.40454477 4294967295
2.3843334 -0.28696248 0.4086082 4294967295
2.3921819 -0.31532604 0.41538981 4294967295
2.392 -0.34557915 0.41590351 4294967295
2.3889999 -0.37437186 0.41300437 4294967295
2.3838573 -0.40358332 0.41008192 4294967295
2.3824 -0.43413487 0.40335709 4294967295
2.395 -0.46423036 0.40162203 4294967295
2.3930001 -0.49713248 0.40172088 4294967295
2.3821666 -0.52527916 0.40225634 4294967295
2.3824 -0.55355453 0.40446937 4294967295
2.3882222 -0.58664066 0.40873399 4294967295
2.385875 -0.61189944 0.41038942 4294967295
2.3710001 -0.64220643 0.4083094 4294967295
2.3792 -0.6764518 0.40792313 4294967295
2.3891001 -0.70973706 0.40967947 4294967295
2.3857 -0.73640931 0.40762714 4294967295
2.3889999 -0.75960255 0.40191859 4294967295
2.3824999 -0.86808437 0.40223986 4294967295
2.3848181 -0.88175189 0.41721904 4294967295
2.3734999 -0.80423945 0.39717779 4294967295
2.3776002 -0.82493705 0.39696562 4294967295
2.3743334 -0.84583145 0.39713466 4294967295
2.4290001 2.1723294 1.8764933 4294967295
2.4290001 1.9985622 1.8727362 4294967295
2.4290001 1.9074517 1.8764933 4294967295
2.4290001 1.8539127 1.8736756 4294967295
2.4254003 1.8157188 1.8733557 4294967295
2.4260001 1.7324768 1.8729395 4294967295
2.4200003 1.4736586 1.8714674 4294967295
2.4260001 1.389124 1.8729395 4294967295
2.4289999 1.2987968 1.8736756 4294967295
