# .PCD v0.7 - Point Cloud Data file format
VERSION 0.7
FIELDS x y z rgb
SIZE 4 4 4 4
TYPE F F F U
COUNT 1 1 1 1
WIDTH 1126
HEIGHT 1
VIEWPOINT 0 0 0 1 0 0 0
POINTS 1126
DATA ascii
1.8769999 -0.9323349 1.2539904 4294967295
1.8730714 -0.92769235 1.2242454 4294967295
1.8843333 -0.93067837 1.2283812 4294967295
1.8691667 -0.92824441 1.2017312 4294967295
1.8804375 -0.93519342 1.1908405 4294967295
1.8778822 -0.93935639 1.1655622 4294967295
1.875 -0.92895907 1.123363 4294967295
1.8763638 -0.9339819 1.1376449 4294967295
1.8747332 -0.91983163 1.1050085 4294967295
1.8735714 -0.9130398 1.0729034 4294967295
1.862 0.52040213 1.0371089 4294967295
1.8749999 -0.91372603 1.0464141 4294967295
1.875 0.51315963 1.0211428 4294967295
1.8742001 0.50466901 1.007441 4294967295
1.8746874 -0.90487945 1.0145252 4294967295
1.8796667 0.50098163 0.98314011 4294967295
1.8675715 -0.89804947 0.98294461 4294967295
1.8798891 -0.90181434 0.98295617 4294967295
1.8778334 0.49722275 0.95690238 4294967295
1.8761431 -0.91596049 0.95384049 4294967295
1.8692501 0.49748656 0.92963004 4294967295
1.8763915 -0.91903561 0.92752779 4294967295
1.8763332 0.50457346 0.89499563 4294967295
1.8768947 -0.92095739 0.89454275 4294967295
1.8725456 0.50159973 0.86227477 4294967295
1.87655 -0.92340851 0.86589205 4294967295
1.8688571 0.4925833 0.83521909 4294967295
1.868 -0.92838717 0.84663177 4294967295
1.8785 -0.94002634 0.83373404 4294967295
1.8743846 0.49708939 0.80370152 4294967295
1.8767276 -0.94050145 0.8036803 4294967295
1.8789166 0.50150746 0.77770412 4294967295
1.8726667 -0.92750186 0.76922363 4294967295
1.88125 -0.93206161 0.7827391 4294967295
1.8775001 0.84708369 0.73429835 4294967295
1.8675998 0.82572418 0.73273849 4294967295
1.8733749 0.79539114 0.73581958 4294967295
1.8724999 0.76853049 0.73752373 4294967295
1.8635 0.7478106 0.73270726 4294967295
1.8746001 0.50086188 0.74266648 4294967295
1.8727857 -0.92847633 0.74930274 4294967295
1.885 -0.93173456 0.73953664 4294967295
1.8838334 0.82154334 0.72847372 4294967295
1.888 0.80363685 0.72893482 4294967295
1.8833333 0.76232976 0.72841841 4294967295
1.873 0.74945182 0.72727489 4294967295
1.88275 0.49999166 0.72180635 4294967295
1.867 -0.92933953 0.72444499 4294967295
1.8794117 -0.93396258 0.71414244 4294967295
1.8788573 -0.92775053 0.67374241 4294967295
1.8766841 -0.93505317 0.68872446 4294967295
1.8740001 0.50417602 0.64258564 4294967295
1.8736191 -0.92412901 0.65488279 4294967295
1.8700001 0.50094444 0.62717462 4294967295
1.8755715 -0.92488497 0.62455523 4294967295
1.8733751 0.50347638 0.59635782 4294967295
1.8696667 -0.92740494 0.59532642 4294967295
1.8884001 -0.93122911 0.59315264 4294967295
1.8723334 0.7897262 0.55777991 4294967295
1.8787143 0.50327688 0.56353307 4294967295
1.8662221 -0.92798573 0.566315 4294967295
1.8832858 -0.93182427 0.56360942 4294967295
1.8738823 0.80196565 0.5360679 4294967295
1.8761427 0.49823701 0.53609991 4294967295
1.8679166 -0.92798311 0.53421164 4294967295
1.8858891 -0.93096054 0.53860474 4294967295
1.8813751 0.81117964 0.50504971 4294967295
1.867 0.80769563 0.51218885 4294967295
1.8792857 0.49907166 0.50558114 4294967295
1.874375 -0.92538154 0.50453275 4294967295
1.886 -0.93004555 0.51648521 4294967295
1.8769 0.81501794 0.47426286 4294967295
1.8838333 0.49954888 0.47352102 4294967295
1.875684 -0.92013347 0.47447062 4294967295
1.8687499 0.8165766 0.44662163 4294967295
1.8744705 0.49342772 0.44603258 4294967295
1.8750386 -0.9241153 0.44321656 4294967295
1.8763332 0.81680685 0.42001349 4294967295
1.862 0.80985272 0.4063659 4294967295
1.8728571 0.49487919 0.41438639 4294967295
1.8759444 -0.91346335 0.41808724 4294967295
1.875 0.51098448 0.37076998 4294967295
1.8726667 0.50455511 0.38543123 4294967295
1.875 -0.91721165 0.38295573 4294967295
1.8890001 0.52356547 0.34335887 4294967295
1.8783332 -0.91609013 0.35598993 4294967295
1.867 0.52179956 0.33675262 4294967295
1.876 -0.91857785 0.32498881 4294967295
1.8720001 -0.92603034 0.29863256 4294967295
1.886 -0.93223 0.29332769 4294967295
1.8700001 -0.91955501 0.25316128 4294967295
1.8875 -0.93297666 0.25810412 4294967295
1.873 0.51478517 0.24707729 4294967295
1.8751665 0.49218664 0.2409648 4294967295
1.8857143 0.46576351 0.23866186 4294967295
1.8732001 0.43224013 0.23618278 4294967295
1.87475 0.40866992 0.2315982 4294967295
1.8629999 0.38236234 0.22908327 4294967295
1.8738 0.34892392 0.23261952 4294967295
1.8647999 0.31003103 0.23312885 4294967295
1.8648332 0.28540006 0.23312372 4294967295
1.8705001 0.26018509 0.23225197 4294967295
1.8688332 0.22527869 0.22817236 4294967295
1.8770001 0.19575895 0.22962967 4294967295
1.8851429 0.16384241 0.22999939 4294967295
1.8755001 0.13686793 0.23257852 4294967295
1.8806 0.10237592 0.23419756 4294967295
1.8758334 0.077424742 0.23070958 4294967295
1.8786668 0.04703005 0.22663683 4294967295
1.8732001 0.019405689 0.22749051 4294967295
1.8790001 -0.024156298 0.2309444 4294967295
1.882 -0.035112429 0.23048288 4294967295
1.8635 -0.11043675 0.22900522 4294967295
1.8753333 -0.13508254 0.22715738 4294967295
1.8852857 -0.16422427 0.22560325 4294967295
1.8782002 -0.19231524 0.22670969 4294967295
1.862 -0.23562549 0.22923943 4294967295
1.8890001 -0.26972181 0.22940603 4294967295
1.88325 -0.29293716 0.23029059 4294967295
1.8763332 -0.31574968 0.22919142 4294967295
1.8745002 -0.34379825 0.22947541 4294967295
1.87325 -0.3739264 0.23182893 4294967295
1.8635 -0.40118837 0.23332882 4294967295
1.8651667 -0.43294176 0.23307243 4294967295
1.8823333 -0.46312982 0.23043159 4294967295
1.8646666 -0.49987385 0.22882304 4294967295
1.8665 -0.52344471 0.22853673 4294967295
1.862 -0.55963731 0.22923943 4294967295
1.8728001 -0.58463633 0.22755298 4294967295
1.8775715 -0.61220932 0.22680786 4294967295
1.8761429 -0.64655733 0.23138392 4294967295
1.8713332 -0.67317295 0.23212376 4294967295
1.8807144 -0.70611823 0.23006347 4294967295
1.8685713 -0.73375779 0.22883937 4294967295
1.868 -0.76298112 0.22830248 4294967295
1.8710001 -0.79487944 0.22783402 4294967295
1.8698571 -0.82662523 0.2280125 4294967295
1.8733749 -0.8531552 0.23126969 4294967295
1.8758183 -0.88383424 0.23776224 4294967295
1.8776666 -0.90777493 0.24567685 4294967295
1.8816667 0.81548923 -0.0066514611 4294967295
1.8758665 0.8141315 -0.033178151 4294967295
1.8753847 0.81900746 -0.063025594 4294967295
1.862 0.80553257 -0.07749176 4294967295
1.886 0.8137275 -0.08300513 4294967295
1.8685 0.80183423 -0.086087942 4294967295
1.9105453 -0.92440736 1.5760696 4294967295
1.8999093 -0.93649179 1.575002 4294967295
1.9136667 -0.92888457 1.5679793 4294967295
1.9050257 -0.93702012 1.5562047 4294967295
1.9077778 -0.92625672 1.5207258 4294967295
1.8974444 -0.93421197 1.5326829 4294967295
1.9067998 -0.92597836 1.4953318 4294967295
1.8958 -0.93399417 1.4876716 4294967295
1.9059312 -0.92231739 1.4643725 4294967295
1.8962222 -0.9341042 1.4728814 4294967295
1.9035937 -0.92241263 1.4350963 4294967295
1.9036969 -0.92549747 1.4055073 4294967295
1.9056451 -0.92559361 1.37568 4294967295
1.896125 -0.93228585 1.3677342 4294967295
1.9130001 -0.92856199 1.3560501 4294967295
1.9043045 -0.9323284 1.3454354 4294967295
1.9060528 -0.92617887 1.3107135 4294967295
1.90325 -0.93081081 1.3267543 4294967295
1.9075589 -0.92464137 1.2852287 4294967295
1.897 -0.9310686 1.2734993 4294967295
1.9084444 -0.92617309 1.2546751 4294967295
1.8951252 -0.93179446 1.2606573 4294967295
1.914 0.54825783 1.2158601 4294967295
1.911 0.53853077 1.2103355 4294967295
1.9047248 -0.92411005 1.2244055 4294967295
1.908 0.53543365 1.2070255 4294967295
1.906119 -0.91961759 1.194453 4294967295
1.8959168 -0.93419886 1.1898553 4294967295
1.909129 -0.92243004 1.1709239 4294967295
1.8993335 -0.93530089 1.163995 4294967295
1.9076155 -0.92638618 1.1277407 4294967295
1.9028749 -0.93365639 1.1420014 4294967295
1.9050477 -0.91963369 1.105669 4294967295
1.9039601 -0.9152019 1.0741894 4294967295
1.9011999 0.51987547 1.0338717 4294967295
1.9045928 -0.91153002 1.0449965 4294967295
1.9024999 0.51185131 1.0262859 4294967295
1.9057142 0.50354856 1.0122893 4294967295
1.9095 -0.89954042 1.0015664 4294967295
1.9045416 -0.90510601 1.0159612 4294967295
1.9050477 0.49684602 0.98549438 4294967295
1.9087142 -0.89885414 0.99124074 4294967295
1.9020001 -0.90194923 0.98089981 4294967295
1.9077857 0.49366304 0.95907855 4294967295
1.9026287 -0.90820533 0.9539181 4294967295
1.9074167 0.50172848 0.91768408 4294967295
1.9049654 -0.91575426 0.92650318 4294967295
1.9053123 0.50514555 0.8941378 4294967295
1.9045173 -0.91965467 0.8951686 4294967295
1.9070001 0.49535859 0.85270143 4294967295
1.9058372 -0.91840613 0.86355811 4294967295
1.8998181 0.49409816 0.83442831 4294967295
1.9095649 -0.9214173 0.84322894 4294967295
1.9065001 -0.9416154 0.83269942 4294967295
1.9036468 0.49565798 0.80419123 4294967295
1.9059999 -0.94236314 0.80504149 4294967295
1.9056191 0.49909824 0.77511084 4294967295
1.9067222 -0.92093974 0.77143788 4294967295
1.9013335 -0.93244147 0.78629243 4294967295
1.904 0.85683918 0.7307055 4294967295
1.892 0.78339297 0.73376727 4294967295
1.9027647 0.4998427 0.74510902 4294967295
1.9073695 -0.92178893 0.74588424 4294967295
1.897 -0.9310686 0.73653287 4294967295
1.9076666 0.84741932 0.72568876 4294967295
1.904259 0.82233256 0.7184369 4294967295
1.9051143 0.79512179 0.72019428 4294967295
1.9015555 0.77557522 0.7235567 4294967295
1.9038571 0.49737528 0.72312224 4294967295
1.9092822 -0.92083097 0.71345639 4294967295
1.8959999 -0.93294293 0.7139163 4294967295
1.914 0.88575917 0.69184488 4294967295
1.9045283 -0.9162184 0.68474221 4294967295
1.8958572 -0.93302006 0.6933614 4294967295
1.8959999 0.50790942 0.64844251 4294967295
1.9040467 -0.91846979 0.65673721 4294967295
1.9052564 -0.9204753 0.62406886 4294967295
1.9026 0.50701576 0.58310044 4294967295
1.908389 -0.92408973 0.59588802 4294967295
1.8966665 -0.93163657 0.58760947 4294967295
1.8983334 0.79628748 0.55536956 4294967295
1.9031427 0.50192517 0.56407571 4294967295
1.9093602 -0.92560166 0.56473351 4294967295
1.8949999 -0.9318428 0.56658828 4294967295
1.90435 0.80395496 0.53456634 4294967295
1.9024615 0.49842969 0.53631711 4294967295
1.9084908 -0.92079514 0.53545195 4294967295
1.897 -0.9310686 0.54727423 4294967295
1.9046667 0.81292987 0.50491244 4294967295
1.911 0.80899543 0.51865554 4294967295
1.9070001 0.49905193 0.5019477 4294967295
1.9070194 -0.9193545 0.50615102 4294967295
1.9064213 0.81821692 0.47512659 4294967295
1.905375 0.49797574 0.47361961 4294967295
1.9060247 -0.91583598 0.47443697 4294967295
1.902 0.82334268 0.44443318 4294967295
1.9050001 0.49373868 0.44517761 4294967295
1.9026003 -0.91563892 0.44470096 4294967295
1.9075 0.82077003 0.41795039 4294967295
1.9041113 0.49731073 0.41459763 4294967295
1.9045788 -0.91267604 0.41772419 4294967295
1.914 0.51273137 0.37654757 4294967295
1.9041666 0.50566757 0.39054322 4294967295
1.9064 -0.92181379 0.38596076 4294967295
1.9109999 0.52079308 0.35608581 4294967295
1.9062307 -0.92300355 0.35535866 4294967295
1.9170001 0.53132612 0.33184507 4294967295
1.9043571 -0.92299086 0.32614306 4294967295
1.905 -0.93057519 0.31092328 4294967295
1.9046001 -0.93611097 0.29551622 4294967295
1.9024999 0.53392196 0.25381404 4294967295
1.9028 -0.92595863 0.25201386 4294967295
1.9042001 -0.93842024 0.26594764 4294967295
1.9044001 0.51810247 0.2455979 4294967295
1.9062999 0.49739891 0.24179286 4294967295
1.9052501 0.46452484 0.23961845 4294967295
1.9061817 0.43665749 0.2364203 4294967295
1.9031428 0.40384811 0.22976133 4294967295
1.9 0.38995621 0.22771385 4294967295
1.9042 0.3444227 0.23370343 4294967295
1.9028182 0.31627941 0.23330981 4294967295
1.8994 0.28318083 0.23221311 4294967295
1.9055001 0.25071064 0.23019084 4294967295
1.905125 0.22303525 0.22859219 4294967295
1.903 0.1969202 0.23041177 4294967295
1.9064999 0.16791001 0.23113734 4294967295
1.9063334 0.13766785 0.23362789 4294967295
1.9057499 0.09931311 0.23457375 4294967295
1.9047778 0.074218288 0.23091617 4294967295
1.9058571 0.049410116 0.22744891 4294967295
1.9076 0.018835835 0.2274352 4294967295
1.9048001 -0.014771109 0.23051605 4294967295
1.9065 -0.035570089 0.23113734 4294967295
1.8963999 -0.072782457 0.22826767 4294967295
1.9054285 -0.11165626 0.22878563 4294967295
1.9048887 -0.13251731 0.22795066 4294967295
1.9075714 -0.16616307 0.22654912 4294967295
1.9054286 -0.19688907 0.22687876 4294967295
1.8979999 -0.22477862 0.22802153 4294967295
1.9075712 -0.28563726 0.230975 4294967295
1.9041113 -0.31751615 0.23003423 4294967295
1.9056363 -0.34203181 0.22966895 4294967295
1.9047272 -0.377628 0.23261875 4294967295
1.904214 -0.4066315 0.23370308 4294967295
1.9069166 -0.43597561 0.23329732 4294967295
1.9053999 -0.46394488 0.23130402 4294967295
1.9042306 -0.49585974 0.22945246 4294967295
1.9043748 -0.52709204 0.22815394 4294967295
1.9046664 -0.55359167 0.22936285 4294967295
1.9042728 -0.58318269 0.22867137 4294967295
1.9064 -0.61455476 0.22672933 4294967295
1.9039999 -0.64515811 0.23004785 4294967295
1.900857 -0.67274827 0.23199227 4294967295
1.9042857 -0.70490158 0.23147285 4294967295
1.9036362 -0.73636854 0.22957292 4294967295
1.9035712 -0.76424181 0.22938189 4294967295
1.9071999 -0.79226983 0.22927076 4294967295
1.904857 -0.82440996 0.22918606 4294967295
1.9035385 -0.85476941 0.23159444 4294967295
1.9043335 -0.88531381 0.23772928 4294967295
1.9049164 -0.90915608 0.24538007 4294967295
1.9044615 0.81742746 -0.012251794 4294967295
1.9055386 0.81380582 -0.035165191 4294967295
1.9060625 0.81696647 -0.065225303 4294967295
1.907846 0.81513923 -0.089137018 4294967295
1.892 0.80973154 -0.09150809 4294967295
1.9450001 -0.9185257 1.6062 4294967295
1.9329231 -0.92212677 1.5863432 4294967295
1.9435 -0.93134511 1.5760504 4294967295
1.925 -0.92917573 1.5682328 4294967295
1.9347333 -0.93282086 1.554372 4294967295
1.9334614 -0.92514205 1.5241795 4294967295
1.933059 -0.92210525 1.4950504 4294967295
1.9319286 -0.91906899 1.4644177 4294967295
1.9340909 -0.92519766 1.4348752 4294967295
1.9367272 -0.92563874 1.4046689 4294967295
1.9320831 -0.92511541 1.3778281 4294967295
1.939 -0.93218547 1.3644123 4294967295
1.9220001 -0.92996085 1.3570089 4294967295
1.93375 -0.93451869 1.3452928 4294967295
1.9327273 -0.92453229 1.313552 4294967295
1.942 -0.93062627 1.3251668 4294967295
1.9342667 -0.92332065 1.2842546 4294967295
1.9330001 -0.92354321 1.2527761 4294967295
1.9349999 0.56099939 1.2279844 4294967295
1.9357274 -0.9202624 1.2245747 4294967295
1.9301428 -0.91117793 1.1935613 4294967295
1.9315714 -0.92272675 1.1675175 4294967295
1.9404999 -0.93140244 1.1557072 4294967295
1.9295455 -0.92667902 1.1343924 4294967295
1.942 -0.93062627 1.144936 4294967295
1.9336362 -0.9204905 1.1055362 4294967295
1.9343333 -0.91616738 1.0760336 4294967295
1.9343333 0.52120227 1.0407648 4294967295
1.936 0.50514925 1.0307089 4294967295
1.9327501 -0.91048503 1.0455331 4294967295
1.93225 0.49967682 1.0162697 4294967295
1.933818 -0.90467036 1.0150338 4294967295
1.9339999 0.49319589 0.98612261 4294967295
1.9321429 -0.9034881 0.98483849 4294967295
1.9358751 0.49388066 0.9543339 4294967295
1.9335001 -0.90731615 0.9560197 4294967295
1.9361249 0.50012565 0.92460799 4294967295
1.9320667 -0.91689229 0.92447054 4294967295
1.9344 0.50382924 0.90012199 4294967295
1.9290003 -0.91767496 0.89458597 4294967295
1.9332308 -0.91191983 0.86297405 4294967295
1.9375 0.49654999 0.8355664 4294967295
1.9331539 -0.9177503 0.83984601 4294967295
1.933 -0.93846893 0.82712811 4294967295
1.939 0.49693441 0.80879521 4294967295
1.9220001 -0.92996085 0.7906692 4294967295
1.9345713 -0.94083214 0.80588937 4294967295
1.9242501 0.49761882 0.76642478 4294967295
1.9328822 -0.9156962 0.77717173 4294967295
1.9245001 0.4976835 0.74414456 4294967295
1.932875 -0.91503042 0.74398148 4294967295
1.939 0.8725782 0.72782356 4294967295
1.9348334 0.85198802 0.71614254 4294967295
1.9330711 0.82505077 0.70635915 4294967295
1.9353751 0.79656655 0.70834988 4294967295
1.9363333 0.77251178 0.71330696 4294967295
1.9328501 -0.9127695 0.71528178 4294967295
1.9321331 -0.90616387 0.68539995 4294967295
1.9286666 0.50323588 0.6484195 4294967295
1.9325714 -0.91456789 0.65411127 4294967295
1.9220002 0.50149632 0.63013196 4294967295
1.9321001 -0.91443664 0.62555909 4294967295
1.9322855 0.50418013 0.59486049 4294967295
1.9331367 -0.91759926 0.59508675 4294967295
1.9319999 0.80443776 0.55225539 4294967295
1.9333999 0.49998504 0.56351465 4294967295
1.9349231 -0.91771644 0.56249696 4294967295
1.9373332 0.80814725 0.53213263 4294967295
1.9232856 0.49736947 0.53649926 4294967295
1.9396665 -0.89849782 0.53363913 4294967295
1.9286002 -0.90485483 0.53636479 4294967295
1.9331818 0.81470662 0.50396127 4294967295
1.9333334 0.80946082 0.5186398 4294967295
1.9369999 0.500916 0.50175452 4294967295
1.9333 -0.90827668 0.50764513 4294967295
1.9336001 0.82124633 0.47198889 4294967295
1.9355 0.49902853 0.47747692 4294967295
1.9334373 -0.91081136 0.47322732 4294967295
1.9343749 0.82673877 0.44683415 4294967295
1.9405 0.49731883 0.45561314 4294967295
1.9330001 -0.90835762 0.44589329 4294967295
1.9349999 0.82513535 0.41687208 4294967295
1.92925 0.49891183 0.41791016 4294967295
1.9326364 -0.91471559 0.41795629 4294967295
1.9313334 0.82208425 0.39317256 4294967295
1.936 0.50739515 0.39286613 4294967295
1.93275 -0.92618549 0.38972807 4294967295
1.933 -0.93079823 0.37512356 4294967295
1.9333334 0.52535975 0.3527329 4294967295
1.94275 -0.93323857 0.3563593 4294967295
1.9450001 0.81436342 0.31104594 4294967295
1.9449999 0.80308151 0.31330228 4294967295
1.931 -0.92624682 0.33048025 4294967295
1.9353334 -0.93190867 0.3165879 4294967295
1.9347501 -0.94061363 0.3031663 4294967295
1.925 0.53354341 0.25066596 4294967295
1.9220001 -0.92550147 0.2510857 4294967295
1.9307499 -0.94259143 0.26330423 4294967295
1.932 0.52426553 0.24520397 4294967295
1.9250001 0.48663998 0.24173331 4294967295
1.9383999 0.46978223 0.23979628 4294967295
1.9343333 0.43737915 0.23589617 4294967295
1.9305999 0.40432885 0.22928536 4294967295
1.9353333 0.37473559 0.22976789 4294967295
1.9403999 0.34959993 0.23411188 4294967295
1.9239999 0.3056041 0.23294985 4294967295
1.9313334 0.27539557 0.23185578 4294967295
1.9400001 0.26312259 0.23056275 4294967295
1.9220001 0.2272452 0.22878885 4294967295
1.9347142 0.19510281 0.23135132 4294967295
1.9356667 0.16600297 0.23120925 4294967295
1.9385 0.13357484 0.23416933 4294967295
1.9408001 0.11012629 0.23494637 4294967295
1.93275 0.076032557 0.23164439 4294967295
1.9338335 0.044659972 0.22699597 4294967295
1.934 0.020036569 0.2269707 4294967295
1.9352499 -0.022635259 0.23127142 4294967295
1.942 -0.033977766 0.23026434 4294967295
1.9239999 -0.073841222 0.22848585 4294967295
1.925 -0.10514158 0.22833434 4294967295
1.9262501 -0.13873863 0.22814494 4294967295
1.9375 -0.16203046 0.2264404 4294967295
1.9363333 -0.20458519 0.22661716 4294967295
1.9263333 -0.22366881 0.22813231 4294967295
1.939 -0.25432524 0.22621313 4294967295
1.9397501 -0.29271051 0.23060003 4294967295
1.9395 -0.31520021 0.23063734 4294967295
1.9435 -0.35641378 0.23004055 4294967295
1.9277999 -0.36917681 0.23238289 4294967295
1.9322001 -0.46419984 0.23172644 4294967295
1.9450001 -0.48079073 0.22981676 4294967295
1.9235001 -0.52679706 0.22856158 4294967295
1.9450001 -0.56427622 0.22981676 4294967295
1.9335001 -0.58327675 0.22930282 4294967295
1.9358335 -0.61554009 0.22669294 4294967295
1.92975 -0.63595325 0.22761464 4294967295
1.9316667 -0.67240882 0.23180601 4294967295
1.9290001 -0.70062065 0.23220384 4294967295
1.9402001 -0.73441505 0.23053288 4294967295
1.9442501 -0.7941184 0.22992864 4294967295
1.9362857 -0.8559736 0.23111689 4294967295
1.9306666 -0.88486451 0.23643467 4294967295
1.9374001 -0.91402471 0.2435348 4294967295
1.9450001 0.81436342 0.076383859 4294967295
1.9450001 0.80458581 0.073375404 4294967295
1.9440001 0.81469685 0.055558354 4294967295
1.9440768 0.80564892 0.058895975 4294967295
1.9344444 0.81790793 -0.013459921 4294967295
1.9303075 0.81233877 -0.030489802 4294967295
1.9390589 0.8071034 -0.038953543 4294967295
1.924625 0.81141269 -0.067443073 4294967295
1.9370556 0.80653453 -0.064870596 4294967295
1.9264616 0.81244129 -0.093010306 4294967295
1.9388001 0.8052783 -0.095470309 4294967295
1.9380001 0.80243486 -0.11087221 4294967295
1.9679092 -0.92393494 1.6110998 4294967295
1.9617778 -0.92694241 1.5933092 4294967295
1.96675 -0.93391311 1.5789747 4294967295
1.957 -0.92873329 1.5402522 4294967295
1.962389 -0.93278545 1.5569518 4294967295
1.9642859 -0.92696249 1.5218897 4294967295
1.971 -0.93080419 1.5361183 4294967295
1.9643332 -0.92282838 1.494433 4294967295
1.9622668 -0.92484546 1.468621 4294967295
1.969 -0.93137711 1.4566643 4294967295
1.9661176 -0.93250668 1.4352343 4294967295
1.9673333 -0.93210822 1.4051462 4294967295
1.9652501 -0.93796444 1.3735516 4294967295
1.9618462 -0.93871725 1.343883 4294967295
1.9654545 -0.92734224 1.3116509 4294967295
1.9665 -0.93095517 1.3284755 4294967295
1.9568571 -0.92801422 1.2852759 4294967295
1.9725 -0.93151259 1.2851839 4294967295
1.977 0.5708909 1.2479385 4294967295
1.9636428 -0.92763793 1.2547183 4294967295
1.971 -0.93080419 1.2685945 4294967295
1.9566666 0.54987401 1.2298548 4294967295
1.9653333 -0.92355603 1.224256 4294967295
1.962625 -0.91573578 1.1933904 4294967295
1.9612 -0.92525643 1.1756833 4294967295
1.9653636 -0.93351883 1.1619754 4294967295
1.9638749 -0.92742193 1.1269097 4294967295
1.9621 -0.93159163 1.1418349 4294967295
1.9658946 -0.92357516 1.1053299 4294967295
1.9659231 -0.91997325 1.0747361 4294967295
1.9591999 0.51846856 1.0450137 4294967295
1.9673749 0.50362468 1.037843 4294967295
1.9626669 -0.91471487 1.0460782 4294967295
1.9626669 0.49653792 1.0149791 4294967295
1.9628999 -0.91057718 1.0163987 4294967295
1.9674546 0.49301219 0.98547322 4294967295
1.9627501 -0.91133857 0.98766017 4294967295
1.964923 0.495152 0.95486641 4294967295
1.9649 -0.91560948 0.95352781 4294967295
1.9633847 0.50107157 0.92509329 4294967295
1.9621054 -0.92131948 0.92425108 4294967295
1.9638333 0.50633317 0.90058959 4294967295
1.9641764 -0.92381167 0.89498591 4294967295
1.9642143 -0.91554004 0.8636604 4294967295
1.9733999 0.50117201 0.83454227 4294967295
1.9658333 -0.92074805 0.84206402 4294967295
1.9657501 -0.94047374 0.82723105 4294967295
1.9645555 0.49993169 0.80324817 4294967295
1.9667499 -0.92649555 0.79240805 4294967295
1.9623078 -0.94243497 0.80648839 4294967295
1.9640001 0.50150812 0.77652812 4294967295
1.9639286 -0.91638869 0.77574205 4294967295
1.962 0.90342039 0.73712403 4294967295
1.9625 0.89227712 0.73262602 4294967295
1.96575 0.50264329 0.74951893 4294967295
1.9624376 -0.91849387 0.74542487 4294967295
1.9565001 0.90769053 0.70246339 4294967295
1.9663999 0.87990129 0.7230078 4294967295
1.9653 0.85706174 0.70692909 4294967295
1.954 0.83852947 0.70223314 4294967295
1.9579334 0.7897917 0.70395792 4294967295
1.954 0.77732909 0.70903707 4294967295
1.957 0.50154752 0.72748959 4294967295
1.9643331 -0.91457421 0.71640515 4294967295
1.9733999 0.84823704 0.69534457 4294967295
1.9639133 0.82385492 0.69392836 4294967295
1.9699332 0.79826635 0.69594318 4294967295
1.9606925 -0.91017985 0.68588132 4294967295
1.9579999 0.5063467 0.65491724 4294967295
1.9623752 -0.91875285 0.65463418 4294967295
1.9581666 0.5063898 0.62537879 4294967295
1.9649335 -0.91637421 0.62346703 4294967295
1.9607143 0.50704861 0.5959757 4294967295
1.9629544 -0.91787696 0.59479988 4294967295
1.9638571 0.50395155 0.56418318 4294967295
1.9640646 -0.91324717 0.5641923 4294967295
1.9661666 0.81257427 0.52849752 4294967295
1.967 0.5041104 0.53457427 4294967295
1.9641052 -0.89682871 0.53516841 4294967295
1.954 -0.90010786 0.53449291 4294967295
1.9578948 0.81449395 0.50284368 4294967295
1.9711666 0.80701661 0.50210053 4294967295
1.9635 0.50321341 0.49812162 4294967295
1.9631739 -0.90847307 0.5057469 4294967295
1.9597602 0.81871617 0.47496423 4294967295
1.9696743 0.79661679 0.47451001 4294967295
1.968375 0.7727775 0.46952701 4294967295
1.962875 0.50076663 0.47877967 4294967295
1.9643333 -0.91427112 0.47607768 4294967295
1.9678606 0.82391685 0.44428772 4294967295
1.9727439 0.796803 0.44824311 4294967295
1.9674168 0.77012146 0.45126998 4294967295
1.9565001 0.50141943 0.45051956 4294967295
1.9667501 -0.91281408 0.44598472 4294967295
1.9601947 0.82109493 0.41441116 4294967295
1.9673576 0.80268049 0.41527343 4294967295
1.9595001 0.50673461 0.40268248 4294967295
1.9636668 -0.9197312 0.41800988 4294967295
1.971 -0.93080419 0.40428689 4294967295
1.9570001 0.818371 0.38542965 4294967295
1.9648334 0.80443215 0.38413435 4294967295
1.9679999 0.5180788 0.3816047 4294967295
1.9661999 -0.9371891 0.38542336 4294967295
1.9598573 0.81603676 0.35492846 4294967295
1.9607145 0.80502075 0.35486287 4294967295
1.9655 0.53107435 0.35219306 4294967295
1.966 -0.94081777 0.35570073 4294967295
1.9526366 0.81550115 0.32711661 4294967295
1.9528003 0.80403674 0.32833543 4294967295
1.9625 0.54164708 0.32511592 4294967295
1.964 0.53750253 0.33408231 4294967295
1.9655 -0.937895 0.32537943 4294967295
1.9551336 0.81497484 0.29270869 4294967295
1.9535627 0.80236852 0.29793459 4294967295
1.963125 -0.95098388 0.29601762 4294967295
1.962 0.81692904 0.27735436 4294967295
1.962 0.80554855 0.27735436 4294967295
1.957 0.54695326 0.25072929 4294967295
1.9636002 -0.95373118 0.26212871 4294967295
1.9586667 0.52394515 0.24293002 4294967295
1.9697143 0.49564198 0.23983976 4294967295
1.9617499 0.454956 0.23642093 4294967295
1.9653333 0.43070689 0.23134306 4294967295
1.9675999 0.40652972 0.22644496 4294967295
1.9645 0.3735517 0.22919226 4294967295
1.954 0.33530176 0.23300764 4294967295
1.9690001 0.31499013 0.2308045 4294967295
1.9575 0.24960247 0.22795182 4294967295
1.9613334 0.22736326 0.22737995 4294967295
1.9757999 0.19005494 0.2298058 4294967295
1.9724998 0.16000357 0.23029047 4294967295
1.9556667 0.14275336 0.23276284 4294967295
1.9525 0.09494558 0.23322797 4294967295
1.9635999 0.075928517 0.22978419 4294967295
1.972 0.052420218 0.2257885 4294967295
1.9724998 0.0089709163 0.22571394 4294967295
1.9566666 -0.0069870665 0.22807616 4294967295
1.959 -0.047933117 0.22772804 4294967295
1.9757999 -0.073081657 0.22522157 4294967295
1.9734001 -0.10777123 0.22557962 4294967295
1.9680001 -0.13491164 0.2263853 4294967295
1.9683332 -0.16681738 0.22482666 4294967295
1.95175 -0.19037531 0.22428131 4294967295
1.957 -0.28397179 0.22802642 4294967295
1.9528 -0.3422631 0.22865304 4294967295
1.9709998 -0.37972885 0.23051077 4294967295
1.9539999 -0.40593806 0.23300761 4294967295
1.955 -0.43564349 0.23286074 4294967295
1.9695001 -0.46172994 0.23073107 4294967295
1.9525 -0.49397349 0.22869781 4294967295
1.9674 -0.52742404 0.22647479 4294967295
1.9665 -0.5476954 0.22660908 4294967295
1.9528 -0.58693486 0.22865304 4294967295
1.9698 -0.61490679 0.22611678 4294967295
1.974 -0.65283519 0.22549012 4294967295
1.9765 -0.70181829 0.22970292 4294967295
1.954 -0.76636279 0.22847402 4294967295
1.952 -0.79200935 0.2287724 4294967295
1.9555 -0.82593155 0.22825021 4294967295
1.9525 -0.84278846 0.22869781 4294967295
1.9643334 -0.87976569 0.23148993 4294967295
1.9653333 -0.90910655 0.2374219 4294967295
1.9603333 -0.93486351 0.24724206 4294967295
1.951 0.81415957 0.10579661 4294967295
1.951 0.80329555 0.10670197 4294967295
1.951 0.81461215 0.088595331 4294967295
1.9531581 0.80298722 0.087407678 4294967295
1.951 0.81461221 0.043328822 4294967295
1.9513 0.80115509 0.052308798 4294967295
1.9561177 0.81634647 0.023912072 4294967295
1.9571252 0.80410892 0.028201729 4294967295
1.9582001 0.81734151 -0.0033047795 4294967295
1.9620769 0.80645317 -0.0041953325 4294967295
1.951 0.8123489 -0.022307634 4294967295
1.9547501 0.8059721 -0.032989144 4294967295
1.9518572 0.80300081 -0.069448948 4294967295
1.9526364 0.79902482 -0.093393385 4294967295
1.951 0.79876894 -0.11057734 4294967295
2.0014999 -0.92043304 1.634653 4294967295
1.9965856 -0.91720021 1.612734 4294967295
1.9956079 -0.91678649 1.5862409 4294967295
1.9833751 -0.93089283 1.5804507 4294967295
1.9979396 -0.92019111 1.5559695 4294967295
1.9847499 -0.93038535 1.5547135 4294967295
1.9946587 -0.91767418 1.5248811 4294967295
1.98 -0.93046051 1.5384611 4294967295
1.9952046 -0.91526818 1.4951357 4294967295
1.9991466 -0.92167532 1.4676259 4294967295
1.9874998 -0.93224919 1.4581578 4294967295
2.0062859 -0.92651933 1.4356073 4294967295
1.9927498 -0.9325096 1.4363537 4294967295
2.0024211 -0.92656279 1.4030347 4294967295
1.988842 -0.93339097 1.4055459 4294967295
2.0062354 -0.92389399 1.3789059 4294967295
1.9946667 -0.93815982 1.3739209 4294967295
2.0079999 -0.92964178 1.3385541 4294967295
1.993826 -0.93592983 1.3462418 4294967295
1.999786 -0.92848146 1.3133304 4294967295
1.9864286 -0.9301852 1.3178968 4294967295
2 -0.92685789 1.2842464 4294967295
1.9855715 -0.93077081 1.2856436 4294967295
1.992 0.57060063 1.2580833 4294967295
1.9890001 0.56742692 1.2546713 4294967295
2.0015714 -0.92864937 1.2609503 4294967295
1.99225 -0.93081284 1.2535328 4294967295
1.9960476 -0.92210186 1.2242935 4294967295
1.989 -0.93007505 1.2385125 4294967295
1.9923214 -0.9165827 1.1924863 4294967295
1.9984999 -0.92113179 1.1663823 4294967295
1.9846876 -0.93208122 1.1638492 4294967295
1.9947569 -0.92060637 1.1351403 4294967295
1.98 -0.93046051 1.1433825 4294967295
1.9958333 -0.91997373 1.1059132 4294967295
1.9949999 0.54368752 1.0663354 4294967295
2.0009999 0.51978797 1.0617836 4294967295
2.0023334 0.50387114 1.0621446 4294967295
1.994857 -0.91741657 1.0749869 4294967295
1.9860001 0.52280509 1.05542 4294967295
1.9949546 0.49757928 1.0437284 4294967295
1.9932144 -0.91401726 1.0459617 4294967295
1.99375 0.49128634 1.0135595 4294967295
1.9937369 -0.91352856 1.01501 4294967295
1.9954286 0.48889348 0.98509562 4294967295
1.9939446 -0.91618133 0.98585343 4294967295
1.9911999 0.49151167 0.9540965 4294967295
1.9933752 -0.91726017 0.95429981 4294967295
1.9932961 0.49558514 0.92522597 4294967295
1.9935749 -0.91645736 0.92493528 4294967295
1.9925001 0.50534964 0.89998531 4294967295
1.9970553 -0.92029613 0.89583385 4294967295
2.003 0.50636327 0.86480319 4294967295
1.9949615 -0.91503704 0.86520207 4294967295
1.9965556 0.50189614 0.83460617 4294967295
1.9977188 -0.92051941 0.83521086 4294967295
1.9902858 -0.9379186 0.82666647 4294967295
1.9967273 0.50034988 0.80708146 4294967295
1.9983077 -0.92139179 0.80285293 4294967295
1.989913 -0.93971914 0.81208456 4294967295
1.9937998 0.50078678 0.77488238 4294967295
1.9948802 -0.91651177 0.77482295 4294967295
1.992 0.90799057 0.7312004 4294967295
1.983 0.89928734 0.73024619 4294967295
1.9893335 0.5016191 0.74836379 4294967295
1.9931738 -0.91954386 0.74459374 4294967295
2.0023751 0.91580778 0.7162329 4294967295
1.9936668 0.88767666 0.71208376 4294967295
1.9859999 0.86839277 0.7029171 4294967295
1.9973333 -0.91607738 0.71564817 4294967295
1.9890001 0.91353834 0.69626421 4294967295
2.0020001 0.8815853 0.6958707 4294967295
1.9925295 0.85491461 0.6874513 4294967295
1.9866923 0.82313144 0.67850339 4294967295
1.9890832 0.79512584 0.68113893 4294967295
1.9900001 0.7793327 0.68325782 4294967295
1.9859999 0.5055117 0.67181057 4294967295
1.995 -0.91501027 0.68391025 4294967295
1.9993701 0.82166576 0.65654147 4294967295
1.9992679 0.79499477 0.65570801 4294967295
2.0009999 0.77652717 0.65508646 4294967295
1.9921668 0.50592673 0.65494442 4294967295
1.9956766 -0.91627961 0.6546433 4294967295
2.0014999 0.7935223 0.63546115 4294967295
1.992 0.51051748 0.6202777 4294967295
1.9993571 0.50676221 0.6285885 4294967295
1.994588 -0.9141506 0.62653655 4294967295
1.993 0.51077378 0.60183394 4294967295
1.9977499 0.50734437 0.5916062 4294967295
1.993714 -0.91123468 0.5940662 4294967295
1.994 0.5045442 0.5657829 4294967295
1.9985384 -0.89599407 0.55605614 4294967295
1.9916896 -0.9067679 0.57023805 4294967295
1.9934999 0.81681341 0.53512073 4294967295
1.9971666 0.80607754 0.52477777 4294967295
2.0009093 0.50604242 0.53589022 4294967295
1.9943076 -0.8932066 0.53408051 4294967295
1.9857999 0.79688281 0.50324941 4294967295
1.9964285 0.50127107 0.50206566 4294967295
1.9968889 -0.89667958 0.51601791 4294967295
1.9923749 -0.90716976 0.50087303 4294967295
1.9818001 0.78470623 0.48458135 4294967295
1.9830002 0.77659434 0.48333365 4294967295
1.9927856 0.49881318 0.47699037 4294967295
1.9945263 -0.91510534 0.47621617 4294967295
1.983 0.78931814 0.43394765 4294967295
1.9830002 0.77659667 0.43425274 4294967295
1.992 0.50589567 0.45619407 4294967295
1.9986669 -0.91727328 0.44254637 4294967295
1.9884444 0.78845978 0.42169809 4294967295
1.992 0.51051748 0.40305403 4294967295
1.9865999 0.50913352 0.41719323 4294967295
1.9957204 -0.91856736 0.41505134 4294967295
1.993 -0.93193388 0.40299532 4294967295
1.9890001 0.80179185 0.38214278 4294967295
1.9923749 0.51638556 0.38743091 4294967295
1.9953332 -0.94029582 0.38434339 4294967295
1.9973334 0.53272796 0.3579601 4294967295
1.9975653 -0.94474012 0.35557428 4294967295
1.9965714 0.54609185 0.32205135 4294967295
1.995 0.53905874 0.33807555 4294967295
1.995625 -0.94106412 0.32432666 4294967295
2.0050001 0.55571669 0.30925196 4294967295
1.9970452 -0.94939691 0.29829323 4294967295
1.9936666 -0.96230656 0.28422996 4294967295
1.994 -0.95477027 0.2541267 4294967295
1.9954666 -0.96456724 0.2688978 4294967295
1.9965999 0.54874629 0.24621099 4294967295
1.9932501 0.52586436 0.24169922 4294967295
1.9981428 0.49352875 0.24043226 4294967295
1.9940999 0.46800071 0.23730233 4294967295
1.9942222 0.43704823 0.23121986 4294967295
1.9984444 0.40500632 0.22545823 4294967295
1.9955556 0.37406582 0.23051363 4294967295
1.9932221 0.3458882 0.23290685 4294967295
2.0026667 0.31576172 0.23050627 4294967295
1.9920998 0.28637096 0.22927457 4294967295
1.9919999 0.25630561 0.22742641 4294967295
1.9966668 0.22293884 0.22829244 4294967295
1.9953749 0.1977026 0.23041096 4294967295
1.9947999 0.16502544 0.23119053 4294967295
1.9951 0.13219163 0.23346224 4294967295
1.9898571 0.10367821 0.23235798 4294967295
1.9959998 0.07313861 0.22942126 4294967295
1.9959998 0.043808561 0.22530526 4294967295
1.9959999 0.016577102 0.22511184 4294967295
1.9908571 -0.015027937 0.22825882 4294967295
1.9945714 -0.044177916 0.22704875 4294967295
1.999 -0.076701298 0.2252489 4294967295
2.0005002 -0.10346694 0.2256037 4294967295
1.9965 -0.13453159 0.22676545 4294967295
1.9958999 -0.16504085 0.22501183 4294967295
1.9907142 -0.19648001 0.22299647 4294967295
2.0023999 -0.22641659 0.22497734 4294967295
1.9945002 -0.25471625 0.22243163 4294967295
1.9945999 -0.28849876 0.22612157 4294967295
1.9928463 -0.31584036 0.22944951 4294967295
1.993 -0.34350786 0.22844341 4294967295
1.99675 -0.37313011 0.23021045 4294967295
1.9907142 -0.40432489 0.23223403 4294967295
1.9899999 -0.43420476 0.23233733 4294967295
1.9942857 -0.46520999 0.23106149 4294967295
1.99375 -0.49167141 0.22833326 4294967295
1.9932855 -0.52510583 0.22723758 4294967295
1.9935001 -0.55521303 0.22720608 4294967295
1.9974287 -0.58411169 0.22895706 4294967295
1.9964285 -0.61393195 0.22744152 4294967295
1.9953998 -0.64371347 0.22508669 4294967295
1.990875 -0.67455345 0.22759163 4294967295
2.0002501 -0.70615125 0.23028135 4294967295
1.9937502 -0.73567677 0.22949535 4294967295
1.994125 -0.7635718 0.22827819 4294967295
1.9935 -0.79803765 0.22860309 4294967295
1.9949092 -0.82342428 0.22911114 4294967295
1.9959167 -0.85726547 0.2287918 4294967295
1.9917002 -0.88418072 0.23163214 4294967295
1.9973333 -0.91437352 0.23642829 4294967295
1.9927777 -0.9395324 0.24426901 4294967295
2.0261335 -0.91544425 1.6417812 4294967295
2.0227001 -0.89889014 1.6111085 4294967295
2.0240908 -0.90589464 1.6187246 4294967295
2.0139999 -0.89970982 1.5980052 4294967295
2.0222499 -0.90983951 1.5839314 4294967295
2.023875 -0.91261333 1.5539696 4294967295
2.0232105 -0.90651792 1.5243391 4294967295
2.024636 -0.90550917 1.4949986 4294967295
2.0222499 -0.91259164 1.4658341 4294967295
2.0232379 -0.92260063 1.4370668 4294967295
2.0231304 -0.91825509 1.4047158 4294967295
2.0223794 -0.9178347 1.3759544 4294967295
2.0219998 -0.9314065 1.3630012 4294967295
2.02 -0.93220729 1.3472577 4294967295
2.0225556 -0.92854375 1.3100499 4294967295
2.0369999 -0.93361551 1.3220234 4294967295
2.0250001 0.56359982 1.2797073 4294967295
2.0230665 -0.9272145 1.2846084 4294967295
2.039 -0.93453223 1.2707672 4294967295
2.017 0.5613755 1.2673464 4294967295
2.0225 -0.92813039 1.2482394 4294967295
2.0205715 -0.93143314 1.2552636 4294967295
2.0251002 -0.91874897 1.2224107 4294967295
2.0217779 -0.91254926 1.194839 4294967295
2.0228422 -0.91303301 1.1662509 4294967295
2.0202003 -0.91183889 1.1349378 4294967295
2.0221109 -0.91582942 1.1047673 4294967295
2.0215001 0.55558223 1.079051 4294967295
2.0302501 0.51796591 1.0755965 4294967295
2.0263748 0.50050747 1.0698231 4294967295
2.023875 -0.91232061 1.0732524 4294967295
2.0225556 0.49278909 1.0493624 4294967295
2.0228126 -0.91184562 1.0453949 4294967295
2.0254545 0.48618495 1.0167049 4294967295
2.0250769 -0.91657472 1.0155207 4294967295
2.0224998 0.48413596 0.98547584 4294967295
2.0243332 -0.92036396 0.98354614 4294967295
2.0213332 0.48832378 0.95863962 4294967295
2.0215001 -0.91516596 0.95359302 4294967295
2.0195713 0.49013561 0.92690396 4294967295
2.023778 -0.90953934 0.925776 4294967295
2.039 0.51310116 0.89230084 4294967295
2.017 0.5060004 0.90076327 4294967295
2.02475 -0.91447866 0.89526331 4294967295
2.0245001 -0.91289878 0.86703616 4294967295
2.0281999 0.50378805 0.83195895 4294967295
2.0234375 -0.91682202 0.83310705 4294967295
2.0276668 0.50084013 0.80321085 4294967295
2.0226254 -0.91674989 0.80571562 4294967295
2.0232501 0.49856818 0.77207142 4294967295
2.0241537 -0.91651791 0.7736221 4294967295
2.0246 0.49819028 0.75439125 4294967295
2.022769 -0.91986406 0.74492419 4294967295
2.0144615 0.91355664 0.70553744 4294967295
2.0124998 0.89865744 0.70302141 4294967295
2.0239999 -0.91826516 0.71345758 4294967295
2.0209999 0.91419482 0.69557989 4294967295
2.0251999 0.88550448 0.69053602 4294967295
2.0210001 0.86023986 0.67799473 4294967295
2.0250001 0.50251436 0.6736207 4294967295
2.0245001 -0.9149546 0.68180299 4294967295
2.0244 0.8447786 0.65664351 4294967295
2.0163999 0.82648343 0.64395779 4294967295
2.0236921 0.5023725 0.65364748 4294967295
2.024857 -0.9087925 0.65660447 4294967295
2.0302 0.82273012 0.63538855 4294967295
2.0109999 0.80933625 0.63989758 4294967295
2.0217779 0.50458765 0.62334979 4294967295
2.0233333 -0.91091251 0.62421346 4294967295
2.0196664 0.50510532 0.59823978 4294967295
2.0220001 -0.90522933 0.59403962 4294967295
2.0233846 0.50229752 0.56443232 4294967295
2.0217144 -0.89610368 0.56413335 4294967295
2.0339999 -0.90155983 0.5751881 4294967295
2.0263999 0.82116419 0.53831667 4294967295
2.0225713 0.50494081 0.53332865 4294967295
2.0178182 -0.88949132 0.53559774 4294967295
2.0257142 0.49732491 0.50447649 4294967295
2.0206668 -0.89564055 0.51389742 4294967295
2.0246 -0.90536368 0.4979161 4294967295
2.0272858 0.49939102 0.47557265 4294967295
2.0219998 -0.9159447 0.47541019 4294967295
2.0139999 0.51148289 0.44849071 4294967295
2.0242 -0.92305243 0.4481369 4294967295
2.0139999 0.7918523 0.40176246 4294967295
2.0139999 0.51148289 0.40877694 4294967295
2.0205455 -0.91838783 0.40991282 4294967295
2.02 0.7988981 0.39437664 4294967295
2.0224285 0.51830554 0.38518256 4294967295
2.0316665 -0.92644495 0.39601147 4294967295
2.0234704 -0.93871969 0.3843548 4294967295
2.023 0.54193079 0.34021592 4294967295
2.0231998 0.53633982 0.35429364 4294967295
2.0227392 -0.94032347 0.35370982 4294967295
2.0256 0.54732233 0.322133 4294967295
2.02472 -0.93641782 0.32428277 4294967295
2.0255997 -0.94482213 0.29627514 4294967295
2.0139999 -0.96045655 0.28026906 4294967295
2.0150001 -0.956249 0.25365445 4294967295
2.0258334 -0.96490878 0.26868019 4294967295
2.0276 0.55253702 0.24571958 4294967295
2.0227692 0.5241757 0.24421689 4294967295
2.0242667 0.49529734 0.24461782 4294967295
2.028111 0.47010347 0.23991063 4294967295
2.0226667 0.4338952 0.22996244 4294967295
2.0325999 0.4002097 0.22712544 4294967295
2.0232501 0.37537062 0.23222515 4294967295
2.0181999 0.33927915 0.23294345 4294967295
2.039 0.32859886 0.22998497 4294967295
2.0109999 0.28364897 0.22930166 4294967295
2.0204284 0.2552779 0.22793874 4294967295
2.0274284 0.225916 0.22962421 4294967295
2.0264285 0.19493237 0.23177305 4294967295
2.0253332 0.16349098 0.2340273 4294967295
2.0272501 0.13854171 0.23519331 4294967295
2.0144286 0.10495861 0.23347986 4294967295
2.0281999 0.076531433 0.23058796 4294967295
2.0251999 0.047279701 0.22631583 4294967295
2.0109999 0.025471212 0.22463581 4294967295
2.0233333 -0.014259013 0.22830731 4294967295
2.02175 -0.037736762 0.22774771 4294967295
2.039 -0.073521525 0.22525415 4294967295
2.0366001 -0.10367609 0.22560108 4294967295
2.027143 -0.13425069 0.22696817 4294967295
2.0250001 -0.16688618 0.22494498 4294967295
2.017 -0.19674022 0.22375455 4294967295
2.0109999 -0.22415246 0.22463581 4294967295
2.0283334 -0.24727888 0.22208998 4294967295
2.0254998 -0.28922477 0.22486225 4294967295
2.0139999 -0.30158845 0.22886801 4294967295
2.0117497 -0.35026395 0.22919324 4294967295
2.0278001 -0.37800762 0.23064482 4294967295
2.0144286 -0.40445769 0.23347989 4294967295
2.0124998 -0.43444768 0.23375419 4294967295
2.0244 -0.46286127 0.23206159 4294967295
2.01775 -0.50112081 0.22832593 4294967295
2.0190001 -0.5248484 0.22814521 4294967295
2.018286 -0.55509061 0.22824848 4294967295
2.0184999 -0.61839134 0.22821748 4294967295
2.0336668 -0.6395514 0.22602507 4294967295
2.0233333 -0.68084937 0.22751883 4294967295
2.0117497 -0.77034819 0.22919324 4294967295
2.0139999 -0.78989506 0.22886801 4294967295
2.029 -0.83199596 0.23047414 4294967295
2.0297499 -0.8525908 0.23013419 4294967295
2.0225556 -0.88471991 0.23232391 4294967295
2.0219998 -0.9220233 0.23709434 4294967295
2.0233333 -0.94611144 0.2439495 4294967295
2.06075 -0.92058688 1.6672504 4294967295
2.0550001 -0.89895397 1.6342547 4294967295
2.0517502 -0.91021323 1.6471647 4294967295
2.0485001 -0.89847946 1.6283462 4294967295
2.0565836 -0.90719903 1.6148226 4294967295
2.0513637 -0.91725791 1.5816404 4294967295
2.0536666 -0.91212976 1.5546472 4294967295
2.055167 -0.90775615 1.5246376 4294967295
2.0544169 -0.90623879 1.4937123 4294967295
2.0542221 -0.91713887 1.4654149 4294967295
2.0525 -0.92302084 1.4352521 4294967295
2.0549335 -0.9138481 1.4047124 4294967295
2.0516 -0.91840214 1.3801239 4294967295
2.0558572 -0.93543088 1.3689641 4294967295
2.0527778 -0.93925363 1.3456879 4294967295
2.0650001 0.56276423 1.3042961 4294967295
2.0480001 -0.92915386 1.3025912 4294967295
2.0582731 -0.93337137 1.3169271 4294967295
2.0564001 0.56327528 1.2895746 4294967295
2.0553002 -0.93389058 1.2867785 4294967295
2.0565 -0.92821902 1.241415 4294967295
2.0538001 -0.93606085 1.2580935 4294967295
2.0550001 -0.92087454 1.2256279 4294967295
2.0550003 -0.91563326 1.1956015 4294967295
2.0556669 -0.91592956 1.1672025 4294967295
2.051846 -0.91440904 1.1363277 4294967295
2.0610001 0.5138554 1.0923746 4294967295
2.0610001 0.50907356 1.0923746 4294967295
2.0543334 -0.92010409 1.1060076 4294967295
2.0550001 0.54096717 1.0811723 4294967295
2.0550001 0.52824414 1.0843564 4294967295
2.0541112 0.49835739 1.075623 4294967295
2.0510001 -0.91411638 1.0758417 4294967295
2.0527778 0.49009612 1.0419205 4294967295
2.0558183 -0.9188183 1.0454004 4294967295
2.0526001 0.48270029 1.0133536 4294967295
2.053375 -0.92265624 1.0128387 4294967295
2.0540001 0.4855608 0.98556423 4294967295
2.0568335 -0.92599446 0.98621678 4294967295
2.0513999 0.49146536 0.95265424 4294967295
2.0525 -0.91848433 0.95666826 4294967295
2.0450001 0.49088728 0.93372333 4294967295
2.054889 -0.91479182 0.92380488 4294967295
2.0480001 0.5153659 0.88444078 4294967295
2.0544546 -0.91733766 0.89467561 4294967295
2.0545001 0.51223481 0.85938764 4294967295
2.0420001 0.50911832 0.85020852 4294967295
2.0542862 -0.91599441 0.86444759 4294967295
2.0516665 0.50676817 0.83750582 4294967295
2.0546925 -0.91971248 0.83649063 4294967295
2.0613334 0.50437319 0.80312908 4294967295
2.0534003 -0.91825056 0.80440593 4294967295
2.0548749 0.49980494 0.77480638 4294967295
2.0527649 -0.9186939 0.77658105 4294967295
2.05375 -0.92580086 0.74728769 4294967295
2.0556669 -0.92546785 0.71569037 4294967295
2.0550001 0.90809941 0.6949684 4294967295
2.0550001 0.88104928 0.68063825 4294967295
2.0580001 0.5051415 0.68088901 4294967295
2.0535717 -0.91771334 0.68395078 4294967295
2.0580001 0.8640669 0.66419041 4294967295
2.0570002 0.50331295 0.65457165 4294967295
2.0531669 -0.91044736 0.65273541 4294967295
2.0550001 0.84611607 0.63775301 4294967295
2.0550001 0.8318122 0.63298506 4294967295
2.0502858 0.50505817 0.6266281 4294967295
2.0556667 -0.91593033 0.62587303 4294967295
2.0462859 0.50543904 0.59453398 4294967295
2.0533638 -0.91035682 0.5943467 4294967295
2.0650001 0.50527036 0.56406313 4294967295
2.0569999 -0.89791244 0.55577856 4294967295
2.053 -0.90283173 0.57094461 4294967295
2.052 0.84011984 0.54712224 4294967295
2.0485001 0.81966037 0.53757024 4294967295
2.0515716 0.50606018 0.53350282 4294967295
2.050091 -0.89463544 0.53628671 4294967295
2.0542002 0.49880749 0.50805509 4294967295
2.0485001 -0.89847946 0.51618987 4294967295
2.0538335 -0.90876102 0.5002864 4294967295
2.0650001 0.5148527 0.46105334 4294967295
2.0565 0.49602365 0.48517287 4294967295
2.0521667 -0.91833502 0.48126644 4294967295
2.0550001 0.51712739 0.45657086 4294967295
2.0596001 -0.93441665 0.44496211 4294967295
2.0610001 0.5186373 0.40378505 4294967295
2.056 -0.92482209 0.4040848 4294967295
2.0555 0.52201307 0.38503075 4294967295
2.0556002 -0.92496705 0.39359266 4294967295
2.0549233 -0.94072229 0.38101757 4294967295
2.0526667 0.54193223 0.34711456 4294967295
2.0515001 0.53528601 0.36385119 4294967295
2.0538752 -0.94074214 0.35534751 4294967295
2.0585001 0.54905117 0.32510984 4294967295
2.0555296 -0.93536168 0.3255417 4294967295
2.0650001 0.57713765 0.293363 4294967295
2.0515001 0.56146568 0.30436027 4294967295
2.0637505 0.46785578 0.30038285 4294967295
2.0539446 -0.94163245 0.29563838 4294967295
2.0650001 0.54359961 0.25024265 4294967295
2.0595002 0.52303708 0.25335672 4294967295
2.0598335 0.50001317 0.25171611 4294967295
2.0610001 -0.95896113 0.27945638 4294967295
2.0532727 -0.96835065 0.26434255 4294967295
2.0573335 0.54636484 0.24647078 4294967295
2.0444 0.52395511 0.24819028 4294967295
2.0484002 0.49169227 0.24765852 4294967295
2.0539377 0.46294314 0.24037939 4294967295
2.0556154 0.43508995 0.2309292 4294967295
2.0567274 0.40736368 0.22834438 4294967295
2.0543334 0.37318063 0.23336896 4294967295
2.0542002 0.35009935 0.2325891 4294967295
2.052 0.31401303 0.22813591 4294967295
2.0618572 0.28444648 0.22673389 4294967295
2.057889 0.25206956 0.22942412 4294967295
2.0553849 0.2252163 0.23353434 4294967295
2.0523846 0.19412531 0.23578686 4294967295
2.0542002 0.16677248 0.23895535 4294967295
2.0541999 0.1356339 0.23783875 4294967295
2.0560002 0.104729 0.23233724 4294967295
2.0450001 0.06622874 0.22913155 4294967295
2.0548334 0.045112129 0.22535396 4294967295
2.0510001 0.011709382 0.22471437 4294967295
2.0541 -0.012579388 0.23022908 4294967295
2.0502856 -0.045367498 0.22634926 4294967295
2.0524001 -0.072050653 0.22523355 4294967295
2.0420001 -0.10679422 0.22482046 4294967295
2.0451999 -0.1686614 0.22435787 4294967295
2.0591667 -0.19609401 0.22233894 4294967295
2.0580001 -0.22461982 0.22250763 4294967295
2.0510001 -0.28575969 0.22234839 4294967295
2.0447145 -0.31565905 0.2291722 4294967295
2.0504003 -0.34510112 0.22836348 4294967295
2.0525002 -0.36687356 0.22806481 4294967295
2.0569999 -0.4082357 0.23219734 4294967295
2.0518334 -0.43341658 0.23292023 4294967295
2.0616667 -0.45702007 0.23154441 4294967295
2.0524001 -0.49307251 0.22807902 4294967295
2.062 -0.53123772 0.2267136 4294967295
2.0630002 -0.5554291 0.22657135 4294967295
2.0527146 -0.58357894 0.22803435 4294967295
2.053 -0.61229247 0.22799367 4294967295
2.0536668 -0.64736462 0.22473106 4294967295
2.0460002 -0.667153 0.22424224 4294967295
2.0569999 -0.70651609 0.22742477 4294967295
2.0474286 -0.73413885 0.22878611 4294967295
2.0530002 -0.7670927 0.2279937 4294967295
2.0602002 -0.79608226 0.2269696 4294967295
2.0508001 -0.81620634 0.22830662 4294967295
2.0650001 -0.89853728 0.23107803 4294967295
2.0538332 -0.91033256 0.23264042 4294967295
2.0535715 -0.94662642 0.24015859 4294967295
2.0550001 -0.96093738 0.24678102 4294967295
2.0535002 -0.26224267 0.21839362 4294967295
2.0610001 -0.27037153 0.21729207 4294967295
2.098 -0.91776419 1.691644 4294967295
