# .PCD v0.7 - Point Cloud Data file format
VERSION 0.7
FIELDS x y z rgb
SIZE 4 4 4 4
TYPE F F F U
COUNT 1 1 1 1
WIDTH 1111
HEIGHT 1
VIEWPOINT 0 0 0 1 0 0 0
POINTS 1111
DATA ascii
1.603294 0.79841608 0.47575888 4294967295
1.6031351 -0.92011631 0.47685155 4294967295
1.5970001 0.79370511 0.45682231 4294967295
1.6047906 -0.92253369 0.44646469 4294967295
1.597158 -0.93640548 0.43696234 4294967295
1.6006154 0.79642606 0.41260117 4294967295
1.6101669 -0.92559773 0.41654763 4294967295
1.5989766 -0.93731833 0.41612452 4294967295
1.6063637 0.79759645 0.38944736 4294967295
1.6100974 -0.92518014 0.38539064 4294967295
1.5975556 -0.93451244 0.38410723 4294967295
1.6055555 -0.92244709 0.35373494 4294967295
1.5946155 -0.93149322 0.36178219 4294967295
1.6023999 0.48451099 0.31984624 4294967295
1.608 0.47925949 0.32486528 4294967295
1.6051252 -0.92015648 0.32486689 4294967295
1.6036801 0.48837289 0.29667532 4294967295
1.6049206 -0.91415691 0.2967031 4294967295
1.6054667 0.48743647 0.26633108 4294967295
1.6043847 -0.92057908 0.26660731 4294967295
1.6019999 0.49067557 0.23845917 4294967295
1.598 -0.92889988 0.24637172 4294967295
1.6125 -0.93453056 0.24201235 4294967295
1.604 -0.9435662 0.21742567 4294967295
1.5995556 0.79466581 0.17703566 4294967295
1.6025714 -0.92412335 0.16563848 4294967295
1.6032821 -0.91736561 0.1431717 4294967295
1.6148001 -0.89671338 0.10486987 4294967295
1.6061766 -0.91176432 0.1144881 4294967295
1.6045455 0.79262537 0.082465798 4294967295
1.6051428 0.4938308 0.089796275 4294967295
1.6015002 0.46307904 0.086615056 4294967295
1.6010587 0.43544367 0.086007565 4294967295
1.6047692 0.40468681 0.077520609 4294967295
1.6044003 0.37394819 0.075532556 4294967295
1.6032308 0.34620759 0.081380337 4294967295
1.6024001 0.31472185 0.080167353 4294967295
1.6057142 0.28110716 0.084589392 4294967295
1.6017143 0.25441632 0.087788075 4294967295
1.6047273 0.22543521 0.084947646 4294967295
1.6093334 0.19278322 0.07827124 4294967295
1.602 0.17269355 0.074713379 4294967295
1.5997499 0.134837 0.074869841 4294967295
1.613 0.10278463 0.079125553 4294967295
1.6054999 0.07481394 0.082580358 4294967295
1.604 0.045744468 0.081286162 4294967295
1.6003333 0.015312689 0.081052125 4294967295
1.6028889 -0.016478274 0.083342284 4294967295
1.6035 -0.041545905 0.080333501 4294967295
1.6021538 -0.076631084 0.08167237 4294967295
1.602375 -0.10586803 0.085992038 4294967295
1.6046667 -0.13416861 0.086999953 4294967295
1.6037142 -0.16625534 0.082473785 4294967295
1.6040001 -0.19619584 0.079060793 4294967295
1.6035 -0.22799717 0.081733912 4294967295
1.6061177 -0.25451943 0.08463344 4294967295
1.6044209 -0.28374735 0.087853879 4294967295
1.6047693 -0.31389824 0.087546617 4294967295
1.6049999 -0.34486005 0.081593513 4294967295
1.6013844 -0.37328103 0.079025775 4294967295
1.6022222 -0.40472758 0.081049323 4294967295
1.6060001 -0.43744671 0.083441734 4294967295
1.6057336 -0.46497077 0.084723055 4294967295
1.6035295 -0.49418479 0.083153337 4294967295
1.6035717 -0.5242064 0.083042324 4294967295
1.6033334 -0.55380225 0.085810602 4294967295
1.6034546 -0.58506328 0.084280759 4294967295
1.6006249 -0.61266559 0.08646661 4294967295
1.6012001 -0.64544535 0.086817324 4294967295
1.603 -0.67515641 0.081877768 4294967295
1.6042 -0.70507473 0.07670486 4294967295
1.6024284 -0.73416519 0.074858218 4294967295
1.6030769 -0.76676059 0.074269295 4294967295
1.6052631 -0.79472202 0.074101001 4294967295
1.6033684 -0.82492703 0.084805638 4294967295
1.605 -0.85663271 0.090171337 4294967295
1.6048001 -0.88614213 0.093253642 4294967295
1.6 -0.90593469 0.095947683 4294967295
1.6042004 0.78926873 0.054488748 4294967295
1.6044707 0.79199558 0.026182383 4294967295
1.5994117 1.3360707 -0.016146541 4294967295
1.5949999 1.0576253 -0.0053816438 4294967295
1.592 1.0470159 -0.0037778616 4294967295
1.6062499 0.78711933 0.004581511 4294967295
1.6022668 0.76576912 -0.0045503378 4294967295
1.6039374 0.7329458 -0.010832012 4294967295
1.6045715 0.71755064 -0.017212868 4294967295
1.59875 1.3284026 -0.024232209 4294967295
1.5976192 1.3100005 -0.02741462 4294967295
1.5933332 0.72257102 -0.047963381 4294967295
1.6025556 0.71227872 -0.028918445 4294967295
1.6018261 0.73188818 -0.06647265 4294967295
1.6017145 0.72635478 -0.091099143 4294967295
1.6035239 0.71513426 -0.10490471 4294967295
1.5991002 0.70865273 -0.11388218 4294967295
1.6380833 -0.93224627 1.4271903 4294967295
1.63396 -0.92689443 1.4042673 4294967295
1.649 -0.93177825 1.3911591 4294967295
1.631348 -0.92738199 1.3743981 4294967295
1.6482 -0.93132621 1.379267 4294967295
1.6341788 -0.92378205 1.3441671 4294967295
1.6336538 -0.92440063 1.3171456 4294967295
1.6483334 -0.93140149 1.3066682 4294967295
1.6309334 -0.92736596 1.2844813 4294967295
1.6471113 -0.93113369 1.2869723 4294967295
1.6283334 -0.9276495 1.2637514 4294967295
1.63815 -0.93398458 1.2497306 4294967295
1.6338745 -0.93486059 1.224311 4294967295
1.6349999 -0.9365983 1.1942918 4294967295
1.6343811 -0.92620307 1.1606038 4294967295
1.6300771 -0.93240273 1.1740133 4294967295
1.6334581 -0.92313933 1.1346877 4294967295
1.6353334 0.49375254 1.1095077 4294967295
1.6355 0.47179899 1.0984924 4294967295
1.6272725 -0.92635822 1.1081908 4294967295
1.6411998 -0.93307078 1.1029847 4294967295
1.6210001 0.46244976 1.0848906 4294967295
1.6368375 -0.94109672 1.0730965 4294967295
1.6349167 -0.92316025 1.0434129 4294967295
1.628 -0.93499714 1.0562997 4294967295
1.6333911 -0.92228132 1.0144793 4294967295
1.648 -0.93121314 1.0025301 4294967295
1.6263332 -0.92839867 0.98863471 4294967295
1.6365292 -0.93141901 0.98542869 4294967295
1.649 0.51060921 0.95499945 4294967295
1.6373333 0.49622717 0.94496089 4294967295
1.6334641 -0.92595136 0.95453238 4294967295
1.647 -0.93064809 0.96975714 4294967295
1.6356156 0.48514292 0.92635584 4294967295
1.6302 -0.92719638 0.93073022 4294967295
1.6368399 -0.9311043 0.9221701 4294967295
1.6337501 0.49419418 0.89314824 4294967295
1.6331904 -0.92210495 0.89633322 4294967295
1.62 -0.9304263 0.90976262 4294967295
1.6363126 0.78664869 0.8553021 4294967295
1.6291428 0.77713954 0.86227489 4294967295
1.6265715 0.49611646 0.86497676 4294967295
1.6324118 -0.91660428 0.86437666 4294967295
1.6359389 0.79616135 0.83606434 4294967295
1.6326666 0.4979755 0.83262193 4294967295
1.6339165 -0.91754812 0.83617175 4294967295
1.6339285 0.79296547 0.80669016 4294967295
1.6340909 0.49736646 0.80457115 4294967295
1.6328516 -0.91421366 0.80451715 4294967295
1.6421666 0.79806143 0.7798124 4294967295
1.6322106 0.50061572 0.77556562 4294967295
1.6326059 -0.91457272 0.77446932 4294967295
1.63175 0.79393876 0.74314696 4294967295
1.6316 0.49940667 0.74497098 4294967295
1.6346772 -0.92108965 0.7470144 4294967295
1.62 0.78728884 0.72934616 4294967295
1.63375 0.49877575 0.71785045 4294967295
1.6311429 -0.9162727 0.71375036 4294967295
1.6409999 0.49797356 0.6812613 4294967295
1.6330664 -0.91403019 0.68316185 4294967295
1.6339334 0.79100966 0.6522904 4294967295
1.6300001 0.77625918 0.66407269 4294967295
1.6381668 0.49647868 0.65944517 4294967295
1.6285715 -0.89863485 0.66243833 4294967295
1.6335417 -0.90501636 0.65260327 4294967295
1.6296002 0.80101967 0.62775022 4294967295
1.6344998 -0.91802418 0.62590575 4294967295
1.6339999 0.8016749 0.58709127 4294967295
1.6436666 0.49751702 0.58749515 4294967295
1.6342399 -0.92054129 0.59498024 4294967295
1.6332 0.80354548 0.57152003 4294967295
1.6441666 0.49766833 0.56969094 4294967295
1.6312943 -0.92666268 0.56671852 4294967295
1.647 -0.93064803 0.56278646 4294967295
1.6392 0.80802935 0.53406334 4294967295
1.6319997 -0.92510551 0.53672564 4294967295
1.647 -0.93064809 0.54941183 4294967295
1.648 0.8123672 0.50163299 4294967295
1.6325002 0.80661118 0.5070377 4294967295
1.63545 -0.92486781 0.50404727 4294967295
1.648 0.8123672 0.47486985 4294967295
1.62675 0.80424547 0.47543642 4294967295
1.6321667 -0.92225057 0.47530285 4294967295
1.635 0.80216551 0.44496793 4294967295
1.6327085 -0.92255688 0.44497737 4294967295
1.647 0.81187427 0.40038031 4294967295
1.6343333 0.80394 0.41435534 4294967295
1.6331364 -0.92486078 0.41414127 4294967295
1.647 0.81187427 0.39464831 4294967295
1.631 0.80586654 0.39394844 4294967295
1.6352799 -0.92431033 0.38424388 4294967295
1.6328274 -0.91856873 0.35425809 4294967295
1.6313999 0.48394614 0.31975698 4294967295
1.6335552 -0.91344482 0.32524896 4294967295
1.6358334 0.48818022 0.29807949 4294967295
1.6311907 -0.90890419 0.29574358 4294967295
1.6425 0.49335301 0.26541886 4294967295
1.63275 -0.92352301 0.26915997 4294967295
1.642 -0.93314296 0.25598988 4294967295
1.6335 0.49535614 0.23749992 4294967295
1.6361427 -0.9413172 0.24064887 4294967295
1.6329999 0.80497307 0.17027798 4294967295
1.622 -0.931575 0.16510707 4294967295
1.6309376 -0.9206084 0.14139274 4294967295
1.63875 -0.9345426 0.15574616 4294967295
1.6306922 -0.89522064 0.10558304 4294967295
1.6364 -0.90888119 0.11962634 4294967295
1.6332221 0.80002463 0.081813276 4294967295
1.6390001 0.515091 0.089135081 4294967295
1.632625 0.49651706 0.086553097 4294967295
1.6308889 0.46713752 0.083699405 4294967295
1.6346667 0.43409017 0.081424803 4294967295
1.6284001 0.40676752 0.073796421 4294967295
1.632625 0.37530002 0.073778838 4294967295
1.64275 0.35049334 0.076714873 4294967295
1.6392857 0.3196044 0.073846221 4294967295
1.6409999 0.2758922 0.080994487 4294967295
1.6304001 0.25215161 0.083830237 4294967295
1.6388334 0.22163466 0.078406751 4294967295
1.6334286 0.1923063 0.074364424 4294967295
1.627 0.17539534 0.071535736 4294967295
1.6339999 0.11926628 0.071493685 4294967295
1.6463751 0.076237388 0.075736672 4294967295
1.6375715 0.045754153 0.076495439 4294967295
1.6310002 0.014979537 0.077997446 4294967295
1.6287143 -0.013424273 0.080502272 4294967295
1.6302859 -0.047456518 0.076295733 4294967295
1.6341666 -0.078532346 0.077774256 4294967295
1.6300001 -0.10601882 0.083937228 4294967295
1.6387501 -0.13319744 0.083508223 4294967295
1.638 -0.16295348 0.078633517 4294967295
1.6343333 -0.197357 0.075194091 4294967295
1.633889 -0.22568934 0.077843279 4294967295
1.6370001 -0.2576355 0.082447171 4294967295
1.6388888 -0.28428689 0.084944099 4294967295
1.6351666 -0.31500578 0.084461808 4294967295
1.6335715 -0.34690511 0.079207897 4294967295
1.6331428 -0.3771908 0.075518131 4294967295
1.6303333 -0.40109462 0.07628274 4294967295
1.63325 -0.43682662 0.07927838 4294967295
1.6428 -0.47087416 0.080512971 4294967295
1.6363333 -0.49558833 0.080984354 4294967295
1.6352501 -0.52751011 0.07873866 4294967295
1.6417999 -0.55972004 0.080780476 4294967295
1.6281251 -0.58467972 0.081614614 4294967295
1.6355001 -0.62245274 0.082465857 4294967295
1.6234285 -0.64237279 0.085695237 4294967295
1.636 -0.67660046 0.079630405 4294967295
1.6342858 -0.70891798 0.073592901 4294967295
1.6329999 -0.73141026 0.071768165 4294967295
1.638 -0.76974458 0.070395738 4294967295
1.6273333 -0.8037588 0.072069138 4294967295
1.6316999 -0.82884741 0.080073178 4294967295
1.6329231 -0.85592556 0.08898586 4294967295
1.633706 -0.88186491 0.095220327 4294967295
1.6331334 0.79340976 0.055569708 4294967295
1.6454 0.39878103 0.068364531 4294967295
1.6370001 0.16379975 0.067507029 4294967295
1.6325001 0.13870074 0.068755358 4294967295
1.642 -0.74495625 0.06929782 4294967295
1.6450001 -0.75966793 0.068474382 4294967295
1.6435999 -0.79602611 0.068858653 4294967295
1.6354616 0.79771197 0.027021587 4294967295
1.6344286 0.79158163 -0.0039263964 4294967295
1.6295 0.76353401 -0.010446906 4294967295
1.6328889 0.73377675 -0.014071286 4294967295
1.649 0.7229501 -0.026359677 4294967295
1.6317273 0.71347082 -0.028378308 4294967295
1.6292 0.72976118 -0.073856056 4294967295
1.6347499 0.72965795 -0.092734516 4294967295
1.62 0.71399462 -0.10695934 4294967295
1.638 0.72002769 -0.11202538 4294967295
1.6356667 0.71267408 -0.11617762 4294967295
1.678 -0.92869866 1.4551452 4294967295
1.67225 -0.93229991 1.4529097 4294967295
1.6725001 -0.92758286 1.4307413 4294967295
1.6627998 -0.93354017 1.4384223 4294967295
1.6701711 -0.92678094 1.4063041 4294967295
1.6608334 -0.93139094 1.3983555 4294967295
1.6697295 -0.92452127 1.3738415 4294967295
1.6595454 -0.9314279 1.3806369 4294967295
1.6659046 -0.92299271 1.3449448 4294967295
1.6683075 -0.92747784 1.3242085 4294967295
1.66664 -0.93198603 1.3119946 4294967295
1.673579 -0.92665571 1.2827502 4294967295
1.6622915 -0.93156409 1.2844076 4294967295
1.674381 -0.92724597 1.2563876 4294967295
1.6622502 -0.93346953 1.2554572 4294967295
1.6744707 -0.92697078 1.2224749 4294967295
1.6621621 -0.93367428 1.2238357 4294967295
1.6713074 -0.92647517 1.193404 4294967295
1.6599627 -0.93410873 1.1978202 4294967295
1.6670223 -0.92448479 1.164394 4294967295
1.653 -0.93020326 1.176581 4294967295
1.6705 0.49397677 1.1253858 4294967295
1.6678202 -0.92661452 1.135365 4294967295
1.6597999 -0.93094033 1.1226642 4294967295
1.661 0.48349458 1.1161709 4294967295
1.663 0.47828677 1.1149572 4294967295
1.67725 -0.92828351 1.1044903 4294967295
1.6658261 -0.93546635 1.1037776 4294967295
1.6721851 -0.92561048 1.0724862 4294967295
1.661906 -0.93616098 1.0787857 4294967295
1.6683075 -0.9245007 1.0452392 4294967295
1.6689394 -0.92507064 1.0184478 4294967295
1.6651816 -0.9317745 1.0056168 4294967295
1.673842 -0.92454797 0.9793452 4294967295
1.6643634 -0.93341649 0.98772013 4294967295
1.6719999 0.51190978 0.96494609 4294967295
1.6673043 0.49439922 0.95344269 4294967295
1.6688666 -0.92186648 0.95500803 4294967295
1.653 -0.93020326 0.95733309 4294967295
1.6669565 0.48774138 0.9244138 4294967295
1.6690999 -0.92374861 0.92582989 4294967295
1.6569997 -0.93140316 0.923908 4294967295
1.6693889 0.4986245 0.89559799 4294967295
1.6663436 -0.92464274 0.89552975 4294967295
1.661625 0.78630537 0.85375023 4294967295
1.6639999 0.49996418 0.86510789 4294967295
1.6659392 -0.92352492 0.86458099 4294967295
1.6662307 0.79099387 0.83567202 4294967295
1.6773334 0.77753097 0.84312874 4294967295
1.665435 0.50023031 0.83568227 4294967295
1.6669996 -0.91901487 0.83418834 4294967295
1.6662174 0.79981923 0.80657935 4294967295
1.6650952 0.49957442 0.8048836 4294967295
1.6664999 -0.91701698 0.80555439 4294967295
1.678 0.81158245 0.76604056 4294967295
1.6621429 0.80555797 0.77559096 4294967295
1.6661738 0.50061464 0.77531159 4294967295
1.6654878 -0.91514939 0.77442938 4294967295
1.6683334 0.80303627 0.73560828 4294967295
1.66625 0.50241274 0.74497825 4294967295
1.666921 -0.92274815 0.74649942 4294967295
1.6654001 0.50202733 0.71486187 4294967295
1.6665001 -0.92514294 0.71348834 4294967295
1.6696666 0.4994638 0.68297648 4294967295
1.6661142 -0.9152422 0.68537533 4294967295
1.6664283 0.79392558 0.65159953 4294967295
1.6730475 0.49771294 0.65837598 4294967295
1.664625 -0.90727621 0.65448415 4294967295
1.6681333 0.81067085 0.62229455 4294967295
1.6679163 0.80829245 0.63202709 4294967295
1.676 0.49952668 0.63936764 4294967295
1.6660248 -0.92011178 0.62513435 4294967295
1.6705999 0.81070852 0.58859938 4294967295
1.6613847 0.80857158 0.59949738 4294967295
1.6702666 0.49909306 0.58934927 4294967295
1.6662978 -0.92145228 0.59310222 4294967295
1.6677692 0.81376863 0.56556916 4294967295
1.6693751 0.4978576 0.56417674 4294967295
1.67203 -0.92443997 0.56677783 4294967295
1.6609999 -0.93152356 0.56302834 4294967295
1.6673684 0.81518435 0.53470176 4294967295
1.6709229 0.49819195 0.53661591 4294967295
1.6721619 -0.92524576 0.53602362 4294967295
1.6586665 -0.93081963 0.53744376 4294967295
1.6675001 0.81616342 0.50529128 4294967295
1.6745999 0.5014357 0.50824594 4294967295
1.66775 -0.92687398 0.50528914 4294967295
1.653 -0.93020326 0.51308417 4294967295
1.6671054 0.81688637 0.47587061 4294967295
1.6668333 -0.92442155 0.47435302 4294967295
1.6670001 0.8128311 0.44148034 4294967295
1.6661624 -0.92463392 0.44493267 4294967295
1.6687334 0.81380111 0.41532826 4294967295
1.6698823 -0.92806286 0.42150122 4294967295
1.6627058 -0.93042701 0.40967408 4294967295
1.6696666 0.8171013 0.3860763 4294967295
1.6673511 -0.9272806 0.38458174 4294967295
1.6713333 0.81611365 0.36371452 4294967295
1.666714 -0.91895038 0.35380965 4294967295
1.676 0.81839246 0.32244623 4294967295
1.654 0.49104738 0.32503131 4294967295
1.6658181 -0.90990865 0.32502395 4294967295
1.6653572 0.49000132 0.29471558 4294967295
1.6670569 -0.91134232 0.29748133 4294967295
1.6689091 0.49635315 0.26784226 4294967295
1.6658001 -0.92463398 0.27418113 4294967295
1.6673684 -0.93439907 0.25821158 4294967295
1.674 0.81741577 0.22364089 4294967295
1.6668571 0.49845433 0.23816687 4294967295
1.6696552 -0.94556427 0.237903 4294967295
1.6684999 -0.96408212 0.22461459 4294967295
1.663 0.51494426 0.2101545 4294967295
1.677 -0.97289205 0.21727222 4294967295
1.6711249 0.81745881 0.16842082 4294967295
1.6695715 0.81690496 0.15358877 4294967295
1.6665624 -0.92573065 0.13627431 4294967295
1.6669545 -0.93979722 0.14930207 4294967295
1.6658001 -0.89679891 0.10258242 4294967295
1.6673054 -0.91265953 0.11694869 4294967295
1.6744546 0.81198388 0.082649082 4294967295
1.6646667 0.8089813 0.073375404 4294967295
1.6694168 0.52079719 0.087276816 4294967295
1.6686668 0.49529836 0.082638651 4294967295
1.6689564 0.4652608 0.081102639 4294967295
1.67 0.43556395 0.077650875 4294967295
1.6725 0.41892716 0.07063362 4294967295
1.6685383 0.37430805 0.072746843 4294967295
1.6654285 0.34734139 0.072809666 4294967295
1.6642001 0.30832464 0.071711361 4294967295
1.6676 0.28655061 0.076592326 4294967295
1.6652501 0.25482798 0.07837069 4294967295
1.6682221 0.22580941 0.074143976 4294967295
1.6609999 0.2060145 0.071790218 4294967295
1.6696666 0.09345603 0.072045535 4294967295
1.6734285 0.075555824 0.072319061 4294967295
1.6669999 0.043685906 0.072757006 4294967295
1.6675882 0.015428017 0.074118972 4294967295
1.6677692 -0.014304242 0.074733168 4294967295
1.6653749 -0.043141831 0.071096301 4294967295
1.6668181 -0.074878693 0.072689772 4294967295
1.6673846 -0.10593837 0.078704298 4294967295
1.66975 -0.13477433 0.079604775 4294967295
1.6677499 -0.16654482 0.073843747 4294967295
1.6638571 -0.1951258 0.071019202 4294967295
1.6692142 -0.22728013 0.073732197 4294967295
1.6679546 -0.2553879 0.080655336 4294967295
1.6684997 -0.28429648 0.084488124 4294967295
1.6687144 -0.31458452 0.081610918 4294967295
1.6677692 -0.34616843 0.076225519 4294967295
1.6680769 -0.37482592 0.071674615 4294967295
1.6666 -0.40500835 0.070279092 4294967295
1.6667999 -0.43560776 0.072937608 4294967295
1.6663332 -0.46475059 0.077127904 4294967295
1.6687647 -0.49493989 0.079041272 4294967295
1.6688461 -0.52421385 0.07563746 4294967295
1.6684 -0.55448478 0.075993806 4294967295
1.6672001 -0.58579886 0.07669881 4294967295
1.6638888 -0.61463118 0.07616353 4294967295
1.6651874 -0.64558387 0.080085933 4294967295
1.6684544 -0.67459548 0.078233331 4294967295
1.669 -0.70076507 0.072407037 4294967295
1.6644286 -0.83565933 0.073626399 4294967295
1.6672271 -0.85572076 0.082950205 4294967295
1.6661924 -0.88348043 0.093891144 4294967295
1.6676872 0.8007732 0.054878771 4294967295
1.6689285 0.40448132 0.067722499 4294967295
1.6663333 0.38710099 0.069069564 4294967295
1.6719999 0.33346084 0.068821937 4294967295
1.6745 0.32231045 0.068147302 4294967295
1.6682501 0.18853404 0.06887272 4294967295
1.6682501 0.16602272 0.06451714 4294967295
1.6704999 0.13776714 0.0634197 4294967295
1.6670001 0.11780725 0.066303402 4294967295
1.67 -0.40893787 0.069361627 4294967295
1.671 -0.71740586 0.069091767 4294967295
1.6675001 -0.7352491 0.068110287 4294967295
1.6688749 -0.76683152 0.065793127 4294967295
1.6601999 -0.80481672 0.065852046 4294967295
1.6681999 -0.82224572 0.0675295 4294967295
1.6670401 0.80069089 0.026387244 4294967295
1.6681666 0.81198227 0.0021259189 4294967295
1.6656253 0.79592341 -0.012785196 4294967295
1.6636876 0.76435488 -0.016018629 4294967295
1.661 0.74363327 -0.018767178 4294967295
1.6682727 0.73262542 -0.027288854 4294967295
1.6620001 0.7164377 -0.037729442 4294967295
1.6664613 0.73818487 -0.098904967 4294967295
1.6669999 0.73131722 -0.11594802 4294967295
1.6961875 -0.92841274 1.4586182 4294967295
1.6940385 -0.92620981 1.4350221 4294967295
1.6926072 -0.92203015 1.405477 4294967295
1.6921303 -0.92045599 1.3744936 4294967295
1.6919999 -0.92187172 1.3464669 4294967295
1.7045 -0.93150103 1.3354498 4294967295
1.6901001 -0.9287011 1.3104787 4294967295
1.695857 -0.93181986 1.317817 4294967295
1.6940999 -0.92447919 1.28459 4294967295
1.6945883 -0.9251312 1.2545978 4294967295
1.693257 -0.92364013 1.2267294 4294967295
1.6934814 -0.92443877 1.1948882 4294967295
1.6960454 -0.92346376 1.1648664 4294967295
1.6943438 -0.92432976 1.1349967 4294967295
1.6936551 -0.92758155 1.105922 4294967295
1.6935186 -0.9230023 1.0757318 4294967295
1.6945896 -0.91707599 1.0436308 4294967295
1.6942432 -0.92300373 1.0161093 4294967295
1.6943334 0.51415783 0.97614068 4294967295
1.7 0.5027197 0.97396761 4294967295
1.6924707 -0.91957903 0.9851619 4294967295
1.6924165 0.4890143 0.95529526 4294967295
1.6943847 -0.91385663 0.95622468 4294967295
1.6918999 0.48717752 0.92213321 4294967295
1.6935998 -0.91831958 0.92640686 4294967295
1.6942581 0.49480346 0.89476794 4294967295
1.6937368 -0.92663956 0.89729989 4294967295
1.6966001 0.49593264 0.865206 4294967295
1.6943334 -0.92480117 0.86529917 4294967295
1.6923332 0.78735584 0.82978034 4294967295
1.6908572 0.77687311 0.84161079 4294967295
1.6933551 0.49377227 0.83387244 4294967295
1.6943637 -0.91789871 0.83453929 4294967295
1.7045001 0.81351614 0.79860699 4294967295
1.6920909 0.80268091 0.8111167 4294967295
1.6924 0.49523318 0.80609131 4294967295
1.6919049 -0.91581416 0.8051722 4294967295
1.7016667 0.81908095 0.77937108 4294967295
1.6799999 0.80865186 0.78777218 4294967295
1.695739 0.49803838 0.77472305 4294967295
1.6937059 -0.9161135 0.77353537 4294967295
1.7012501 0.81789434 0.74874067 4294967295
1.695875 0.4995293 0.7450406 4294967295
1.69295 -0.92360097 0.74584097 4294967295
1.7045 -0.93150103 0.73433077 4294967295
1.6955135 0.49680921 0.71401513 4294967295
1.6908123 -0.9271872 0.71370578 4294967295
1.7061666 -0.93306762 0.72069049 4294967295
1.6905142 0.4926244 0.68724567 4294967295
1.6930667 -0.91685766 0.68797976 4294967295
1.6940556 0.79137748 0.64763558 4294967295
1.6894345 0.49124637 0.64951903 4294967295
1.6942855 -0.91243351 0.65301526 4294967295
1.6849998 0.81105858 0.62046117 4294967295
1.6947803 0.80307728 0.62745738 4294967295
1.6964886 0.49370313 0.62434703 4294967295
1.6935501 -0.92078274 0.62450773 4294967295
1.6971 0.81371695 0.59281307 4294967295
1.6997272 0.80809224 0.60555911 4294967295
1.6959513 0.49266988 0.59846228 4294967295
1.6945219 -0.91987419 0.59537923 4294967295
1.6985556 0.81843626 0.56112599 4294967295
1.6939411 0.49376035 0.56364292 4294967295
1.6941613 -0.9197396 0.56356448 4294967295
1.6947742 0.81498301 0.53671074 4294967295
1.7023636 0.80755913 0.5285036 4294967295
1.6970713 0.49257514 0.53456748 4294967295
1.6931924 -0.92046314 0.53497863 4294967295
1.6952974 0.81556755 0.50315213 4294967295
1.7031428 0.80708116 0.5108875 4294967295
1.6906799 0.49446207 0.50154346 4294967295
1.6920769 -0.92408645 0.5059799 4294967295
1.7025666 0.82134122 0.47443911 4294967295
1.6922973 0.49936962 0.47698832 4294967295
1.6924546 -0.92133296 0.47367024 4294967295
1.6929334 0.81432581 0.44957343 4294967295
1.6976844 0.80677384 0.43837798 4294967295
1.7019414 0.49818966 0.44632894 4294967295
1.6930368 -0.92026722 0.44577917 4294967295
1.6868999 0.81333214 0.41057408 4294967295
1.6976666 0.80553097 0.41703919 4294967295
1.689 -0.92815268 0.41792387 4294967295
1.701 -0.93155575 0.41027495 4294967295
1.7006668 0.81736588 0.38402331 4294967295
1.7071248 0.80734873 0.39056253 4294967295
1.7085 0.49831128 0.38600421 4294967295
1.6945925 -0.92649907 0.38367939 4294967295
1.7045 -0.93150103 0.39818442 4294967295
1.6994857 0.81621587 0.35827717 4294967295
1.7062666 0.80651003 0.34936786 4294967295
1.7038571 0.49426836 0.3516376 4294967295
1.6945184 -0.91656178 0.35543686 4294967295
1.6915666 0.81578362 0.32401001 4294967295
1.7017726 0.80709535 0.3247948 4294967295
1.6919998 -0.90641308 0.32575843 4294967295
1.7031 0.81620169 0.2976988 4294967295
1.7078001 0.80855995 0.30562258 4294967295
1.69525 0.49541613 0.28282392 4294967295
1.6952856 -0.91202474 0.29460961 4294967295
1.6994231 0.81495738 0.26343322 4294967295
1.7076428 0.80780572 0.26183605 4294967295
1.6942499 0.49905857 0.26332536 4294967295
1.6904999 -0.92676449 0.27221742 4294967295
1.6955383 -0.93384403 0.25857624 4294967295
1.6968387 0.81624097 0.23218465 4294967295
1.7044116 0.80713648 0.23339245 4294967295
1.691 0.50119591 0.23629773 4294967295
1.6935756 -0.94038767 0.23518017 4294967295
1.6799999 -0.96488655 0.22257867 4294967295
1.6886922 0.81478679 0.20581833 4294967295
1.6993603 0.80597311 0.20511588 4294967295
1.696 0.51596934 0.20926434 4294967295
1.6996666 -0.97222477 0.21646935 4294967295
1.6943516 0.81564897 0.17520925 4294967295
1.7062353 0.8063727 0.17298618 4294967295
1.6980541 0.81700599 0.14536557 4294967295
1.7080001 0.80392271 0.1425741 4294967295
1.6915001 -0.92699248 0.13485536 4294967295
1.6961578 -0.9426567 0.14639539 4294967295
1.6945 -0.96337688 0.15710717 4294967295
1.6950802 0.81541848 0.11265028 4294967295
1.704788 0.8037926 0.11404628 4294967295
1.6899999 -0.89768142 0.10239378 4294967295
1.6950799 -0.91469157 0.11639938 4294967295
1.689158 0.813052 0.089562625 4294967295
1.6993237 0.80529249 0.083152384 4294967295
1.701 0.5444718 0.088622749 4294967295
1.6954782 0.52378798 0.08987087 4294967295
1.6939583 0.49438575 0.086330712 4294967295
1.6945454 0.46518734 0.0859887 4294967295
1.6931999 0.43345851 0.081032932 4294967295
1.6938571 0.40672985 0.074313849 4294967295
1.6940001 0.37545085 0.07300365 4294967295
1.68625 0.35195386 0.071826965 4294967295
1.6938332 0.30637097 0.072114766 4294967295
1.6878573 0.28377867 0.076291353 4294967295
1.6900001 0.25727826 0.075728029 4294967295
1.69025 0.23120192 0.071740657 4294967295
1.699158 0.19290034 0.073128492 4294967295
1.70225 0.1765683 0.071525693 4294967295
1.682 0.099354662 0.07002601 4294967295
1.696 0.071652807 0.070215732 4294967295
1.6902858 0.044952497 0.07173112 4294967295
1.6929998 0.017130708 0.073767245 4294967295
1.6927999 -0.012338686 0.074605852 4294967295
1.682 -0.037233789 0.07002601 4294967295
1.6856667 -0.07447055 0.071656078 4294967295
1.6978571 -0.10455687 0.075356543 4294967295
1.7001429 -0.13340972 0.075886637 4294967295
1.6949999 -0.15744886 0.07245943 4294967295
1.6799999 -0.18141131 0.070561081 4294967295
1.6919334 -0.22718129 0.074708879 4294967295
1.6945555 -0.25439325 0.083059013 4294967295
1.6949999 -0.28485811 0.087057412 4294967295
1.6963331 -0.31502646 0.081942409 4294967295
1.6976364 -0.34552518 0.075877666 4294967295
1.693125 -0.3753098 0.072707295 4294967295
1.697857 -0.39606607 0.070862055 4294967295
1.689 -0.44885939 0.072072148 4294967295
1.6958181 -0.46784738 0.074567407 4294967295
1.69225 -0.49486867 0.079062849 4294967295
1.6920832 -0.52622628 0.076827854 4294967295
1.6940714 -0.5520969 0.074388564 4294967295
1.698 -0.58321011 0.075606793 4294967295
1.68875 -0.61135948 0.073127121 4294967295
1.694091 -0.64421314 0.077154398 4294967295
1.6925715 -0.67757332 0.077863127 4294967295
1.6950001 -0.7005688 0.072849333 4294967295
1.6866666 -0.8369661 0.071391642 4294967295
1.694857 -0.85430145 0.078106284 4294967295
1.6952223 -0.88117284 0.091400534 4294967295
1.6946857 0.79996961 0.05653277 4294967295
1.6849999 0.40642664 0.069223464 4294967295
1.7 0.34298247 0.066197842 4294967295
1.7036667 0.31804377 0.065546006 4294967295
1.7015001 0.21696399 0.068757087 4294967295
1.6896667 0.19608535 0.068852037 4294967295
1.6965624 0.16760188 0.065647781 4294967295
1.6896666 0.13112518 0.061456144 4294967295
1.6995 0.11123516 0.064360619 4294967295
1.7027501 0.077876896 0.068425566 4294967295
1.702 -0.029778659 0.068624496 4294967295
1.6889998 -0.046501599 0.068814218 4294967295
1.70075 -0.064289629 0.06797865 4294967295
1.702 -0.16799122 0.068624496 4294967295
1.6861429 -0.19771987 0.068917722 4294967295
1.698 -0.21355049 0.068382144 4294967295
1.6938751 -0.40791479 0.067837894 4294967295
1.6963333 -0.4350926 0.068167925 4294967295
1.69525 -0.71600008 0.068457574 4294967295
1.7006665 -0.73803544 0.065032244 4294967295
1.6947778 -0.76493758 0.063996166 4294967295
1.688375 -0.79535091 0.064403236 4294967295
1.6960666 -0.82456332 0.066012919 4294967295
1.6948572 0.79911822 0.025397032 4294967295
1.6944165 0.81491774 -0.0033874512 4294967295
1.6861428 0.79204601 -0.017149329 4294967295
1.688 0.77529526 -0.017740965 4294967295
1.709 0.81468046 -0.020465672 4294967295
1.6950001 0.76212919 -0.022588849 4294967295
1.6921667 0.73924845 -0.033466876 4294967295
1.6926666 0.74405795 -0.10171276 4294967295
1.6936001 0.73896056 -0.121696 4294967295
1.738 -0.92964643 1.4643884 4294967295
1.7274287 -0.93256342 1.4642613 4294967295
1.7294999 -0.92532378 1.4330448 4294967295
1.7215 -0.93080199 1.4474303 4294967295
1.7265624 -0.92362756 1.4050763 4294967295
1.726 -0.92453825 1.3753405 4294967295
1.7293334 -0.92766255 1.3530545 4294967295
1.7290436 -0.9346031 1.3409891 4294967295
1.7317501 -0.92828959 1.3098199 4294967295
1.7245791 -0.93339396 1.3207178 4294967295
1.7298945 -0.92422915 1.2833717 4294967295
1.7279533 -0.92200363 1.2546871 4294967295
1.7287296 -0.9246648 1.2250192 4294967295
1.725 -0.93069732 1.2111833 4294967295
1.7278973 -0.92503071 1.1953602 4294967295
1.7298747 -0.92250395 1.1630263 4294967295
1.7303452 -0.92149889 1.1360912 4294967295
1.7278709 -0.92691839 1.1053803 4294967295
1.7215 -0.93080199 1.1159179 4294967295
1.7270416 -0.92643744 1.0742469 4294967295
1.7262665 -0.91440302 1.0439966 4294967295
1.7261349 -0.92435586 1.0160363 4294967295
1.7233999 0.51284194 0.98822951 4294967295
1.7298572 0.50238419 0.98091519 4294967295
1.7264373 -0.91717225 0.98479754 4294967295
1.7256362 0.48919296 0.95663333 4294967295
1.7263 -0.91682339 0.95522332 4294967295
1.7275335 0.48895782 0.92465448 4294967295
1.7274781 -0.92452222 0.92638081 4294967295
1.7286667 -0.93133456 0.91317642 4294967295
1.7223126 0.4910914 0.89616096 4294967295
1.7268399 -0.93391359 0.89571607 4294967295
1.7232 0.49146467 0.86555791 4294967295
1.7258002 -0.9283039 0.85752422 4294967295
1.7285457 -0.9322331 0.87133932 4294967295
1.7273701 0.79224551 0.82930052 4294967295
1.7145 0.77950788 0.84100628 4294967295
1.725706 0.48935816 0.8343668 4294967295
1.7275416 -0.92269748 0.83526027 4294967295
1.7310001 0.81788111 0.80618644 4294967295
1.7275 0.80645138 0.81838477 4294967295
1.7254444 0.49334541 0.80478972 4294967295
1.727389 -0.91971087 0.80544639 4294967295
1.7275 0.82799935 0.78131628 4294967295
1.7246472 0.49541825 0.77416682 4294967295
1.7278963 -0.9225598 0.77493215 4294967295
1.7276667 0.82625324 0.74594235 4294967295
1.7255 0.49424386 0.74496973 4294967295
1.7307997 -0.92641753 0.74878442 4294967295
1.7270666 -0.93366838 0.73703116 4294967295
1.7282501 0.49202728 0.71524739 4294967295
1.7336876 -0.9283244 0.70985746 4294967295
1.7288572 -0.93429196 0.71839857 4294967295
1.7245386 0.48813406 0.68592823 4294967295
1.7262354 -0.92333847 0.68794137 4294967295
1.7247273 0.79487848 0.65047526 4294967295
1.7218001 0.48680571 0.64903188 4294967295
1.7282777 -0.92153454 0.65423644 4294967295
1.7261903 0.79691315 0.62548369 4294967295
1.7148185 0.48432824 0.62695336 4294967295
1.7279599 -0.92746663 0.6254313 4294967295
1.7229443 0.81153631 0.58918852 4294967295
1.7310771 0.80819374 0.59908998 4294967295
1.7185385 0.48735657 0.59024346 4294967295
1.7286538 -0.92493546 0.5951407 4294967295
1.716586 0.81388867 0.56741709 4294967295
1.7307824 0.80724329 0.56436598 4294967295
1.7272 0.49280566 0.56782758 4294967295
1.7284472 -0.92092413 0.56490409 4294967295
1.716 0.81005448 0.54666263 4294967295
1.7232797 0.80611253 0.53478259 4294967295
1.7300001 0.49393582 0.53404015 4294967295
1.7280416 -0.92480135 0.53582531 4294967295
1.7143332 0.81059104 0.49227822 4294967295
1.7265935 0.80501693 0.50475556 4294967295
1.7292107 0.49425501 0.5063113 4294967295
1.7192222 -0.92933685 0.50326848 4294967295
1.7321426 -0.93225002 0.5029974 4294967295
1.7152001 0.8134523 0.47561362 4294967295
1.7306787 0.80692935 0.47461271 4294967295
1.7271667 0.49405542 0.47337872 4294967295
1.7283043 -0.92652792 0.47188777 4294967295
1.7295001 -0.9311136 0.48467496 4294967295
1.7143334 0.81059104 0.45780355 4294967295
1.7265294 0.8045162 0.44468021 4294967295
1.726421 0.49556682 0.44626406 4294967295
1.7283713 -0.92378408 0.44408301 4294967295
1.7262857 0.80087227 0.4146539 4294967295
1.7313334 0.49592125 0.42235872 4294967295
1.7324617 -0.92728359 0.41472301 4294967295
1.72025 -0.93186504 0.41177517 4294967295
1.7231394 0.8022387 0.38443762 4294967295
1.7274686 0.49217021 0.38126427 4294967295
1.7291777 -0.92507511 0.38505784 4294967295
1.71975 -0.93084615 0.3980861 4294967295
1.7203885 0.79967618 0.35714045 4294967295
1.7245997 0.48998892 0.35986656 4294967295
1.7288485 -0.92047584 0.35664093 4294967295
1.7225933 0.80190027 0.32507354 4294967295
1.7254999 -0.91637319 0.32834077 4294967295
1.7126665 0.81112754 0.28766197 4294967295
1.7221712 0.80380648 0.29446784 4294967295
1.711 0.49804884 0.28854716 4294967295
1.7286472 -0.91754943 0.2892223 4294967295
1.7223226 0.80270118 0.26483899 4294967295
1.7286251 0.50417173 0.2611196 4294967295
1.7317998 -0.92792022 0.27689081 4294967295
1.728619 -0.93721741 0.26171979 4294967295
1.724583 0.80240452 0.23570421 4294967295
1.7269167 0.505678 0.2366401 4294967295
1.7281034 -0.94064313 0.23509103 4294967295
1.7245356 0.80391246 0.20498678 4294967295
1.7284546 0.52462512 0.20343417 4294967295
1.7293334 -0.95396996 0.21473399 4294967295
1.7278748 -0.97332066 0.20933229 4294967295
1.7271429 -0.99538237 0.20392576 4294967295
1.7241468 0.80211055 0.17465094 4294967295
1.7223599 0.79721296 0.14651114 4294967295
1.7283794 -0.9430089 0.14073411 4294967295
1.7301999 -0.97390527 0.15294838 4294967295
1.7216293 0.79523301 0.112845 4294967295
1.7296561 -0.92039955 0.11309311 4294967295
1.72875 -0.93170428 0.12671316 4294967295
1.7223885 0.79694754 0.084424078 4294967295
1.738 0.57042754 0.099401712 4294967295
1.7295767 0.55362034 0.094364583 4294967295
1.7280835 0.52522522 0.093461901 4294967295
1.7268572 0.49621123 0.091102153 4294967295
1.7286 0.46385968 0.088858366 4294967295
1.727963 0.43348029 0.084920019 4294967295
1.7279061 0.40461624 0.079441994 4294967295
1.7321668 0.37592193 0.073195606 4294967295
1.7346666 0.34336665 0.074729979 4294967295
1.72984 0.31650704 0.074102968 4294967295
1.7270001 0.28600037 0.071688086 4294967295
1.7302858 0.25645924 0.071742773 4294967295
1.7321725 0.22317843 0.075744689 4294967295
1.7269664 0.19603239 0.078989893 4294967295
1.7298259 0.16847041 0.074698478 4294967295
1.738 0.14701957 0.071174532 4294967295
1.738 0.064354204 0.071174532 4294967295
1.7322 0.043251414 0.07108444 4294967295
1.7260667 0.014927584 0.07186535 4294967295
1.7246364 -0.013056281 0.072461516 4294967295
1.7351 -0.079856537 0.072339237 4294967295
1.7289166 -0.1031223 0.072191536 4294967295
1.7321428 -0.13477305 0.071546584 4294967295
1.727 -0.15042411 0.070008278 4294967295
1.738 -0.20783661 0.071174532 4294967295
1.727762 -0.22664566 0.075171083 4294967295
1.7267222 -0.25633901 0.083448946 4294967295
1.7276001 -0.28380993 0.087763369 4294967295
1.7282503 -0.31472799 0.084134847 4294967295
1.7293 -0.34534454 0.079059958 4294967295
1.7284162 -0.37466356 0.077800572 4294967295
1.7304616 -0.40351582 0.074993968 4294967295
1.737 -0.42333049 0.071432769 4294967295
1.7329998 -0.46884665 0.072741836 4294967295
1.7287059 -0.49478182 0.075944155 4294967295
1.7285715 -0.52554458 0.075623631 4294967295
1.7254502 -0.55619502 0.074634969 4294967295
1.731706 -0.58592641 0.074464023 4294967295
1.7268822 -0.61421782 0.072180957 4294967295
1.7290001 -0.64527512 0.073296875 4294967295
1.7283846 -0.67463022 0.075826466 4294967295
1.7301 -0.69981861 0.072824121 4294967295
1.7299502 -0.85829431 0.074465692 4294967295
1.7278063 -0.88510925 0.088815659 4294967295
1.7322856 -0.90361249 0.098492265 4294967295
1.7209628 0.79684776 0.0569489 4294967295
1.729 0.36288327 0.069487154 4294967295
1.7252727 0.34354448 0.066102743 4294967295
1.7205 0.32517263 0.06438759 4294967295
1.7244999 0.24390306 0.068665504 4294967295
1.7256668 0.2300732 0.067692161 4294967295
1.72475 0.15639344 0.064859509 4294967295
1.7308619 0.13726564 0.05960241 4294967295
1.7311252 0.10326861 0.06367144 4294967295
1.7286667 0.075107373 0.067441911 4294967295
1.7252499 0.046873029 0.068802625 4294967295
1.729 0.029922567 0.069487154 4294967295
1.729 -0.024233697 0.069487154 4294967295
1.7286817 -0.045374479 0.065938532 4294967295
1.7301428 -0.074415445 0.067188591 4294967295
1.729 -0.090424679 0.069487154 4294967295
1.7297001 -0.16830996 0.065702677 4294967295
1.7305385 -0.19951764 0.063224614 4294967295
1.7265 -0.21246658 0.06814146 4294967295
1.7228 -0.41627049 0.067917049 4294967295
1.7316316 -0.43502849 0.0647946 4294967295
1.728875 -0.45744187 0.067520291 4294967295
1.7203332 -0.62615508 0.069091052 4294967295
1.7276667 -0.71566802 0.068505853 4294967295
1.7306668 -0.73588008 0.065495789 4294967295
1.7306316 -0.76463813 0.062736839 4294967295
1.7310001 -0.79737175 0.058932006 4294967295
1.7306502 -0.82772857 0.06304425 4294967295
1.7247999 -0.84413421 0.068187565 4294967295
1.7258571 0.79943573 0.024924785 4294967295
1.727706 0.8207503 -0.0075111389 4294967295
1.732 0.80714673 0.0060186386 4294967295
1.7297778 0.81923258 -0.023011625 4294967295
1.7261819 0.79589772 -0.025166571 4294967295
1.72975 0.75835079 -0.039064825 4294967295
1.725 0.74626404 -0.045537114 4294967295
1.729 0.7419771 -0.052865863 4294967295
1.7296667 0.75362664 -0.12665969 4294967295
1.7205 0.74630797 -0.13388371 4294967295
1.7336668 0.74464685 -0.14357203 4294967295
1.7543262 -0.91647828 1.4916527 4294967295
1.7410001 -0.93125105 1.4821762 4294967295
1.7523193 -0.9206534 1.4645743 4294967295
1.7497045 -0.91410404 1.4356673 4294967295
1.7509319 -0.91705137 1.404736 4294967295
1.7506921 -0.91499478 1.3750328 4294967295
1.7505778 -0.92217737 1.3465118 4294967295
1.7410001 -0.93125105 1.3367572 4294967295
1.7521462 -0.9209162 1.3148534 4294967295
1.7506663 -0.91182393 1.2853832 4294967295
1.7523336 -0.91236758 1.255157 4294967295
1.7496088 -0.91411418 1.2245634 4294967295
1.7496891 -0.91358525 1.1954401 4294967295
1.7531875 -0.89529574 1.1586707 4294967295
1.7461935 -0.90995902 1.1687078 4294967295
1.7496666 -0.89594913 1.1434695 4294967295
1.7498977 -0.90985173 1.1307732 4294967295
1.7522105 -0.92267638 1.1060936 4294967295
1.7511111 -0.92263818 1.0741651 4294967295
1.7525556 -0.91482788 1.044428 4294967295
1.751393 -0.92053223 1.0145069 4294967295
1.7410001 0.51082087 0.99542636 4294967295
1.7526364 0.49906415 0.9823314 4294967295
1.7506802 -0.91350222 0.98636746 4294967295
1.7514999 0.4886916 0.95273197 4294967295
1.7516429 -0.91544378 0.95565194 4294967295
1.746875 0.48822638 0.92608941 4294967295
1.7512 -0.92571801 0.92792642 4294967295
1.7583333 -0.93166143 0.91380525 4294967295
1.7469333 0.49012774 0.89463019 4294967295
1.7517405 -0.93381381 0.89508855 4294967295
1.7504998 0.49159703 0.86804736 4294967295
1.7510834 -0.92714757 0.85733199 4294967295
1.7524167 -0.93225199 0.87215245 4294967295
1.7432728 0.7872569 0.82469749 4294967295
1.7567142 0.48980361 0.83084327 4294967295
1.7528621 -0.9197582 0.83345765 4294967295
1.7498518 0.81850231 0.79828805 4294967295
1.7532188 0.79550231 0.80608356 4294967295
1.7607501 0.77190638 0.80470484 4294967295
1.7553333 0.74174106 0.7929914 4294967295
1.7512352 0.49158478 0.80604768 4294967295
1.7498611 -0.91251248 0.80442417 4294967295
1.7567915 0.83062905 0.77981681 4294967295
1.7690001 0.80429083 0.7896446 4294967295
1.7554168 0.73431808 0.78146046 4294967295
1.7507056 0.49382091 0.77537131 4294967295
1.7515142 -0.91815525 0.77501947 4294967295
1.755375 0.83524513 0.74988157 4294967295
1.7512668 0.49134287 0.7452243 4294967295
1.7505745 -0.91663659 0.74474847 4294967295
1.7532308 0.49029627 0.71964264 4294967295
1.7507608 -0.92045617 0.71620989 4294967295
1.7540001 -0.92512751 0.68578732 4294967295
1.7410001 0.79761952 0.65207589 4294967295
1.7535999 -0.92332375 0.65222043 4294967295
1.7514167 0.79305881 0.61983716 4294967295
1.7522352 -0.92479616 0.62411308 4294967295
1.7531787 0.8050639 0.59604681 4294967295
1.7525556 -0.91921741 0.59455574 4294967295
1.7512802 0.80458546 0.565418 4294967295
1.7506876 0.48953339 0.56370813 4294967295
1.7513413 -0.91316736 0.5651449 4294967295
1.7512 0.80613661 0.53563142 4294967295
1.7512858 0.49148446 0.53501755 4294967295
1.7524999 -0.92242151 0.53619266 4294967295
1.766 -0.93233114 0.52285498 4294967295
1.7546958 0.80405432 0.50389713 4294967295
1.7546189 0.49095759 0.50306219 4294967295
1.7554444 -0.92763764 0.49206546 4294967295
1.7512273 -0.93171293 0.50768912 4294967295
1.7527826 0.80229318 0.47315088 4294967295
1.7526113 0.49049208 0.47539535 4294967295
1.752234 -0.91862738 0.47405022 4294967295
1.7519999 0.79808557 0.44463378 4294967295
1.7531667 0.49403235 0.43944478 4294967295
1.7515948 -0.91591036 0.44616771 4294967295
1.7534286 0.79762721 0.41749758 4294967295
1.7522175 0.49005282 0.41359389 4294967295
1.7514238 -0.91468024 0.41504741 4294967295
1.7521178 0.79959071 0.38317996 4294967295
1.7515385 0.48607928 0.38809213 4294967295
1.7506669 -0.91084367 0.38490984 4294967295
1.751875 0.79751074 0.36379981 4294967295
1.762 0.48836541 0.36749917 4294967295
1.7497097 -0.91388494 0.35835269 4294967295
1.7522727 0.8020308 0.31771135 4294967295
1.7486924 -0.92068553 0.32277954 4294967295
1.7490712 0.80159289 0.29963514 4294967295
1.7532381 -0.91452456 0.28941828 4294967295
1.7533 0.80079943 0.2584275 4294967295
1.758 0.50706476 0.25948474 4294967295
1.766 -0.89955175 0.2647174 4294967295
1.7548822 -0.91390395 0.26500204 4294967295
1.7445713 -0.93344593 0.25913855 4294967295
1.7517334 0.80062777 0.23373085 4294967295
1.757375 0.50669014 0.23412639 4294967295
1.7606155 -0.92192781 0.24145427 4294967295
1.7507037 -0.93612546 0.23336524 4294967295
1.7524446 0.80397868 0.20614561 4294967295
1.7532939 0.51846874 0.20291442 4294967295
1.756 0.50910366 0.21727231 4294967295
1.7522103 -0.95048952 0.21043962 4294967295
1.7510419 -0.97281212 0.19696015 4294967295
1.7445002 -1.0015247 0.19496709 4294967295
1.7524999 0.80242485 0.17473739 4294967295
1.7542 0.54807138 0.18338192 4294967295
1.7599999 0.53476441 0.18459108 4294967295
1.7690001 -0.92981058 0.16167417 4294967295
1.7634 -0.95030445 0.16308644 4294967295
1.7579179 -0.97625345 0.17303818 4294967295
1.7548647 -1.0003917 0.17841899 4294967295
1.7519443 0.79877311 0.14549369 4294967295
1.760875 0.5718025 0.14802513 4294967295
1.7631539 0.56199521 0.13848075 4294967295
1.7584002 -0.92319125 0.14120823 4294967295
1.7516201 -0.94202673 0.15026498 4294967295
1.7448126 -0.97249776 0.15645483 4294967295
1.7410001 -0.99184233 0.15926698 4294967295
1.75175 0.79745406 0.11138731 4294967295
1.745 0.57156491 0.11507815 4294967295
1.7514611 0.55531359 0.11424324 4294967295
1.7564374 0.52603686 0.10578603 4294967295
1.7596662 0.49398786 0.107061 4294967295
1.7591054 0.46585974 0.10699037 4294967295
1.7639999 0.44307038 0.10293955 4294967295
1.7684 0.37115538 0.10025084 4294967295
1.7690001 0.35691318 0.10010844 4294967295
1.768 0.18647818 0.10034579 4294967295
1.7678751 0.17005298 0.10140157 4294967295
1.7690001 -0.0022202362 0.10010844 4294967295
1.7690001 -0.35724929 0.10010844 4294967295
1.7672857 -0.37536088 0.10051537 4294967295
1.759591 -0.89273912 0.10476872 4294967295
1.7520171 -0.91173792 0.11712477 4294967295
1.7459999 0.79585922 0.08733353 4294967295
1.7410001 0.54515594 0.098675728 4294967295
1.7417501 0.52518064 0.098494202 4294967295
1.7435454 0.49318311 0.096590847 4294967295
1.7438824 0.46429867 0.095600963 4294967295
1.7516453 0.43408012 0.09428224 4294967295
1.7540528 0.40348175 0.090623558 4294967295
1.7500595 0.37452778 0.088558227 4294967295
1.7510444 0.34600881 0.089325547 4294967295
1.752707 0.31448874 0.084766001 4294967295
1.7536306 0.28508115 0.080529124 4294967295
1.7515001 0.25520006 0.083982885 4294967295
1.7536471 0.22576277 0.088225007 4294967295
1.7531316 0.19379489 0.090840667 4294967295
1.7513468 0.16381696 0.087995231 4294967295
1.752896 0.13607194 0.082526863 4294967295
1.7528508 0.10483416 0.080951363 4294967295
1.752359 0.076404817 0.078027517 4294967295
1.753125 0.044574764 0.077456117 4294967295
1.7547607 0.012671391 0.082724661 4294967295
1.7540184 -0.014633288 0.084466398 4294967295
1.753623 -0.045476109 0.083183914 4294967295
1.7488334 -0.074559242 0.087124348 4294967295
1.7533723 -0.1029652 0.081615299 4294967295
1.7584 -0.1337723 0.073263913 4294967295
1.760625 -0.16713636 0.074705511 4294967295
1.7574413 -0.19600195 0.077086508 4294967295
1.7549667 -0.22370343 0.081069529 4294967295
1.7531924 -0.25439432 0.087454289 4294967295
1.7500454 -0.284383 0.092440337 4294967295
1.7520771 -0.31614622 0.090854406 4294967295
1.7528161 -0.34583098 0.091772348 4294967295
1.7487222 -0.37512845 0.092431515 4294967295
1.7517731 -0.40530545 0.089544713 4294967295
1.748746 -0.4353697 0.083260596 4294967295
1.7498041 -0.46342146 0.083781481 4294967295
1.7520689 -0.49378371 0.08326605 4294967295
1.7548848 -0.52414244 0.080300301 4294967295
1.7538004 -0.55395895 0.080134541 4294967295
1.7536249 -0.58554357 0.079868644 4294967295
1.7539997 -0.61644936 0.080209911 4294967295
1.7538378 -0.64600641 0.081190199 4294967295
1.7549179 -0.67460346 0.086698413 4294967295
1.7550782 -0.70457464 0.084213406 4294967295
1.7531694 -0.73497313 0.079501569 4294967295
1.7520208 -0.76432347 0.080777973 4294967295
1.7524664 -0.79523683 0.082015783 4294967295
1.7529545 -0.82597005 0.081022203 4294967295
1.7522159 -0.85488719 0.084037513 4294967295
1.7496772 -0.8804704 0.093842536 4294967295
1.7460908 0.79773676 0.054363221 4294967295
1.7424545 0.13048908 0.067453235 4294967295
1.7428571 0.10959259 0.067033917 4294967295
1.7437999 -0.042646814 0.069676727 4294967295
1.743 -0.14777367 0.069883317 4294967295
1.7449 -0.16655645 0.068180352 4294967295
1.7445883 -0.19123982 0.066143811 4294967295
1.7410001 -0.44652101 0.066360384 4294967295
1.741889 -0.77096599 0.067926139 4294967295
1.7418571 -0.79430163 0.066138625 4294967295
1.7424119 -0.82071334 0.066708118 4294967295
1.7511249 0.7986846 0.021569639 4294967295
1.7467998 0.81700718 -0.014855027 4294967295
1.7534443 0.80488235 -0.0006172657 4294967295
1.7503999 0.81651133 -0.022987306 4294967295
1.752 0.796538 -0.029660225 4294967295
1.7528334 0.76712263 -0.04312861 4294967295
1.745 0.75086766 -0.052094042 4294967295
1.75 0.75808692 -0.1308766 4294967295
1.7575001 0.75317734 -0.14590675 4294967295
1.7490001 0.74650073 -0.14876914 4294967295
1.7872857 -0.90505207 1.5145595 4294967295
1.783815 -0.914895 1.4945601 4294967295
1.785647 -0.9158774 1.4674739 4294967295
1.7840002 -0.91699106 1.4355571 4294967295
1.7859474 -0.91514528 1.4035096 4294967295
1.7850589 -0.91680634 1.3723881 4294967295
1.7845001 -0.92312825 1.3453659 4294967295
1.7860434 -0.91604489 1.3167028 4294967295
1.785 -0.91365772 1.2849171 4294967295
1.7870625 -0.91597128 1.2546886 4294967295
1.7840669 -0.91370982 1.2254605 4294967295
1.7854999 -0.91413414 1.1952929 4294967295
1.7802501 -0.89854932 1.1651714 4294967295
1.7864001 -0.90328962 1.1685979 4294967295
1.7861429 -0.91424876 1.1332517 4294967295
1.7828889 -0.92560935 1.1125766 4294967295
1.7878752 -0.9329859 1.0994815 4294967295
1.7844999 -0.92511022 1.0739535 4294967295
1.7835 -0.93122196 1.0877206 4294967295
1.7863637 -0.92574292 1.0439783 4294967295
1.7847859 -0.92448765 1.0153507 4294967295
1.783 0.50106174 0.98687863 4294967295
1.783 -0.91854584 0.98413122 4294967295
1.7745001 0.49183002 0.96134615 4294967295
1.7859375 -0.92394018 0.95460683 4294967295
1.7795001 0.4932158 0.92541564 4294967295
1.776 -0.92936921 0.93493342 4294967295
1.7852144 -0.93536603 0.92436135 4294967295
1.7777144 0.4927209 0.89407766 4294967295
1.7847649 -0.93905807 0.89580756 4294967295
1.7906666 0.49631083 0.87603486 4294967295
1.776 -0.92936921 0.85252094 4294967295
1.7869375 -0.93481928 0.86569941 4294967295
1.789 0.49273115 0.83209896 4294967295
1.7856668 -0.92280978 0.83609092 4294967295
1.7788463 0.78859282 0.79368162 4294967295
1.7825716 0.77176225 0.79613769 4294967295
