# .PCD v0.7 - Point Cloud Data file format
VERSION 0.7
FIELDS x y z rgb
SIZE 4 4 4 4
TYPE F F F U
COUNT 1 1 1 1
WIDTH 1065
HEIGHT 1
VIEWPOINT 0 0 0 1 0 0 0
POINTS 1065
DATA ascii
-1.3321794 0.8385936 -0.24298726 4278190080
-1.3209037 0.83794761 -0.24142465 4278190080
-1.3096488 0.83723319 -0.23986202 4278190080
-1.2984149 0.83645046 -0.23829941 4278190080
-1.2872025 0.8355999 -0.23673679 4278190080
-1.2760122 0.83468097 -0.23517418 4278190080
-1.2648439 0.83369422 -0.23361155 4278190080
-1.2536983 0.83263969 -0.23204894 4278190080
-1.2466799 0.83426422 -0.23126763 4278190080
-1.2355704 0.83308923 -0.22970499 4278190080
-1.2285699 0.83462185 -0.22892368 4278190080
-1.2174983 0.8333264 -0.22736107 4278190080
-1.2105165 0.83476746 -0.22657976 4278190080
-1.1994836 0.83335221 -0.22501715 4278190080
-1.1884754 0.8318705 -0.22345452 4278190080
-1.1815283 0.83316785 -0.22267321 4278190080
-1.1705607 0.83156675 -0.2211106 4278190080
-1.1636349 0.83277351 -0.22032928 4278190080
-1.1527089 0.83105391 -0.21876667 4278190080
-1.1458049 0.83217067 -0.21798536 4278190080
-1.1349217 0.83033305 -0.21642275 4278190080
-1.1280409 0.83135957 -0.21564144 4278190080
-1.1172014 0.82940441 -0.21407881 4278190080
-1.1103445 0.83034146 -0.21329752 4278190080
-1.0994054 0.82846141 -0.21173489 4278190080
-1.0925732 0.82930809 -0.21095358 4278190080
-1.0857484 0.83011723 -0.21017228 4278190080
-1.0789311 0.83088905 -0.20939095 4278190080
-1.0682198 0.82859629 -0.20782833 4278190080
-1.0614294 0.82927948 -0.20704702 4278190080
-1.0507662 0.82687134 -0.20548441 4278190080
-1.0440031 0.82746655 -0.20470309 4278190080
-1.0333891 0.82494384 -0.20314048 4278190080
-1.0266544 0.82545137 -0.20235917 4278190080
-1.0160909 0.82281411 -0.20079654 4278190080
-1.0093853 0.82323456 -0.20001525 4278190080
-1.0026895 0.82361823 -0.19923393 4278190080
-0.99980819 0.82711345 -0.19923393 4278190080
-0.99691498 0.83059835 -0.19923393 4278190080
-0.99400967 0.83407313 -0.19923393 4278190080
-0.99109215 0.83753771 -0.19923393 4278190080
-0.99568444 0.84739369 -0.20079654 4278190080
-0.97397166 0.83479488 -0.19689001 4278190080
-0.97852874 0.84464347 -0.19845262 4278190080
-0.9643929 0.83833396 -0.1961087 4278190080
-0.7910924 0.8609094 -0.17891988 4278190080
-0.78475368 0.86001748 -0.17813857 4278190080
-0.78837878 0.87007105 -0.17970119 4278190080
-0.77873039 0.86547518 -0.17813857 4278190080
-0.77241421 0.86450541 -0.17735727 4278190080
-0.76283675 0.85980797 -0.17579465 4278190080
-0.75656617 0.85875988 -0.17501333 4278190080
-0.75031209 0.85767871 -0.17423204 4278190080
-0.744075 0.85656416 -0.17345072 4278190080
-0.73462921 0.85167706 -0.1718881 4278190080
-0.72843927 0.85048532 -0.1711068 4278190080
-0.71906716 0.84549868 -0.16954416 4278190080
-0.70973861 0.84045732 -0.16798154 4278190080
-0.70362741 0.83914536 -0.16720024 4278190080
-0.69753414 0.83780098 -0.16641892 4278190080
-0.69145882 0.83642435 -0.16563761 4278190080
-0.68525577 0.83513528 -0.1648563 4278190080
-0.67921716 0.83369339 -0.164075 4278190080
-0.67319697 0.8322196 -0.16329369 4278190080
-0.66719544 0.83071393 -0.16251238 4278190080
-0.66429168 0.83303779 -0.16251238 4278190080
-0.65831405 0.83147973 -0.16173108 4278190080
-0.65540767 0.8337726 -0.16173108 4278190080
-0.64945483 0.83216202 -0.16094977 4278190080
-0.64654613 0.83442396 -0.16094977 4278190080
-0.64362955 0.8366757 -0.16094977 4278190080
-0.63770741 0.83499259 -0.16016845 4278190080
-0.63478893 0.83721346 -0.16016845 4278190080
-0.6288926 0.83547848 -0.15938714 4278190080
-0.62301624 0.83371258 -0.15860584 4278190080
-0.61701453 0.83202368 -0.15782453 4278190080
-0.61410648 0.83417237 -0.15782453 4278190080
-0.60827702 0.83232361 -0.15704322 4278190080
-0.60536802 0.83444178 -0.15704322 4278190080
-0.59971076 0.83243769 -0.15626191 4278190080
-0.5968014 0.834526 -0.15626191 4278190080
-0.59088057 0.83268028 -0.15548061 4278190080
-0.58527136 0.83059806 -0.15469928 4278190080
-0.57953799 0.82858902 -0.15391797 4278190080
-0.57664222 0.83060694 -0.15391797 4278190080
-0.57079238 0.82864785 -0.15313667 4278190080
-0.56789643 0.83063519 -0.15313667 4278190080
-0.56222051 0.8285259 -0.15235536 4278190080
-0.55932504 0.83048332 -0.15235536 4278190080
-0.5536781 0.82832503 -0.15157405 4278190080
-0.54805326 0.8261373 -0.15079273 4278190080
-0.54516625 0.82804525 -0.15079273 4278190080
-0.53957123 0.82580888 -0.15001144 4278190080
-0.53654081 0.82778102 -0.15001144 4278190080
-0.53364807 0.82964885 -0.15001144 4278190080
-0.52809173 0.8273437 -0.14923012 4278190080
-0.52520055 0.82918203 -0.14923012 4278190080
-0.51967478 0.82682908 -0.14844881 4278190080
-0.5167855 0.82863802 -0.14844881 4278190080
-0.51129115 0.82623732 -0.1476675 4278190080
-0.50840402 0.828017 -0.1476675 4278190080
-0.50551063 0.8297866 -0.1476675 4278190080
-0.50005627 0.82731968 -0.1468862 4278190080
-0.49716535 0.82906014 -0.1468862 4278190080
-0.49174336 0.82654625 -0.14610489 4278190080
-0.48885521 0.82825774 -0.14610489 4278190080
-0.48346576 0.8256973 -0.14532357 4278190080
-0.48043609 0.82746381 -0.14532357 4278190080
-0.47754481 0.82913578 -0.14532357 4278190080
-0.47219783 0.82650948 -0.14454226 4278190080
-0.46687487 0.82385623 -0.14376095 4278190080
-0.46399626 0.82548088 -0.14376095 4278190080
-0.46111202 0.82709545 -0.14376095 4278190080
-0.45583239 0.82437807 -0.14297964 4278190080
-0.45057741 0.82163399 -0.14219834 4278190080
-0.44770646 0.82320189 -0.14219834 4278190080
-0.44483027 0.82475966 -0.14219834 4278190080
-0.43961948 0.82195252 -0.14141703 4278190080
-0.4367477 0.82348204 -0.14141703 4278190080
-0.43387058 0.82500154 -0.14141703 4278190080
-0.42870453 0.82213211 -0.14063571 4278190080
-0.42583218 0.82362354 -0.14063571 4278190080
-0.42295465 0.82510495 -0.14063571 4278190080
-0.41783452 0.82217366 -0.1398544 4278190080
-0.41496208 0.82362711 -0.1398544 4278190080
-0.41194046 0.82514256 -0.1398544 4278190080
-0.40905771 0.82657546 -0.1398544 4278190080
-0.40399498 0.82356441 -0.1390731 4278190080
-0.40111756 0.82496971 -0.1390731 4278190080
-0.3982355 0.82636482 -0.1390731 4278190080
-0.39534855 0.82774985 -0.1390731 4278190080
-0.39034393 0.82466108 -0.13829179 4278190080
-0.387463 0.82601857 -0.13829179 4278190080
-0.38235191 0.82295442 -0.13751048 4278190080
-0.37947696 0.82428402 -0.13751048 4278190080
-0.37454784 0.82111043 -0.13672917 4278190080
-0.3716794 0.82241279 -0.13672917 4278190080
-0.36880621 0.82370526 -0.13672917 4278190080
-0.36406946 0.82040972 -0.13594787 4278190080
-0.36120352 0.82167554 -0.13594787 4278190080
-0.35833317 0.82293135 -0.13594787 4278190080
-0.35545847 0.82417715 -0.13594787 4278190080
-0.35063946 0.82087129 -0.13516656 4278190080
-0.34762838 0.82215095 -0.13516656 4278190080
-0.34475645 0.82335937 -0.13516656 4278190080
-0.34188035 0.82455778 -0.13516656 4278190080
-0.33900005 0.82574612 -0.13516656 4278190080
-0.33425578 0.82234937 -0.13438524 4278190080
-0.33138326 0.82351112 -0.13438524 4278190080
-0.32667908 0.82007486 -0.13360393 4278190080
-0.32381454 0.82121015 -0.13360393 4278190080
-0.32080239 0.82239151 -0.13360393 4278190080
-0.31615111 0.81889915 -0.13282262 4278190080
-0.31329075 0.81999773 -0.13282262 4278190080
-0.31042656 0.82108629 -0.13282262 4278190080
-0.30755836 0.82216495 -0.13282262 4278190080
-0.30468664 0.82323349 -0.13282262 4278190080
-0.30181119 0.82429206 -0.13282262 4278190080
-0.2972503 0.82069713 -0.13204131 4278190080
-0.29438376 0.82172972 -0.13204131 4278190080
-0.28986406 0.81809735 -0.13126001 4278190080
-0.28700665 0.81910414 -0.13126001 4278190080
-0.28414574 0.82010096 -0.13126001 4278190080
-0.28128138 0.82108784 -0.13126001 4278190080
-0.27841356 0.8220647 -0.13126001 4278190080
-0.27554217 0.82303154 -0.13126001 4278190080
-0.27111611 0.81929982 -0.1304787 4278190080
-0.26825461 0.82024121 -0.1304787 4278190080
-0.26387113 0.81647331 -0.12969738 4278190080
-0.26087674 0.81743497 -0.12969738 4278190080
-0.2580218 0.8183406 -0.12969738 4278190080
-0.25516373 0.81923628 -0.12969738 4278190080
-0.25230256 0.82012194 -0.12969738 4278190080
-0.24943809 0.82099771 -0.12969738 4278190080
-0.2465708 0.82186341 -0.12969738 4278190080
-0.24370049 0.8227191 -0.12969738 4278190080
-0.23944114 0.81882465 -0.12891607 4278190080
-0.23658149 0.81965548 -0.12891607 4278190080
-0.23371874 0.82047635 -0.12891607 4278190080
-0.23085336 0.82128716 -0.12891607 4278190080
-0.22798517 0.822088 -0.12891607 4278190080
-0.22497045 0.82291812 -0.12891607 4278190080
-0.22209659 0.82369834 -0.12891607 4278190080
-0.21795101 0.81969583 -0.12813477 4278190080
-0.21508846 0.82045162 -0.12813477 4278190080
-0.21222328 0.82119745 -0.12813477 4278190080
-0.20935529 0.82193327 -0.12813477 4278190080
-0.20514004 0.81790483 -0.12735346 4278190080
-0.2022838 0.81861591 -0.12735346 4278190080
-0.19942489 0.8193171 -0.12735346 4278190080
-0.19656399 0.82000816 -0.12735346 4278190080
-0.19256581 0.8158828 -0.12657215 4278190080
-0.1897165 0.81655008 -0.12657215 4278190080
-0.18686533 0.81720728 -0.12657215 4278190080
-0.18401143 0.81785458 -0.12657215 4278190080
-0.18115573 0.81849188 -0.12657215 4278190080
-0.17829737 0.81911927 -0.12657215 4278190080
-0.17543685 0.81973672 -0.12657215 4278190080
-0.17257462 0.82034403 -0.12657215 4278190080
-0.16970986 0.82094151 -0.12657215 4278190080
-0.16684347 0.82152885 -0.12657215 4278190080
-0.16383098 0.82213491 -0.12657215 4278190080
-0.16096047 0.82270169 -0.12657215 4278190080
-0.15808754 0.82325858 -0.12657215 4278190080
-0.15521313 0.82380533 -0.12657215 4278190080
-0.1523364 0.82434213 -0.12657215 4278190080
-0.1494578 0.82486892 -0.12657215 4278190080
-0.14657782 0.82538557 -0.12657215 4278190080
-0.14284909 0.82102674 -0.12579083 4278190080
-0.13998257 0.82152033 -0.12579083 4278190080
-0.13630134 0.81713265 -0.12500952 4278190080
-0.133448 0.81760347 -0.12500952 4278190080
-0.13059348 0.81806427 -0.12500952 4278190080
-0.12759393 0.81853747 -0.12500952 4278190080
-0.12473619 0.81897783 -0.12500952 4278190080
-0.12187649 0.8194083 -0.12500952 4278190080
-0.11901574 0.81982869 -0.12500952 4278190080
-0.11615311 0.82023913 -0.12500952 4278190080
-0.11328906 0.82063961 -0.12500952 4278190080
-0.11042406 0.82103002 -0.12500952 4278190080
-0.10755728 0.82141054 -0.12500952 4278190080
-0.10454606 0.82179922 -0.12500952 4278190080
-0.10167664 0.82215917 -0.12500952 4278190080
-0.098806411 0.82250905 -0.12500952 4278190080
-0.095362633 0.81794357 -0.12422821 4278190080
-0.092507154 0.81827146 -0.12422821 4278190080
-0.089650117 0.81858939 -0.12422821 4278190080
-0.086791985 0.81889737 -0.12422821 4278190080
-0.083933234 0.81919533 -0.12422821 4278190080
-0.081073023 0.81948334 -0.12422821 4278190080
-0.07774321 0.81484503 -0.1234469 4278190080
-0.074898221 0.81511146 -0.1234469 4278190080
-0.072052322 0.81536794 -0.1234469 4278190080
-0.069063485 0.81562656 -0.1234469 4278190080
-0.06621626 0.81586266 -0.1234469 4278190080
-0.063367791 0.81608886 -0.1234469 4278190080
-0.060518548 0.81630504 -0.1234469 4278190080
-0.057669003 0.81651133 -0.1234469 4278190080
-0.054818321 0.81670767 -0.1234469 4278190080
-0.051824693 0.81690311 -0.1234469 4278190080
-0.04867721 0.81214929 -0.12266559 4278190080
-0.045842241 0.81231427 -0.12266559 4278190080
-0.043006282 0.8124693 -0.12266559 4278190080
-0.040413633 0.81754708 -0.1234469 4278190080
-0.037559874 0.81768316 -0.1234469 4278190080
-0.034705225 0.81780928 -0.1234469 4278190080
-0.031658422 0.81299061 -0.12266559 4278190080
-0.028820189 0.81309617 -0.12266559 4278190080
-0.025981605 0.81319183 -0.12266559 4278190080
-0.023143137 0.81327754 -0.12266559 4278190080
-0.020303955 0.81335336 -0.12266559 4278190080
-0.017464958 0.81341928 -0.12266559 4278190080
-0.01453654 0.80853754 -0.12188429 4278190080
-0.011713956 0.80858332 -0.12188429 4278190080
-0.0088916607 0.80861932 -0.12188429 4278190080
-0.0060688262 0.80864543 -0.12188429 4278190080
-0.0032463486 0.80866164 -0.12188429 4278190080
-0.00042340043 0.80866808 -0.12188429 4278190080
0.0023995528 0.80866462 -0.12188429 4278190080
0.00536332 0.80865037 -0.12188429 4278190080
0.0081857452 0.80862677 -0.12188429 4278190080
0.011008502 0.80859327 -0.12188429 4278190080
0.013831125 0.80854988 -0.12188429 4278190080
0.016653148 0.80849671 -0.12188429 4278190080
0.019475399 0.80843365 -0.12188429 4278190080
0.022296982 0.80836076 -0.12188429 4278190080
0.025118724 0.80827796 -0.12188429 4278190080
0.02794016 0.80818534 -0.12188429 4278190080
0.030948682 0.8130179 -0.12266559 4278190080
0.033928644 0.81289899 -0.12266559 4278190080
0.036765724 0.81277561 -0.12266559 4278190080
0.03960279 0.81264234 -0.12266559 4278190080
0.042181339 0.8075673 -0.12188429 4278190080
0.045000188 0.80741513 -0.12188429 4278190080
0.047818493 0.80725312 -0.12188429 4278190080
0.050635781 0.80708134 -0.12188429 4278190080
0.053452887 0.80689961 -0.12188429 4278190080
0.056268908 0.80670816 -0.12188429 4278190080
0.059084672 0.80650681 -0.12188429 4278190080
0.062419035 0.81120884 -0.12266559 4278190080
0.065250471 0.81098604 -0.12266559 4278190080
0.068080686 0.81075335 -0.12266559 4278190080
0.070910498 0.81051075 -0.12266559 4278190080
0.073739454 0.81025827 -0.12266559 4278190080
0.076567076 0.80999595 -0.12266559 4278190080
0.079394192 0.80972373 -0.12266559 4278190080
0.082219914 0.80944169 -0.12266559 4278190080
0.085045062 0.80914974 -0.12266559 4278190080
0.087869175 0.8088479 -0.12266559 4278190080
0.090833046 0.80852044 -0.12266559 4278190080
0.093654491 0.80819851 -0.12266559 4278190080
0.096475236 0.80786663 -0.12266559 4278190080
0.099294797 0.80752492 -0.12266559 4278190080
0.10211273 0.80717343 -0.12266559 4278190080
0.10492983 0.80681205 -0.12266559 4278190080
0.10839925 0.81133598 -0.1234469 4278190080
0.11123085 0.8109526 -0.1234469 4278190080
0.11420228 0.81053948 -0.1234469 4278190080
0.11688953 0.81015635 -0.1234469 4278190080
0.11971696 0.80974334 -0.1234469 4278190080
0.12254251 0.80932057 -0.1234469 4278190080
0.12536699 0.80888784 -0.1234469 4278190080
0.12818994 0.80844527 -0.1234469 4278190080
0.13115206 0.80797005 -0.1234469 4278190080
0.13397178 0.80750728 -0.1234469 4278190080
0.13678943 0.80703479 -0.1234469 4278190080
0.14044814 0.81141853 -0.12422821 4278190080
0.1432794 0.8109234 -0.12422821 4278190080
0.14610934 0.81041831 -0.12422821 4278190080
0.14893752 0.80990332 -0.12422821 4278190080
0.15085329 0.80452454 -0.1234469 4278190080
0.15380089 0.80396628 -0.1234469 4278190080
0.1566065 0.80342448 -0.1234469 4278190080
0.15941018 0.8028729 -0.1234469 4278190080
0.16319019 0.80715221 -0.12422821 4278190080
0.16600685 0.80657762 -0.12422821 4278190080
0.16882105 0.80599332 -0.12422821 4278190080
0.17163365 0.80539906 -0.12422821 4278190080
0.17444414 0.80479497 -0.12422821 4278190080
0.17845643 0.8089729 -0.12500952 4278190080
0.18127935 0.80834496 -0.12500952 4278190080
0.18409963 0.80770731 -0.12500952 4278190080
0.18691811 0.80705976 -0.12500952 4278190080
0.18973388 0.80640244 -0.12500952 4278190080
0.19254777 0.80573517 -0.12500952 4278190080
0.1953593 0.80505812 -0.12500952 4278190080
0.19816802 0.8043713 -0.12500952 4278190080
0.20097478 0.80367464 -0.12500952 4278190080
0.20377864 0.80296826 -0.12500952 4278190080
0.20795298 0.80699831 -0.12579083 4278190080
0.2107684 0.80626756 -0.12579083 4278190080
0.21358168 0.80552691 -0.12579083 4278190080
0.21639194 0.80477655 -0.12579083 4278190080
0.21919999 0.80401623 -0.12579083 4278190080
0.22200537 0.80324614 -0.12579083 4278190080
0.22613983 0.80722189 -0.12657215 4278190080
0.22895636 0.80642754 -0.12657215 4278190080
0.23176967 0.80562347 -0.12657215 4278190080
0.23596253 0.80955076 -0.12735346 4278190080
0.23892798 0.80868053 -0.12735346 4278190080
0.24174951 0.80784154 -0.12735346 4278190080
0.24456768 0.80699283 -0.12735346 4278190080
0.2473833 0.80613416 -0.12735346 4278190080
0.25019589 0.80526567 -0.12735346 4278190080
0.253005 0.80438751 -0.12735346 4278190080
0.25730968 0.80820519 -0.12813477 4278190080
0.260129 0.80730218 -0.12813477 4278190080
0.2630865 0.80634326 -0.12813477 4278190080
0.2658993 0.8054201 -0.12813477 4278190080
0.26870927 0.80448693 -0.12813477 4278190080
0.271516 0.80354404 -0.12813477 4278190080
0.27431899 0.80259144 -0.12813477 4278190080
0.27711904 0.80162895 -0.12813477 4278190080
0.2800552 0.80060792 -0.12813477 4278190080
0.2844952 0.80428129 -0.12891607 4278190080
0.28730068 0.80328339 -0.12891607 4278190080
0.29010308 0.8022756 -0.12891607 4278190080
0.29290152 0.80125815 -0.12891607 4278190080
0.29569682 0.80023074 -0.12891607 4278190080
0.30021644 0.80382007 -0.12969738 4278190080
0.30302018 0.80276734 -0.12969738 4278190080
0.30596074 0.80165118 -0.12969738 4278190080
0.30875692 0.80057842 -0.12969738 4278190080
0.31154975 0.7994957 -0.12969738 4278190080
0.31614754 0.80299866 -0.1304787 4278190080
0.31894878 0.80189013 -0.1304787 4278190080
0.32174614 0.80077183 -0.1304787 4278190080
0.32453912 0.79964399 -0.1304787 4278190080
0.32732859 0.7985062 -0.1304787 4278190080
0.33025295 0.79730117 -0.1304787 4278190080
0.33480015 0.80075794 -0.13126001 4278190080
0.33759344 0.79958433 -0.13126001 4278190080
0.34038219 0.79840118 -0.13126001 4278190080
0.34330609 0.79714829 -0.13126001 4278190080
0.34805599 0.80047393 -0.13204131 4278190080
0.3508482 0.79925406 -0.13204131 4278190080
0.35363573 0.79802459 -0.13204131 4278190080
0.35641938 0.79678524 -0.13204131 4278190080
0.35919824 0.7955364 -0.13204131 4278190080
0.36197317 0.79427761 -0.13204131 4278190080
0.36474368 0.79300916 -0.13204131 4278190080
0.36958864 0.79621077 -0.13282262 4278190080
0.37236583 0.79491574 -0.13282262 4278190080
0.37724864 0.79807609 -0.13360393 4278190080
0.3800323 0.7967543 -0.13360393 4278190080
0.38281137 0.79542279 -0.13360393 4278190080
0.38774249 0.79852438 -0.13438524 4278190080
0.39066651 0.79709792 -0.13438524 4278190080
0.39344668 0.79572928 -0.13438524 4278190080
0.39842644 0.79877037 -0.13516656 4278190080
0.40121201 0.79737484 -0.13516656 4278190080
0.40413213 0.7958988 -0.13516656 4278190080
0.40690762 0.79448342 -0.13516656 4278190080
0.40967858 0.7930581 -0.13516656 4278190080
0.41472602 0.7960031 -0.13594787 4278190080
0.41750222 0.79455054 -0.13594787 4278190080
0.42027336 0.79308826 -0.13594787 4278190080
0.42303896 0.7916165 -0.13594787 4278190080
0.42814264 0.79448241 -0.13672917 4278190080
0.43091303 0.79298323 -0.13672917 4278190080
0.43605173 0.79580516 -0.13751048 4278190080
0.43896547 0.79420167 -0.13751048 4278190080
0.44173524 0.79266447 -0.13751048 4278190080
0.44691831 0.79542333 -0.13829179 4278190080
0.44969231 0.79385835 -0.13829179 4278190080
0.45246083 0.79228371 -0.13829179 4278190080
0.45522338 0.79069966 -0.13829179 4278190080
0.45798084 0.78910571 -0.13829179 4278190080
0.46322617 0.79176503 -0.1390731 4278190080
0.46598729 0.79014313 -0.1390731 4278190080
0.4712663 0.79275674 -0.1398544 4278190080
0.47416863 0.79102421 -0.1398544 4278190080
0.47948098 0.79359108 -0.14063571 4278190080
0.48224798 0.79191273 -0.14063571 4278190080
0.48759282 0.79443341 -0.14141703 4278190080
0.49036267 0.79272676 -0.14141703 4278190080
0.49573967 0.795201 -0.14219834 4278190080
0.49851257 0.79346561 -0.14219834 4278190080
0.50392085 0.79589337 -0.14297964 4278190080
0.50683445 0.7940411 -0.14297964 4278190080
0.50960326 0.79226696 -0.14297964 4278190080
0.51236582 0.79048318 -0.14297964 4278190080
0.51782233 0.79282486 -0.14376095 4278190080
0.52058685 0.79101235 -0.14376095 4278190080
0.52607393 0.79330635 -0.14454226 4278190080
0.52884007 0.79146504 -0.14454226 4278190080
0.53435779 0.79371083 -0.14532357 4278190080
0.53712487 0.79184091 -0.14532357 4278190080
0.54267234 0.79403841 -0.14610489 4278190080
0.5454405 0.79213947 -0.14610489 4278190080
0.5510174 0.79428834 -0.1468862 4278190080
0.5539248 0.79226351 -0.1468862 4278190080
0.55953103 0.79436249 -0.1476675 4278190080
0.56230026 0.79240471 -0.1476675 4278190080
0.56793505 0.79445451 -0.14844881 4278190080
0.57359099 0.79647464 -0.14923012 4278190080
0.57636744 0.79446775 -0.14923012 4278190080
0.58205128 0.79643816 -0.15001144 4278190080
0.58482754 0.79440176 -0.15001144 4278190080
0.59053886 0.79632217 -0.15079273 4278190080
0.59331512 0.79425585 -0.15079273 4278190080
0.59919214 0.79602164 -0.15157405 4278190080
0.60196733 0.79392511 -0.15157405 4278190080
0.60473472 0.79181921 -0.15157405 4278190080
0.60749519 0.78970337 -0.15157405 4278190080
0.61327261 0.79148197 -0.15235536 4278190080
0.61603183 0.78933632 -0.15235536 4278190080
0.62183559 0.79106367 -0.15313667 4278190080
0.62765843 0.79276037 -0.15391797 4278190080
0.630422 0.79056442 -0.15391797 4278190080
0.63627005 0.79220968 -0.15469928 4278190080
0.63903165 0.78998375 -0.15469928 4278190080
0.64490485 0.79157692 -0.15548061 4278190080
0.64766377 0.78932118 -0.15548061 4278190080
0.65356123 0.79086238 -0.15626191 4278190080
0.65645534 0.78846174 -0.15626191 4278190080
0.66237694 0.7899496 -0.15704322 4278190080
0.66831636 0.79140604 -0.15782453 4278190080
0.67107499 0.78906822 -0.15782453 4278190080
0.6770376 0.79047197 -0.15860584 4278190080
0.67979294 0.7881037 -0.15860584 4278190080
0.68577862 0.78945416 -0.15938714 4278190080
0.68852991 0.78705573 -0.15938714 4278190080
0.69453788 0.78835303 -0.16016845 4278190080
0.69728523 0.78592402 -0.16016845 4278190080
0.70345253 0.787045 -0.16094977 4278190080
0.70619529 0.78458488 -0.16094977 4278190080
0.71224654 0.78577399 -0.16173108 4278190080
0.71498525 0.78328288 -0.16173108 4278190080
0.72105694 0.7844184 -0.16251238 4278190080
0.72714573 0.78552067 -0.16329369 4278190080
0.72988302 0.78297788 -0.16329369 4278190080
0.7359919 0.78402585 -0.164075 4278190080
0.74211693 0.78504068 -0.1648563 4278190080
0.74485248 0.78244567 -0.1648563 4278190080
0.75099695 0.78340578 -0.16563761 4278190080
0.75372672 0.78077978 -0.16563761 4278190080
0.75989008 0.78168499 -0.16641892 4278190080
0.76606894 0.78255659 -0.16720024 4278190080
0.77226269 0.78339499 -0.16798154 4278190080
0.77847195 0.78419924 -0.16876285 4278190080
0.78483295 0.78483295 -0.16954416 4278190080
0.79107225 0.78556842 -0.17032549 4278190080
0.79732573 0.78627014 -0.1711068 4278190080
0.80006564 0.78348202 -0.1711068 4278190080
0.80633587 0.78412771 -0.1718881 4278190080
0.81262076 0.78473878 -0.17266941 4278190080
0.82262152 0.78859037 -0.17423204 4278190080
0.82536936 0.78571391 -0.17423204 4278190080
0.83169562 0.78622091 -0.17501333 4278190080
0.83083445 0.77993274 -0.17423204 4278190080
1.103599 0.80623418 -0.21017228 4278190080
1.0971764 0.78985399 -0.20782833 4278190080
1.1159993 0.79750454 -0.21095358 4278190080
1.1187761 0.79360449 -0.21095358 4278190080
1.1215396 0.78969413 -0.21095358 4278190080
1.1161932 0.7801165 -0.20939095 4278190080
1.114852 0.77340031 -0.20860964 4278190080
1.117679 0.7693091 -0.20860964 4278190080
1.1244355 0.76818866 -0.20939095 4278190080
1.1271099 0.76425928 -0.20939095 4278190080
1.1379653 0.76583475 -0.21095358 4278190080
1.1447386 0.76460063 -0.21173489 4278190080
1.155633 0.76605779 -0.21329752 4278190080
1.1624259 0.7647332 -0.21407881 4278190080
1.1692232 0.76337117 -0.21486013 4278190080
1.1801703 0.76465571 -0.21642275 4278190080
1.1869863 0.76320213 -0.21720405 4278190080
1.1938063 0.76171094 -0.21798536 4278190080
1.2006305 0.76018071 -0.21876667 4278190080
1.21164 0.76124007 -0.22032928 4278190080
1.2184809 0.7596184 -0.2211106 4278190080
1.2296576 0.76034206 -0.22267321 4278190080
1.2365139 0.75862747 -0.22345452 4278190080
1.2475915 0.75944215 -0.22501715 4278190080
1.254462 0.75763613 -0.22579844 4278190080
1.2655717 0.75832915 -0.22736107 4278190080
1.2724559 0.7564308 -0.22814238 4278190080
1.2835966 0.75700176 -0.22970499 4278190080
1.2904942 0.75501019 -0.23048632 4278190080
1.3016641 0.75545931 -0.23204894 4278190080
1.3128533 0.75583887 -0.23361155 4278190080
1.319772 0.75370109 -0.23439287 4278190080
1.3309891 0.75395763 -0.23595548 4278190080
1.342224 0.75414491 -0.2375181 4278190080
1.349162 0.75185961 -0.23829941 4278190080
1.3605539 0.75168628 -0.23986202 4278190080
1.3718317 0.75167847 -0.24142465 4278190080
1.3831259 0.75160098 -0.24298726 4278190080
1.3944358 0.75145453 -0.24454989 4278190080
1.4057617 0.75123745 -0.2461125 4278190080
1.4171027 0.75095117 -0.24767512 4278190080
1.4284592 0.75059402 -0.24923773 4278190080
1.4398303 0.75016677 -0.25080037 4278190080
1.4468275 0.74740332 -0.25158167 4278190080
1.4582191 0.74685067 -0.25314429 4278190080
1.4696238 0.74622828 -0.25470692 4278190080
1.4810421 0.74553454 -0.25626954 4278190080
1.4924736 0.74477011 -0.25783214 4278190080
1.5039172 0.7439357 -0.25939476 4278190080
1.5153735 0.74302965 -0.26095739 4278190080
1.5223994 0.73989469 -0.26173869 4278190080
1.529551 0.73645169 -0.26252002 4278190080
1.5410264 0.73536235 -0.26408261 4278190080
1.5480485 0.7320897 -0.26486394 4278190080
1.5595385 0.73087263 -0.26642653 4278190080
1.5710382 0.72958505 -0.26798916 4278190080
1.5825483 0.72822523 -0.26955178 4278190080
1.5985612 0.72884357 -0.27189574 4278190080
1.6100971 0.72732496 -0.27345833 4278190080
1.6216418 0.72573459 -0.27502096 4278190080
1.6377091 0.72607493 -0.27736488 4278190080
1.6492772 0.72432518 -0.27892751 4278190080
1.6653812 0.72447437 -0.28127143 4278190080
1.6816331 0.72422522 -0.28361535 4278190080
1.6977785 0.72416407 -0.28595927 4278190080
1.7139441 0.72399813 -0.2883032 4278190080
1.7301288 0.72372901 -0.29064715 4278190080
1.7463326 0.7233547 -0.29299107 4278190080
1.7671241 0.72474992 -0.29611632 4278190080
1.78337 0.72415173 -0.29846025 4278190080
1.7996336 0.72344786 -0.30080417 4278190080
1.8205022 0.72446626 -0.30392942 4278190080
1.8368049 0.72353667 -0.30627334 4278190080
1.853249 0.72217929 -0.30861726 4278190080
1.8741899 0.72281379 -0.31174251 4278190080
1.8905431 0.7215507 -0.31408644 4278190080
1.9115307 0.72192609 -0.31721169 4278190080
1.9279175 0.72043496 -0.31955558 4278190080
1.9443167 0.71883917 -0.32189953 4278190080
1.9607286 0.71713662 -0.32424349 4278190080
1.9817957 0.71700943 -0.32736871 4278190080
1.9983609 0.71472961 -0.3297126 4278190080
2.0193424 0.71468961 -0.33283785 4278190080
2.0404699 0.71416295 -0.33596307 4278190080
2.0616183 0.71349627 -0.33908832 4278190080
2.078114 0.71109289 -0.34143227 4278190080
2.0992963 0.71016431 -0.34455749 4278190080
2.1204972 0.70909649 -0.34768274 4278190080
2.1464047 0.70944029 -0.35158929 4278190080
2.1677697 0.70769835 -0.35471454 4278190080
2.1937268 0.70770907 -0.35862106 4278190080
2.2197106 0.70754606 -0.36252761 4278190080
2.2457192 0.70721132 -0.36643419 4278190080
2.2670372 0.70523536 -0.36955941 4278190080
2.2930889 0.70456952 -0.37346596 4278190080
2.3191631 0.70373166 -0.3773725 4278190080
2.3405287 0.70130152 -0.38049775 4278190080
2.3619051 0.6987319 -0.38362297 4278190080
2.383292 0.69602031 -0.38674822 4278190080
2.4094341 0.69453579 -0.39065477 4278190080
2.4355938 0.69287837 -0.39456129 4278190080
2.461772 0.6910454 -0.39846787 4278190080
2.3784993 0.6587227 -0.3844043 4278190080
2.2617924 0.6174832 -0.36487156 4278190080
2.2162464 0.59674472 -0.35705844 4278190080
2.1801305 0.57886553 -0.35080796 4278190080
2.1773601 0.5700019 -0.35002667 4278190080
2.1889005 0.56486559 -0.35158929 4278190080
2.1908591 0.557221 -0.35158929 4278190080
2.1927905 0.5495708 -0.35158929 4278190080
2.1946957 0.54191273 -0.35158929 4278190080
2.1917751 0.53308207 -0.35080796 4278190080
2.1984253 0.52657801 -0.35158929 4278190080
2.2002501 0.51890039 -0.35158929 4278190080
2.2068584 0.51233441 -0.35237059 4278190080
2.2086334 0.50462747 -0.35237059 4278190080
2.2151997 0.49799874 -0.35315192 4278190080
2.2169247 0.49026275 -0.35315192 4278190080
2.2234483 0.48357028 -0.35393322 4278190080
2.2299521 0.47683948 -0.35471454 4278190080
2.2364359 0.47006792 -0.35549581 4278190080
2.247736 0.46425706 -0.35705844 4278190080
2.2493429 0.45640767 -0.35705844 4278190080
2.2461572 0.44719639 -0.35627714 4278190080
2.2816327 0.44598448 -0.36174634 4278190080
2.3704779 0.45476544 -0.37580988 4278190080
2.4933846 0.46932745 -0.39534262 4278190080
2.4658687 0.45524096 -0.39065477 4278190080
2.4820213 0.44927037 -0.3929987 4278190080
2.4787118 0.4397406 -0.3922174 4278190080
2.480232 0.43108505 -0.3922174 4278190080
2.4768529 0.42159688 -0.39143607 4278190080
2.473438 0.41213629 -0.39065477 4278190080
2.4748616 0.40350065 -0.39065477 4278190080
2.4713781 0.39408109 -0.38987345 4278190080
2.4727385 0.38545144 -0.38987345 4278190080
2.4691868 0.37607482 -0.38909215 4278190080
2.4704845 0.36745295 -0.38909215 4278190080
2.4717519 0.35882789 -0.38909215 4278190080
2.4680996 0.34950471 -0.38831082 4278190080
2.4693048 0.34088677 -0.38831082 4278190080
2.4704795 0.332266 -0.38831082 4278190080
2.4716244 0.32363987 -0.38831082 4278190080
2.4727387 0.31501111 -0.38831082 4278190080
2.4738235 0.3063772 -0.38831082 4278190080
2.4748778 0.29773954 -0.38831082 4278190080
2.4709969 0.28852683 -0.38752955 4278190080
2.4719892 0.27989918 -0.38752955 4278190080
2.4729509 0.27126941 -0.38752955 4278190080
2.4690175 0.2616823 -0.38674822 4278190080
2.4699159 0.25306299 -0.38674822 4278190080
2.4707842 0.24443932 -0.38674822 4278190080
2.4716222 0.23581398 -0.38674822 4278190080
2.4724305 0.22718444 -0.38674822 4278190080
2.4732084 0.21855214 -0.38674822 4278190080
2.4739561 0.20991848 -0.38674822 4278190080
2.4697516 0.20088062 -0.38596693 4278190080
2.4704378 0.19225913 -0.38596693 4278190080
2.4661689 0.183268 -0.3851856 4278190080
2.4667935 0.17465782 -0.3851856 4278190080
2.4673882 0.16604683 -0.3851856 4278190080
2.4679527 0.1574325 -0.3851856 4278190080
2.4684613 0.1492475 -0.3851856 4278190080
2.4689672 0.14063084 -0.3851856 4278190080
2.4694431 0.13201116 -0.3851856 4278190080
2.4699101 0.12295968 -0.3851856 4278190080
2.4703245 0.11433681 -0.3851856 4278190080
2.4707084 0.10571386 -0.3851856 4278190080
2.4710624 0.097088307 -0.3851856 4278190080
2.4664509 0.088284917 -0.3844043 4278190080
2.4667442 0.079675645 -0.3844043 4278190080
2.4670072 0.071064092 -0.3844043 4278190080
2.4672403 0.062452983 -0.3844043 4278190080
2.4674432 0.053839803 -0.3844043 4278190080
2.4626782 0.045135465 -0.38362297 4278190080
2.4628208 0.036539625 -0.38362297 4278190080
2.4629333 0.02794203 -0.38362297 4278190080
2.4630158 0.019345405 -0.38362297 4278190080
2.4680071 0.01076878 -0.3844043 4278190080
2.4680295 0.0021532369 -0.3844043 4278190080
2.4630835 -0.0064483522 -0.38362297 4278190080
2.4630458 -0.015046078 -0.38362297 4278190080
2.4629784 -0.023643622 -0.38362297 4278190080
2.4628808 -0.032240875 -0.38362297 4278190080
2.4627533 -0.040837739 -0.38362297 4278190080
2.4576583 -0.049334988 -0.38284168 4278190080
2.4574711 -0.057913516 -0.38284168 4278190080
2.4572423 -0.066920206 -0.38284168 4278190080
2.4569938 -0.07549718 -0.38284168 4278190080
2.4567153 -0.084073231 -0.38284168 4278190080
2.4564068 -0.092648253 -0.38284168 4278190080
2.4560685 -0.10122214 -0.38284168 4278190080
2.4606338 -0.11001538 -0.38362297 4278190080
2.4602346 -0.11860393 -0.38362297 4278190080
2.4598057 -0.12719104 -0.38362297 4278190080
2.4593468 -0.13577658 -0.38362297 4278190080
2.4588578 -0.14436047 -0.38362297 4278190080
2.458339 -0.15294261 -0.38362297 4278190080
2.4577901 -0.16152288 -0.38362297 4278190080
2.4572113 -0.1701012 -0.38362297 4278190080
2.4566026 -0.17867741 -0.38362297 4278190080
2.4559639 -0.18725148 -0.38362297 4278190080
2.4602182 -0.19621588 -0.3844043 4278190080
2.4595184 -0.20480247 -0.3844043 4278190080
2.4587886 -0.21338654 -0.3844043 4278190080
2.4580288 -0.221968 -0.3844043 4278190080
2.4572389 -0.23054677 -0.3844043 4278190080
2.4564192 -0.23912273 -0.3844043 4278190080
2.4555695 -0.24769579 -0.3844043 4278190080
2.45469 -0.25626582 -0.3844043 4278190080
2.4537804 -0.26483271 -0.3844043 4278190080
2.452841 -0.2733964 -0.3844043 4278190080
2.4518719 -0.28195673 -0.3844043 4278190080
2.4508727 -0.29051366 -0.3844043 4278190080
2.4547458 -0.29966545 -0.3851856 4278190080
2.4536848 -0.30823228 -0.3851856 4278190080
2.4525938 -0.31679538 -0.3851856 4278190080
2.4563119 -0.32643306 -0.38596693 4278190080
2.4551575 -0.33500519 -0.38596693 4278190080
2.4539731 -0.34357324 -0.38596693 4278190080
2.4528203 -0.35170901 -0.38596693 4278190080
2.4515777 -0.3602688 -0.38596693 4278190080
2.4503052 -0.36882424 -0.38596693 4278190080
2.4489369 -0.37780258 -0.38596693 4278190080
2.4524813 -0.38711867 -0.38674822 4278190080
2.4874144 -0.40153676 -0.30467334 4278190080
2.4859974 -0.41021699 -0.30467334 4278190080
2.489444 -0.41971728 -0.30528268 4278190080
2.4879637 -0.42840454 -0.30528268 4278190080
2.4864531 -0.43708652 -0.30528268 4278190080
2.4849124 -0.4457632 -0.30528268 4278190080
2.4833412 -0.45443445 -0.30528268 4278190080
2.4866183 -0.46401051 -0.30589205 4278190080
2.4849834 -0.47268763 -0.30589205 4278190080
2.4833183 -0.48135895 -0.30589205 4278190080
2.4816229 -0.49002442 -0.30589205 4278190080
2.4847627 -0.49966225 -0.30650139 4278190080
2.4829147 -0.508766 -0.30650139 4278190080
2.4812138 -0.51699686 -0.30650139 4278190080
2.479394 -0.52565479 -0.30650139 4278190080
2.4823954 -0.53535247 -0.30711076 4278190080
2.4805114 -0.54401439 -0.30711076 4278190080
2.4785974 -0.5526697 -0.30711076 4278190080
2.4766531 -0.56131828 -0.30711076 4278190080
2.4795146 -0.57107377 -0.30772007 4278190080
2.4775062 -0.57972544 -0.30772007 4278190080
2.4802959 -0.58951759 -0.30832943 4278190080
2.4782228 -0.59817183 -0.30832943 4278190080
2.4809399 -0.60800004 -0.30893877 4278190080
2.4835105 -0.61828798 -0.30954814 4278190080
2.4813371 -0.6269533 -0.30954814 4278190080
2.4839406 -0.63684344 -0.31015745 4278190080
2.4817026 -0.64551014 -0.31015745 4278190080
2.4842329 -0.65543503 -0.31076682 4278190080
2.4819298 -0.66410261 -0.31076682 4278190080
2.4795966 -0.67276216 -0.31076682 4278190080
2.4772329 -0.68141341 -0.31076682 4278190080
2.4748394 -0.69005644 -0.31076682 4278190080
2.4724154 -0.69869101 -0.31076682 4278190080
2.4747324 -0.70868331 -0.31137615 4278190080
2.4722435 -0.71731746 -0.31137615 4278190080
2.4744861 -0.72734231 -0.31198552 4278190080
2.4719322 -0.7359755 -0.31198552 4278190080
2.4740994 -0.74603248 -0.31259486 4278190080
2.4714804 -0.75466406 -0.31259486 4278190080
2.473572 -0.76475245 -0.3132042 4278190080
2.4708877 -0.77338207 -0.3132042 4278190080
2.472904 -0.78350139 -0.31381357 4278190080
2.470154 -0.79212868 -0.31381357 4278190080
2.4720941 -0.80227816 -0.31442291 4278190080
2.4692786 -0.81090254 -0.31442291 4278190080
2.466433 -0.8195169 -0.31442291 4278190080
2.4682615 -0.82970273 -0.31503224 4278190080
2.4653502 -0.83831352 -0.31503224 4278190080
2.462409 -0.84691405 -0.31503224 4278190080
2.4641249 -0.85713476 -0.31564158 4278190080
2.461118 -0.86573088 -0.31564158 4278190080
2.4627569 -0.87597966 -0.31625095 4278190080
2.4643538 -0.88625038 -0.31686029 4278190080
2.4612453 -0.89484715 -0.31686029 4278190080
2.4627647 -0.90514511 -0.31746966 4278190080
2.4642422 -0.9154644 -0.31807896 4278190080
2.4610317 -0.9240607 -0.31807896 4278190080
2.4624312 -0.9344064 -0.31868833 4278190080
2.4593189 -0.94256693 -0.31868833 4278190080
2.4560139 -0.95114583 -0.31868833 4278190080
2.4573002 -0.96152151 -0.31929767 4278190080
2.4539289 -0.97009319 -0.31929767 4278190080
2.4551365 -0.98049372 -0.31990704 4278190080
2.4563012 -0.99091434 -0.32051635 4278190080
2.4574232 -1.0013552 -0.32112572 4278190080
2.4583254 -1.0122448 -0.32173505 4278190080
2.454777 -1.0208199 -0.32173505 4278190080
2.4557745 -1.031304 -0.32234442 4278190080
2.4521596 -1.0398699 -0.32234442 4278190080
2.4530768 -1.0503767 -0.32295373 4278190080
2.4539509 -1.0609025 -0.3235631 4278190080
2.4547808 -1.0714471 -0.32417244 4278190080
2.4557562 -1.081582 -0.32478181 4278190080
2.4565003 -1.0921636 -0.32539111 4278190080
2.4572008 -1.1027638 -0.32600048 4278190080
2.4533365 -1.1113343 -0.32600048 4278190080
2.4539554 -1.1219547 -0.32660982 4278190080
2.449827 -1.1309414 -0.32660982 4278190080
2.450562 -1.1411541 -0.32721919 4278190080
2.4465637 -1.1497012 -0.32721919 4278190080
2.4470198 -1.1603607 -0.32782853 4278190080
2.4474311 -1.1710372 -0.32843786 4278190080
2.4477978 -1.1817309 -0.32904723 4278190080
2.4481194 -1.1924412 -0.32965657 4278190080
2.4439421 -1.2009795 -0.32965657 4278190080
2.4441814 -1.2117075 -0.33026594 4278190080
2.4443753 -1.2224516 -0.33087525 4278190080
2.4445243 -1.2332119 -0.33148462 4278190080
2.4402046 -1.2417374 -0.33148462 4278190080
2.4402702 -1.2525138 -0.33209395 4278190080
2.4402907 -1.2633059 -0.33270332 4278190080
2.4402649 -1.2741133 -0.33331263 4278190080
2.4401939 -1.284936 -0.333922 4278190080
2.4400768 -1.2957734 -0.33453134 4278190080
2.4399137 -1.306626 -0.33514071 4278190080
2.4397044 -1.317493 -0.33575001 4278190080
2.4394493 -1.3283744 -0.33635938 4278190080
2.4347975 -1.3368816 -0.33635938 4278190080
2.4344578 -1.3477761 -0.33696872 4278190080
2.4340718 -1.3586847 -0.33757809 4278190080
2.433639 -1.3696069 -0.3381874 4278190080
2.4288435 -1.3780934 -0.3381874 4278190080
2.4283259 -1.3890275 -0.33879676 4278190080
2.4277616 -1.3999745 -0.3394061 4278190080
2.4314411 -1.4134287 -0.34062481 4278190080
2.4307742 -1.4244164 -0.34123415 4278190080
2.4300601 -1.4354167 -0.34184349 4278190080
2.433563 -1.4489683 -0.34306219 4278190080
2.4327457 -1.4600079 -0.34367153 4278190080
2.4318807 -1.4710596 -0.3442809 4278190080
2.4309683 -1.4821229 -0.34489024 4278190080
2.4300082 -1.4931977 -0.3454996 4278190080
2.4290001 -1.5042838 -0.34610891 4278190080
2.4279447 -1.5153811 -0.34671828 4278190080
2.426841 -1.5264891 -0.34732762 4278190080
2.4256892 -1.5376081 -0.34793699 4278190080
2.4244895 -1.5487376 -0.3485463 4278190080
2.4232416 -1.5598775 -0.34915566 4278190080
2.4219451 -1.5710273 -0.349765 4278190080
2.4206007 -1.5821871 -0.35037437 4278190080
2.4194856 -1.5929345 -0.35098368 4278190080
2.418046 -1.6041138 -0.35159305 4278190080
2.4206836 -1.6180602 -0.35281175 4278190080
2.4150209 -1.6265001 -0.35281175 4278190080
2.413435 -1.6377069 -0.35342109 4278190080
2.4118004 -1.6489223 -0.35403043 4278190080
2.4142039 -1.6629615 -0.35524914 4278190080
2.4124615 -1.6742077 -0.35585847 4278190080
2.41067 -1.6854624 -0.35646781 4278190080
2.4128864 -1.6995826 -0.35768652 4278190080
2.4109862 -1.7108668 -0.35829586 4278190080
2.413074 -1.7250446 -0.35951456 4278190080
2.4110649 -1.7363573 -0.3601239 4278190080
2.4130232 -1.7505914 -0.36134258 4278190080
2.4068978 -1.7590038 -0.36134258 4278190080
2.400743 -1.7673947 -0.36134258 4278190080
2.4232292 -2.058686 -0.38571647 4278190080
2.4197991 -2.0703585 -0.38632581 4278190080
2.4163172 -2.082032 -0.38693514 4278190080
2.39779 -2.0806961 -0.3851071 4278190080
2.4129336 -2.1086471 -0.38876319 4278190080
2.4055583 -2.1170568 -0.38876319 4278190080
2.4018679 -2.1287327 -0.38937256 4278190080
2.3981249 -2.1404083 -0.38998187 4278190080
2.1155176 -2.393682 -0.38754448 4278190080
2.1038759 -2.3973219 -0.38693514 4278190080
2.082453 -2.3896856 -0.38449776 4278190080
2.0643568 -2.3856816 -0.38266972 4278190080
2.0527823 -2.3891091 -0.38206038 4278190080
2.0379884 -2.3887093 -0.3808417 4278190080
2.023222 -2.3882353 -0.379623 4278190080
2.0084839 -2.3876877 -0.37840432 4278190080
1.9937744 -2.3870664 -0.37718561 4278190080
1.9759257 -2.3825514 -0.37535757 4278190080
1.9612877 -2.381772 -0.37413886 4278190080
1.9466792 -2.3809197 -0.37292019 4278190080
1.925845 -2.3722885 -0.3704828 4278190080
1.9206667 -2.3828604 -0.37109214 4278190080
1.9061354 -2.3818009 -0.36987343 4278190080
1.740548 -2.3712034 -0.35646781 4278190080
1.7234925 -2.365232 -0.35463977 4278190080
1.7123172 -2.3672128 -0.35403043 4278190080
1.6924655 -2.3570507 -0.35159305 4278190080
1.6842276 -2.3629441 -0.35159305 4278190080
1.6702363 -2.3607063 -0.35037437 4278190080
1.6591337 -2.3624609 -0.349765 4278190080
1.6480391 -2.3641667 -0.34915566 4278190080
1.634129 -2.361743 -0.34793699 4278190080
1.6230655 -2.3633418 -0.34732762 4278190080
1.6096276 -2.3605106 -0.34610891 4278190080
1.6013781 -2.3661149 -0.34610891 4278190080
1.5875746 -2.3634512 -0.34489024 4278190080
1.5793148 -2.3689785 -0.34489024 4278190080
1.5545661 -2.3675013 -0.34306219 4278190080
1.4457346 -2.3601487 -0.33514071 4278190080
1.4297547 -2.3524582 -0.33331263 4278190080
1.416819 -2.3486876 -0.33209395 4278190080
1.4111606 -2.3578775 -0.33270332 4278190080
1.3978541 -2.3542545 -0.33148462 4278190080
1.38459 -2.3505676 -0.33026594 4278190080
1.3763766 -2.3553863 -0.33026594 4278190080
1.3706352 -2.3644698 -0.33087525 4278190080
1.3603122 -2.3647003 -0.33026594 4278190080
1.2197651 -2.3622398 -0.32173505 4278190080
1.2002044 -2.3443959 -0.31868833 4278190080
1.1942595 -2.3529963 -0.31929767 4278190080
1.1771163 -2.3394179 -0.31686029 4278190080
1.1667279 -2.339072 -0.31625095 4278190080
1.1541568 -2.334233 -0.31503224 4278190080
1.1460017 -2.3382475 -0.31503224 4278190080
1.1382414 -2.3420351 -0.31503224 4278190080
0.43126869 -0.919824 -0.1200413 4278190080
0.44269264 -0.95282865 -0.12430673 4278190080
0.41238463 -0.89576471 -0.11638522 4278190080
1.0299389 -2.342932 -0.30954814 4278190080
1.0162175 -2.3326852 -0.30772007 4278190080
1.007661 -2.3363941 -0.30772007 4278190080
0.99365079 -2.3262062 -0.30589205 4278190080
0.98745835 -2.3342309 -0.30650139 4278190080
0.97738695 -2.3330863 -0.30589205 4278190080
0.96923685 -2.336484 -0.30589205 4278190080
0.95918959 -2.3352621 -0.30528268 4278190080
0.94916254 -2.3339992 -0.30467334 4278190080
0.93956339 -2.3325303 -0.30406401 4278190080
0.92957735 -2.3311863 -0.30345467 4278190080
0.91961229 -2.3298006 -0.3028453 4278190080
0.90966809 -2.3283741 -0.30223596 4278190080
0.89974529 -2.3269064 -0.30162662 4278190080
0.88984394 -2.325398 -0.30101728 4278190080
0.8817212 -2.32849 -0.30101728 4278190080
0.87184674 -2.3269062 -0.30040792 4278190080
0.86199385 -2.3252823 -0.29979858 4278190080
0.85387194 -2.3282771 -0.29979858 4278190080
0.84614635 -2.3310959 -0.29979858 4278190080
0.83632725 -2.3293643 -0.29918924 4278190080
0.82819128 -2.3322694 -0.29918924 4278190080
0.81840056 -2.3304639 -0.2985799 4278190080
0.81188881 -2.3379943 -0.29918924 4278190080
0.80049938 -2.3314266 -0.29797053 4278190080
0.78916597 -2.3248079 -0.29675186 4278190080
0.78736138 -2.3463681 -0.29918924 4278190080
0.20119461 -0.60622603 -0.073730946 4278190080
0.20154831 -0.62177861 -0.07555899 4278190080
0.20543183 -0.64138323 -0.077996381 4278190080
0.20618623 -0.65155935 -0.079215072 4278190080
0.22316043 -0.71385187 -0.087136574 4278190080
0.21932691 -0.70984638 -0.086527228 4278190080
0.20960541 -0.68687445 -0.0834805 4278190080
0.20291074 -0.67334694 -0.081652455 4278190080
0.1963132 -0.65978116 -0.079824418 4278190080
0.18981291 -0.64617777 -0.077996381 4278190080
0.18755612 -0.64683646 -0.077996381 4278190080
0.1921242 -0.67134315 -0.081043109 4278190080
0.18033829 -0.63857818 -0.076777689 4278190080
0.59986824 -2.3397233 -0.29187706 4278190080
0.58683473 -2.322557 -0.28943968 4278190080
0.57912952 -2.3244903 -0.28943968 4278190080
0.5670597 -2.3121374 -0.28761163 4278190080
0.55898547 -2.3141026 -0.28761163 4278190080
0.54975575 -2.3112121 -0.2870023 4278190080
0.54168493 -2.313117 -0.2870023 4278190080
0.53249276 -2.3101575 -0.28639296 4278190080
0.52482897 -2.3119106 -0.28639296 4278190080
0.51567376 -2.3088853 -0.28578362 4278190080
0.50761127 -2.3106713 -0.28578362 4278190080
0.49809176 -2.3076651 -0.28517425 4278190080
0.4900336 -2.3093898 -0.28517425 4278190080
0.48095602 -2.3062282 -0.28456491 4278190080
0.47330555 -2.3078103 -0.28456491 4278190080
0.46426693 -2.3045833 -0.28395557 4278190080
0.45621973 -2.30619 -0.28395557 4278190080
0.44722059 -2.3028967 -0.28334624 4278190080
0.43917939 -2.3044438 -0.28334624 4278190080
0.43113253 -2.3059628 -0.28334624 4278190080
0.42348352 -2.3073797 -0.28334624 4278190080
0.41542649 -2.3088441 -0.28334624 4278190080
0.4073647 -2.3102801 -0.28334624 4278190080
0.39805055 -2.3068671 -0.28273687 4278190080
0.38999546 -2.3082426 -0.28273687 4278190080
0.38193592 -2.3095896 -0.28273687 4278190080
0.37387177 -2.3109088 -0.28273687 4278190080
0.36580274 -2.3121998 -0.28273687 4278190080
0.35889262 -2.3183045 -0.28334624 4278190080
0.35005575 -2.3146362 -0.28273687 4278190080
0.3412492 -2.3109345 -0.28212753 4278190080
0.087640241 -0.69277161 -0.081043109 4278190080
0.085221522 -0.69307333 -0.081043109 4278190080
0.079859339 -0.66872799 -0.077996381 4278190080
0.075810805 -0.65421349 -0.076168336 4278190080
0.072418645 -0.6446107 -0.074949645 4278190080
0.068557538 -0.63005871 -0.0731216 4278190080
0.068549663 -0.65002412 -0.07555899 4278190080
0.065273799 -0.64038509 -0.074340299 4278190080
0.064496078 -0.65542567 -0.076168336 4278190080
0.22017944 -2.3206096 -0.28151819 4278190080
0.21207778 -2.3213642 -0.28151819 4278190080
0.20571025 -2.3418651 -0.28395557 4278190080
0.1967005 -2.3326783 -0.28273687 4278190080
0.18855685 -2.3333509 -0.28273687 4278190080
0.18041059 -2.3339949 -0.28273687 4278190080
0.17226246 -2.3346102 -0.28273687 4278190080
0.1641708 -2.3302183 -0.28212753 4278190080
0.15603594 -2.3307772 -0.28212753 4278190080
0.14758466 -2.3263547 -0.28151819 4278190080
0.13946339 -2.3268559 -0.28151819 4278190080
0.1317464 -2.3273056 -0.28151819 4278190080
0.1238851 -2.3327072 -0.28212753 4278190080
0.1157415 -2.3331254 -0.28212753 4278190080
0.10599669 -2.2988129 -0.2778621 4278190080
0.097760528 -2.2942104 -0.27725273 4278190080
0.088199697 -2.2548661 -0.27237797 4278190080
0.078208417 -2.1956453 -0.26506582 4278190080
0.069109417 -2.1512635 -0.25958169 4278190080
0.060463559 -2.1118059 -0.25470692 4278190080
0.051719867 -2.0574312 -0.24800409 4278190080
0.043248869 -1.9980606 -0.24069194 4278190080
0.035193272 -1.9386564 -0.23337978 4278190080
0.0065756314 -0.83722383 -0.09810482 4278190080
0.0036531792 -0.83724171 -0.09810482 4278190080
0.00072635157 -0.83228654 -0.097495466 4278190080
-0.0022049267 -0.84220952 -0.098714165 4278190080
-0.0050840974 -0.83227134 -0.097495466 4278190080
-0.0079893023 -0.83224851 -0.097495466 4278190080
-0.010829339 -0.82725328 -0.096886121 4278190080
-0.013716881 -0.82721043 -0.096886121 4278190080
-0.016504765 -0.82219577 -0.096276775 4278190080
-0.01937462 -0.82213318 -0.096276775 4278190080
-0.022244347 -0.82206053 -0.096276775 4278190080
-0.025113694 -0.82197785 -0.096276775 4278190080
-0.027982736 -0.82188517 -0.096276775 4278190080
-0.030851547 -0.82178253 -0.096276775 4278190080
-0.033719871 -0.82166982 -0.096276775 4278190080
-0.036587894 -0.82154709 -0.096276775 4278190080
-0.039311968 -0.82142127 -0.096276775 4278190080
-0.042179089 -0.82127905 -0.096276775 4278190080
-0.045045588 -0.82112676 -0.096276775 4278190080
-0.048200667 -0.82591885 -0.096886121 4278190080
-0.051083434 -0.82574558 -0.096886121 4278190080
-0.054289185 -0.83051437 -0.097495466 4278190080
-0.056362737 -0.82042766 -0.096276775 4278190080
-0.058868766 -0.81527609 -0.095667429 4278190080
-0.061339624 -0.81011707 -0.095058084 4278190080
-0.11951441 -0.83870256 -0.099323511 4278190080
-0.11957221 -0.81863773 -0.096886121 4278190080
-0.12242913 -0.81821537 -0.096886121 4278190080
-0.12227836 -0.79816103 -0.094448738 4278190080
-0.12660107 -0.80753499 -0.095667429 4278190080
-0.1338412 -0.81642622 -0.096886121 4278190080
-0.14784075 -0.829135 -0.098714165 4278190080
-0.15058948 -0.82864016 -0.098714165 4278190080
-0.15348102 -0.82810944 -0.098714165 4278190080
-0.1582135 -0.83732158 -0.099932864 4278190080
-0.15925854 -0.82701778 -0.098714165 4278190080
-0.16214436 -0.82645684 -0.098714165 4278190080
-0.16502832 -0.82588577 -0.098714165 4278190080
-0.16791014 -0.82530475 -0.098714165 4278190080
-0.17078993 -0.82471359 -0.098714165 4278190080
-0.17469108 -0.82896847 -0.099323511 4278190080
-0.17758361 -0.82835364 -0.099323511 4278190080
-0.18047409 -0.82772869 -0.099323511 4278190080
-0.18336226 -0.82709366 -0.099323511 4278190080
-0.18610403 -0.82648104 -0.099323511 4278190080
-0.18788071 -0.82098877 -0.098714165 4278190080
-0.19474852 -0.82448691 -0.099323511 4278190080
-0.20739815 -0.85207385 -0.10297959 4278190080
-0.2020376 -0.81762004 -0.098714165 4278190080
-0.20126851 -0.80246884 -0.096886121 4278190080
-0.21217605 -0.8099187 -0.09810482 4278190080
