# .PCD v0.7 - Point Cloud Data file format
VERSION 0.7
FIELDS x y z rgb
SIZE 4 4 4 4
TYPE F F F U
COUNT 1 1 1 1
WIDTH 1064
HEIGHT 1
VIEWPOINT 0 0 0 1 0 0 0
POINTS 1064
DATA ascii
-1.4817237 -2.2454462 -0.41956323 4278190080
-1.4868184 -2.2361476 -0.41878191 4278190080
-1.4918662 -2.2268412 -0.41800061 4278190080
-1.6583911 -2.248565 -0.43597072 4278190080
-1.6603395 -2.234834 -0.4344081 4278190080
-1.6770072 -2.2408864 -0.43675202 4278190080
-1.6818466 -2.2310753 -0.43597072 4278190080
-1.6985837 -2.2369907 -0.43831462 4278190080
-1.7093824 -2.2349706 -0.43909594 4278190080
-1.7232013 -2.2368147 -0.44065857 4278190080
-1.7340262 -2.2346878 -0.4414399 4278190080
-1.7448572 -2.2325125 -0.44222119 4278190080
-1.7587494 -2.2341688 -0.44378382 4278190080
-1.7696056 -2.2318859 -0.44456515 4278190080
-1.7800782 -2.2298648 -0.44534642 4278190080
-1.79404 -2.2313354 -0.44690904 4278190080
-1.8049257 -2.2288976 -0.44769037 4278190080
-1.8189375 -2.230238 -0.44925299 4278190080
-1.8298459 -2.2276914 -0.45003429 4278190080
-1.8439072 -2.2289004 -0.45159689 4278190080
-1.8579987 -2.2300391 -0.45315951 4278190080
-1.8721205 -2.2311063 -0.45472214 4278190080
-1.8862722 -2.2321019 -0.45628476 4278190080
-1.9000641 -2.2333574 -0.45784736 4278190080
-1.9110616 -2.2304618 -0.45862868 4278190080
-1.9252882 -2.2312555 -0.46019131 4278190080
-1.9363049 -2.2282488 -0.46097264 4278190080
-1.9505757 -2.2289093 -0.46253526 4278190080
-1.9550787 -2.2183819 -0.46175393 4278190080
-1.9792014 -2.2300122 -0.46566048 4278190080
-1.9935555 -2.2304544 -0.46722311 4278190080
-2.0079374 -2.2308228 -0.46878573 4278190080
-2.196964 -2.2774079 -0.49456894 4278190080
-2.2024488 -2.2514241 -0.49222499 4278190080
-2.1964316 -2.2296491 -0.48909977 4278190080
-2.1972451 -2.2149565 -0.48753715 4278190080
-2.201473 -2.2037795 -0.48675585 4278190080
-2.2231619 -2.2100084 -0.4898811 4278190080
-2.2414062 -2.2126431 -0.49222499 4278190080
-2.2596967 -2.2151768 -0.49456894 4278190080
-2.2744925 -2.2141654 -0.49613157 4278190080
-2.2928596 -2.2165098 -0.49847546 4278190080
-2.3077078 -2.2153332 -0.50003809 4278190080
-2.3257637 -2.2178929 -0.50238204 4278190080
-2.340663 -2.2165527 -0.50394464 4278190080
-2.3555813 -2.2151351 -0.50550729 4278190080
-2.3705187 -2.21364 -0.50706989 4278190080
-2.3854735 -2.2120678 -0.50863248 4278190080
-2.4004464 -2.2104185 -0.51019514 4278190080
-2.4081473 -2.2020259 -0.51019514 4278190080
-2.4267879 -2.2035663 -0.51253909 4278190080
-2.4418008 -2.2016957 -0.51410168 4278190080
-2.4494712 -2.1931589 -0.51410168 4278190080
-2.8993018 -2.1736939 -0.5672307 4278190080
-2.8989482 -2.1576631 -0.56566811 4278190080
-2.910434 -2.1504657 -0.5664494 4278190080
-2.9059768 -2.1315298 -0.56410545 4278190080
-2.9014223 -2.1126523 -0.56176156 4278190080
-2.8816223 -1.93418 -0.54301012 4278190080
-2.8719158 -1.9131577 -0.53988487 4278190080
-2.8744566 -1.9003977 -0.53910357 4278190080
-2.8810725 -1.8903526 -0.53910357 4278190080
-2.8793764 -1.8748947 -0.53754097 4278190080
-2.8776081 -1.8594712 -0.53597832 4278190080
-2.8757665 -1.8440835 -0.53441572 4278190080
-2.8780196 -1.831383 -0.53363442 4278190080
-2.8718672 -1.8134155 -0.53129047 4278190080
-2.8865495 -1.8086243 -0.53285307 4278190080
-2.8760693 -1.7881064 -0.52972788 4278190080
-2.8864965 -1.7806493 -0.53050917 4278190080
-2.8777514 -1.7476374 -0.52660263 4278190080
-2.9094415 -1.6447421 -0.52269608 4278190080
-2.9022419 -1.6273303 -0.52035213 4278190080
-2.9035885 -1.6147895 -0.51957083 4278190080
-2.8962343 -1.5974888 -0.51722693 4278190080
-2.8974605 -1.5849985 -0.51644558 4278190080
-2.9073164 -1.57723 -0.51722693 4278190080
-2.9041059 -1.5623925 -0.51566428 4278190080
-2.9095421 -1.552246 -0.51566428 4278190080
-2.9554238 -1.4851305 -0.51722693 4278190080
-2.9338117 -1.4621056 -0.51253909 4278190080
-2.9123313 -1.438731 -0.50785118 4278190080
-2.9040296 -1.4220407 -0.50550729 4278190080
-2.8993599 -1.1655349 -0.48831847 4278190080
-2.9815304 -1.1034931 -0.49691284 4278190080
-2.925077 -1.0710051 -0.48675585 4278190080
-2.9380844 -1.0641519 -0.48831847 4278190080
-2.320673 -0.79544902 -0.38206035 4278190080
-2.3000488 -0.77941859 -0.3781538 4278190080
-2.9617918 -0.98066652 -0.48753715 4278190080
-2.9088733 -0.95189005 -0.47816142 4278190080
-2.9612439 -0.90082377 -0.48363063 4278190080
-2.9501808 -0.88621932 -0.48128667 4278190080
-2.9343174 -0.87029892 -0.47816142 4278190080
-2.0199072 -0.58377999 -0.32658738 4278190080
-2.9432702 -0.83952332 -0.47816142 4278190080
-2.9461827 -0.82924443 -0.47816142 4278190080
-2.9443007 -0.81763399 -0.4773801 4278190080
-2.9376106 -0.80474198 -0.4758175 4278190080
-2.1653082 -0.57695335 -0.34846407 4278190080
-2.9506533 -0.77519041 -0.47659883 4278190080
-2.948427 -0.76416224 -0.4758175 4278190080
-2.9367218 -0.7501989 -0.47347358 4278190080
-2.3187537 -0.57512182 -0.37190333 4278190080
-2.7956955 -0.68306792 -0.44925299 4278190080
-2.9421084 -0.70796716 -0.47269225 4278190080
-2.9253395 -0.69313854 -0.46956703 4278190080
-2.5305989 -0.58097887 -0.40471834 4278190080
-2.4940739 -0.56343603 -0.39846787 4278190080
-2.9558971 -0.62452143 -0.47191095 4278190080
-2.9387174 -0.61018378 -0.46878573 4278190080
-2.9408293 -0.59992212 -0.46878573 4278190080
-2.9477477 -0.59062344 -0.46956703 4278190080
-2.9449458 -0.57937717 -0.46878573 4278190080
-2.9421012 -0.56815678 -0.46800441 4278190080
-2.9440665 -0.55788362 -0.46800441 4278190080
-2.9459004 -0.54811758 -0.46800441 4278190080
-2.9429374 -0.53694487 -0.46722311 4278190080
-2.9447937 -0.52666897 -0.46722311 4278190080
-2.9466143 -0.51638669 -0.46722311 4278190080
-2.9435313 -0.50526255 -0.46644178 4278190080
-2.9452772 -0.49498403 -0.46644178 4278190080
-2.9421141 -0.48389876 -0.46566048 4278190080
-2.9437852 -0.47362608 -0.46566048 4278190080
-2.9454205 -0.46334761 -0.46566048 4278190080
-2.9421387 -0.45231307 -0.46487916 4278190080
-2.9436996 -0.44203973 -0.46487916 4278190080
-2.9403384 -0.43104544 -0.46409789 4278190080
-2.9418252 -0.42077929 -0.46409789 4278190080
-2.9432759 -0.41050798 -0.46409789 4278190080
-2.9446909 -0.40023169 -0.46409789 4278190080
-2.9411743 -0.38930169 -0.46331656 4278190080
-2.9425151 -0.37903285 -0.46331656 4278190080
-2.93892 -0.36814559 -0.46253526 4278190080
-2.9401872 -0.35788476 -0.46253526 4278190080
-2.9414186 -0.34761956 -0.46253526 4278190080
-2.9426141 -0.33734936 -0.46253526 4278190080
-2.9437737 -0.32707581 -0.46253526 4278190080
-2.9399872 -0.31627005 -0.46175393 4278190080
-2.9410732 -0.30600581 -0.46175393 4278190080
-2.9372098 -0.29524392 -0.46097264 4278190080
-2.9382226 -0.28498873 -0.46097264 4278190080
-2.9391513 -0.27524433 -0.46097264 4278190080
-2.9400942 -0.26498246 -0.46097264 4278190080
-2.9410014 -0.25471815 -0.46097264 4278190080
-2.9369934 -0.24352948 -0.46019131 4278190080
-2.9378257 -0.23327535 -0.46019131 4278190080
-2.938622 -0.22301915 -0.46019131 4278190080
-2.9393826 -0.21276025 -0.46019131 4278190080
-2.9401073 -0.20249875 -0.46019131 4278190080
-2.9407961 -0.19223478 -0.46019131 4278190080
-2.9365201 -0.18166275 -0.45940998 4278190080
-2.9371364 -0.17141144 -0.45940998 4278190080
-2.9377167 -0.16115803 -0.45940998 4278190080
-2.9382613 -0.15090266 -0.45940998 4278190080
-2.9338374 -0.14040937 -0.45862868 4278190080
-2.9343097 -0.13016689 -0.45862868 4278190080
-2.9347463 -0.1199236 -0.45862868 4278190080
-2.9351277 -0.11019085 -0.45862868 4278190080
-2.9354944 -0.099944822 -0.45862868 4278190080
-2.9358253 -0.089697577 -0.45862868 4278190080
-2.9361207 -0.079449244 -0.45862868 4278190080
-2.9363801 -0.069199942 -0.45862868 4278190080
-2.9316661 -0.058849901 -0.45784736 4278190080
-2.9318535 -0.048616275 -0.45784736 4278190080
-2.9320054 -0.038382053 -0.45784736 4278190080
-2.9321215 -0.028147368 -0.45784736 4278190080
-2.9322021 -0.017912338 -0.45784736 4278190080
-2.9322467 -0.007676309 -0.45784736 4278190080
-2.9322555 0.0025590325 -0.45784736 4278190080
-2.9322288 0.012794343 -0.45784736 4278190080
-2.9321663 0.023029497 -0.45784736 4278190080
-2.9320681 0.033264372 -0.45784736 4278190080
-2.9319341 0.043499619 -0.45784736 4278190080
-2.9317644 0.053733557 -0.45784736 4278190080
-2.9315588 0.063966841 -0.45784736 4278190080
-2.9313178 0.074199349 -0.45784736 4278190080
-2.931041 0.084430948 -0.45784736 4278190080
-2.9307282 0.094662301 -0.45784736 4278190080
-2.9303801 0.10489172 -0.45784736 4278190080
-2.929996 0.11511986 -0.45784736 4278190080
-2.9295764 0.1253466 -0.45784736 4278190080
-2.929121 0.13557181 -0.45784736 4278190080
-2.9236975 0.14555059 -0.45706609 4278190080
-2.9281032 0.15601793 -0.45784736 4278190080
-2.9275408 0.1662378 -0.45784736 4278190080
-2.9269426 0.17645566 -0.45784736 4278190080
-2.9263089 0.18667136 -0.45784736 4278190080
-2.9256394 0.19688557 -0.45784736 4278190080
-2.9249341 0.20709661 -0.45784736 4278190080
-2.9241936 0.21730512 -0.45784736 4278190080
-2.9234171 0.22751097 -0.45784736 4278190080
-2.9226053 0.23771407 -0.45784736 4278190080
-2.9217577 0.24791503 -0.45784736 4278190080
-2.9208744 0.25811222 -0.45784736 4278190080
-2.9199557 0.26830623 -0.45784736 4278190080
-2.9190013 0.27849698 -0.45784736 4278190080
-2.9180114 0.28868437 -0.45784736 4278190080
-2.916986 0.29886898 -0.45784736 4278190080
-2.9159248 0.30904919 -0.45784736 4278190080
-2.9148283 0.31922561 -0.45784736 4278190080
-2.9136963 0.32939819 -0.45784736 4278190080
-2.9125288 0.33956671 -0.45784736 4278190080
-2.9113257 0.34973189 -0.45784736 4278190080
-2.9150515 0.3599889 -0.45862868 4278190080
-2.9137769 0.37016276 -0.45862868 4278190080
-2.9124672 0.38033134 -0.45862868 4278190080
-2.9111218 0.39049527 -0.45862868 4278190080
-2.9097409 0.40065444 -0.45862868 4278190080
-2.908253 0.41131684 -0.45862868 4278190080
-2.9067996 0.42146587 -0.45862868 4278190080
-2.9101954 0.43233547 -0.45940998 4278190080
-2.9087458 0.44198376 -0.45940998 4278190080
-2.9071853 0.45213434 -0.45940998 4278190080
-2.9055893 0.46227938 -0.45940998 4278190080
-2.9039578 0.47241959 -0.45940998 4278190080
-2.9022911 0.48255327 -0.45940998 4278190080
-2.900589 0.49268106 -0.45940998 4278190080
-2.8988516 0.50280285 -0.45940998 4278190080
-2.901942 0.51377952 -0.46019131 4278190080
-2.9001307 0.52390665 -0.46019131 4278190080
-2.8981912 0.53453219 -0.46019131 4278190080
-2.9011612 0.54555809 -0.46097264 4278190080
-2.8992391 0.5556823 -0.46097264 4278190080
-2.8973806 0.56529284 -0.46097264 4278190080
-2.8953896 0.57540375 -0.46097264 4278190080
-2.8933635 0.58550692 -0.46097264 4278190080
-2.8913021 0.59560293 -0.46097264 4278190080
-2.8892055 0.60569167 -0.46097264 4278190080
-2.8919034 0.61680317 -0.46175393 4278190080
-2.8897326 0.62689465 -0.46175393 4278190080
-2.8875268 0.63697773 -0.46175393 4278190080
-2.8852859 0.647053 -0.46175393 4278190080
-2.8878248 0.65821797 -0.46253526 4278190080
-2.8855095 0.66829419 -0.46253526 4278190080
-2.8830407 0.67886597 -0.46253526 4278190080
-2.8854566 0.69007403 -0.46331656 4278190080
-2.8830302 0.70014179 -0.46331656 4278190080
-2.8805685 0.7102018 -0.46331656 4278190080
-2.878072 0.72025239 -0.46331656 4278190080
-2.8755403 0.73029417 -0.46331656 4278190080
-2.8729737 0.74032712 -0.46331656 4278190080
-2.87515 0.75160003 -0.46409789 4278190080
-2.8725088 0.7616322 -0.46409789 4278190080
-2.8746018 0.7729367 -0.46487916 4278190080
-2.8718863 0.78296608 -0.46487916 4278190080
-2.8691359 0.79298592 -0.46487916 4278190080
-2.8663502 0.80299604 -0.46487916 4278190080
-2.8635297 0.81299722 -0.46487916 4278190080
-2.8654206 0.8243531 -0.46566048 4278190080
-2.8577843 0.83296812 -0.46487916 4278190080
-2.8548594 0.84293842 -0.46487916 4278190080
-2.8205454 0.85425967 -0.46019131 4278190080
-2.690691 0.8561222 -0.44065857 4278190080
-2.6547799 0.85491318 -0.4351894 4278190080
-2.6517797 0.86417472 -0.4351894 4278190080
-2.5971553 0.85641336 -0.42659503 4278190080
-2.5800958 0.86078489 -0.42425108 4278190080
-2.5489998 0.86031002 -0.41956323 4278190080
-2.5272863 0.86282057 -0.41643798 4278190080
-2.4962504 0.86196554 -0.41175014 4278190080
-2.4699142 0.86253262 -0.40784356 4278190080
-2.4389479 0.86128205 -0.40315571 4278190080
-2.4080207 0.85982591 -0.39846787 4278190080
-2.3817787 0.85984206 -0.39456129 4278190080
-2.3509274 0.85799181 -0.38987345 4278190080
-2.3247516 0.85764611 -0.38596693 4278190080
-2.2939796 0.85540277 -0.38127908 4278190080
-2.263252 0.85295504 -0.37659118 4278190080
-2.2325695 0.85030407 -0.37190333 4278190080
-2.206543 0.84922266 -0.36799681 4278190080
-2.2035651 0.85691965 -0.36799681 4278190080
-2.1913676 0.86099422 -0.36643419 4278190080
-2.1791685 0.86499411 -0.36487156 4278190080
-2.1669681 0.86891997 -0.36330894 4278190080
-2.1318803 0.86350054 -0.35783976 4278190080
-2.1105697 0.86345685 -0.35471454 4278190080
-2.0847213 0.8613891 -0.35080796 4278190080
-2.0589135 0.85915154 -0.34690145 4278190080
-2.0376978 0.85866272 -0.3437762 4278190080
-2.016511 0.8580358 -0.34065098 4278190080
-1.9998909 0.85922092 -0.33830702 4278190080
-1.9787568 0.85833532 -0.3351818 4278190080
-1.9576534 0.85731274 -0.33205655 4278190080
-1.9365813 0.85615391 -0.32893133 4278190080
-1.9155416 0.85485798 -0.32580608 4278190080
-1.8990375 0.85545397 -0.32346216 4278190080
-1.878057 0.85390127 -0.32033691 4278190080
-1.8615992 0.85427231 -0.31799296 4278190080
-1.8451619 0.85453951 -0.31564906 4278190080
-1.8287456 0.85470188 -0.31330511 4278190080
-1.8122019 0.85507637 -0.31096122 4278190080
-1.7913699 0.85290521 -0.30783594 4278190080
-1.7750273 0.85273737 -0.30549201 4278190080
-1.7588564 0.85215902 -0.30314809 4278190080
-1.7425605 0.85178691 -0.30080417 4278190080
-1.7262889 0.85131145 -0.29846025 4278190080
-1.7100419 0.85073286 -0.29611632 4278190080
-1.6938202 0.85005134 -0.2937724 4278190080
-1.6818815 0.85179138 -0.29220977 4278190080
-1.6657041 0.85091692 -0.28986582 4278190080
-1.6495535 0.84994 -0.2875219 4278190080
-1.63343 0.84886122 -0.28517798 4278190080
-1.6173344 0.84767985 -0.28283405 4278190080
-1.6057813 0.84842438 -0.28127143 4278190080
-1.5897347 0.84705734 -0.27892751 4278190080
-1.5780675 0.84792626 -0.27736488 4278190080
-1.5662656 0.84899777 -0.27580225 4278190080
-1.550292 0.84735399 -0.27345833 4278190080
-1.5386744 0.8479929 -0.27189574 4278190080
-1.5270712 0.84856105 -0.27033311 4278190080
-1.5111744 0.84664464 -0.26798916 4278190080
-1.4996097 0.84705704 -0.26642653 4278190080
-1.4880608 0.8473987 -0.26486394 4278190080
-1.472245 0.84521127 -0.26252002 4278190080
-1.460737 0.84539765 -0.26095739 4278190080
-1.4492458 0.845514 -0.25939476 4278190080
-1.4335145 0.84305733 -0.25705084 4278190080
-1.4220666 0.84301925 -0.25548822 4278190080
-1.4106365 0.84291154 -0.25392559 4278190080
-1.3992246 0.8427344 -0.252363 4278190080
-1.3878312 0.84248793 -0.25080037 4278190080
-1.3764564 0.84217256 -0.24923773 4278190080
-1.3651011 0.84178782 -0.24767512 4278190080
-1.3537654 0.8413341 -0.2461125 4278190080
-1.346635 0.84343296 -0.24533118 4278190080
-1.3353302 0.84285635 -0.24376857 4278190080
-1.3240458 0.84221148 -0.24220595 4278190080
-1.3127825 0.84149784 -0.24064334 4278190080
-1.3015404 0.84071589 -0.23908071 4278190080
-1.2944589 0.84255987 -0.23829941 4278190080
-1.2832507 0.84165615 -0.23673679 4278190080
-1.2720646 0.84068483 -0.23517418 4278190080
-1.2609012 0.83964545 -0.23361155 4278190080
-1.2538617 0.84129006 -0.23283024 4278190080
-1.2427347 0.84012985 -0.23126763 4278190080
-1.2357129 0.84168243 -0.23048632 4278190080
-1.2244765 0.84061575 -0.22892368 4278190080
-1.2134113 0.83926618 -0.22736107 4278190080
-1.2025169 0.83763993 -0.22579844 4278190080
-1.1955432 0.83899546 -0.22501715 4278190080
-1.1843959 0.83766848 -0.22345452 4278190080
-1.1774427 0.83893192 -0.22267321 4278190080
-1.166483 0.83727723 -0.2211106 4278190080
-1.1595514 0.83845013 -0.22032928 4278190080
-1.1486337 0.83667743 -0.21876667 4278190080
-1.1417245 0.83776015 -0.21798536 4278190080
-1.1348219 0.83880484 -0.21720405 4278190080
-1.1239647 0.83686227 -0.21564144 4278190080
-1.1170858 0.83781731 -0.21486013 4278190080
-1.1062733 0.83575797 -0.21329752 4278190080
-1.0994192 0.83662379 -0.2125162 4278190080
-1.088653 0.83444756 -0.21095358 4278190080
-1.0818245 0.83522451 -0.21017228 4278190080
-1.0750039 0.8359639 -0.20939095 4278190080
-1.0681912 0.83666629 -0.20860964 4278190080
-1.0613869 0.837331 -0.20782833 4278190080
-1.0507245 0.83488613 -0.20626572 4278190080
-1.0439481 0.83546293 -0.20548441 4278190080
-1.0370343 0.83618379 -0.20470309 4278190080
-1.0264419 0.83357197 -0.20314048 4278190080
-1.0197033 0.83402312 -0.20235917 4278190080
-1.0129739 0.83443743 -0.20157786 4278190080
-1.0062542 0.83481497 -0.20079654 4278190080
-0.99954408 0.83515608 -0.20001525 4278190080
-0.99284405 0.83546025 -0.19923393 4278190080
-0.98238653 0.83253497 -0.19767131 4278190080
-0.98323095 0.83916503 -0.19845262 4278190080
-0.96906012 0.83293462 -0.1961087 4278190080
-0.9586786 0.82984805 -0.19454607 4278190080
-0.78988951 0.86201316 -0.17891988 4278190080
-0.77690464 0.85380691 -0.17657596 4278190080
-0.77723056 0.86017787 -0.17735727 4278190080
-0.77752119 0.86656171 -0.17813857 4278190080
-0.76463574 0.85820848 -0.17579465 4278190080
-0.75836301 0.8571735 -0.17501333 4278190080
-0.74884742 0.85239506 -0.17345072 4278190080
-0.742621 0.85128224 -0.17266941 4278190080
-0.73641127 0.85013664 -0.1718881 4278190080
-0.73021889 0.84895784 -0.1711068 4278190080
-0.72404373 0.84774625 -0.17032549 4278190080
-0.71788585 0.84650189 -0.16954416 4278190080
-0.70856458 0.84144729 -0.16798154 4278190080
-0.69928718 0.83633828 -0.16641892 4278190080
-0.69320899 0.83497441 -0.16563761 4278190080
-0.68386286 0.82988685 -0.164075 4278190080
-0.67783433 0.82844687 -0.16329369 4278190080
-0.67493844 0.83080786 -0.16329369 4278190080
-0.66907835 0.82919812 -0.16251238 4278190080
-0.6661799 0.83152854 -0.16251238 4278190080
-0.66019899 0.82998389 -0.16173108 4278190080
-0.65715241 0.83239812 -0.16173108 4278190080
-0.65119624 0.83080006 -0.16094977 4278190080
-0.6482923 0.83306801 -0.16094977 4278190080
-0.64236104 0.83141786 -0.16016845 4278190080
-0.63644922 0.82973647 -0.15938714 4278190080
-0.63055682 0.82802415 -0.15860584 4278190080
-0.62766272 0.8302201 -0.15860584 4278190080
-0.62179637 0.82845616 -0.15782453 4278190080
-0.61875564 0.83072966 -0.15782453 4278190080
-0.61291593 0.82891351 -0.15704322 4278190080
-0.61001879 0.83104789 -0.15704322 4278190080
-0.60420585 0.82918084 -0.15626191 4278190080
-0.60130781 0.83128482 -0.15626191 4278190080
-0.59552181 0.82936728 -0.15548061 4278190080
-0.59262317 0.83144093 -0.15548061 4278190080
-0.58686495 0.8294729 -0.15469928 4278190080
-0.58396602 0.83151633 -0.15469928 4278190080
-0.57823581 0.82949829 -0.15391797 4278190080
-0.57252657 0.82745057 -0.15313667 4278190080
-0.56683898 0.82537305 -0.15235536 4278190080
-0.56395447 0.82734662 -0.15235536 4278190080
-0.55829579 0.82521969 -0.15157405 4278190080
-0.55541188 0.82716346 -0.15157405 4278190080
-0.55252099 0.82909727 -0.15157405 4278190080
-0.5468992 0.82690173 -0.15079273 4278190080
-0.54400951 0.82880569 -0.15079273 4278190080
-0.53841764 0.82656145 -0.15001144 4278190080
-0.5355292 0.82843584 -0.15001144 4278190080
-0.52996737 0.82614344 -0.14923012 4278190080
-0.52708042 0.82798833 -0.14923012 4278190080
-0.52140552 0.82573879 -0.14844881 4278190080
-0.51852 0.82755375 -0.14844881 4278190080
-0.51302046 0.82516474 -0.1476675 4278190080
-0.51013702 0.82695043 -0.1476675 4278190080
-0.50466913 0.82451391 -0.1468862 4278190080
-0.50178802 0.82627046 -0.1468862 4278190080
-0.4989008 0.828017 -0.1468862 4278190080
-0.49600726 0.82975352 -0.1468862 4278190080
-0.49058878 0.82723206 -0.14610489 4278190080
-0.48769826 0.8289395 -0.14610489 4278190080
-0.48231238 0.82637155 -0.14532357 4278190080
-0.47695035 0.82377613 -0.14454226 4278190080
-0.47392777 0.82551873 -0.14454226 4278190080
-0.46859947 0.82287651 -0.14376095 4278190080
-0.46572429 0.82450718 -0.14376095 4278190080
-0.46042934 0.82181948 -0.14297964 4278190080
-0.45755792 0.82342166 -0.14297964 4278190080
-0.45229718 0.82068855 -0.14219834 4278190080
-0.44942972 0.82226235 -0.14219834 4278190080
-0.44420335 0.81948435 -0.14141703 4278190080
-0.44133994 0.82103002 -0.14141703 4278190080
-0.43847135 0.82256556 -0.14141703 4278190080
-0.43328959 0.81972492 -0.14063571 4278190080
-0.43042561 0.82123238 -0.14063571 4278190080
-0.4275564 0.82272983 -0.14063571 4278190080
-0.42241976 0.81982726 -0.1398544 4278190080
-0.41955549 0.82129675 -0.1398544 4278190080
-0.41445482 0.81835049 -0.1390731 4278190080
-0.41159576 0.81979221 -0.1390731 4278190080
-0.40873167 0.82122391 -0.1390731 4278190080
-0.40353462 0.81828725 -0.13829179 4278190080
-0.40067586 0.81969088 -0.13829179 4278190080
-0.39781219 0.82108444 -0.13829179 4278190080
-0.39494348 0.82246816 -0.13829179 4278190080
-0.39207017 0.82384175 -0.13829179 4278190080
-0.38919207 0.82520527 -0.13829179 4278190080
-0.38421822 0.82208472 -0.13751048 4278190080
-0.38134632 0.82342088 -0.13751048 4278190080
-0.37626669 0.82032418 -0.13672917 4278190080
-0.37354431 0.82156748 -0.13672917 4278190080
-0.36864588 0.81836355 -0.13594787 4278190080
-0.36578706 0.81964535 -0.13594787 4278190080
-0.36292377 0.82091719 -0.13594787 4278190080
-0.36005586 0.82217908 -0.13594787 4278190080
-0.35718378 0.8234309 -0.13594787 4278190080
-0.35235786 0.82013512 -0.13516656 4278190080
-0.34949294 0.82136005 -0.13516656 4278190080
-0.34662378 0.82257503 -0.13516656 4278190080
-0.34184831 0.81922227 -0.13438524 4278190080
-0.33898664 0.82041055 -0.13438524 4278190080
-0.33410835 0.81707627 -0.13360393 4278190080
-0.33125401 0.8182376 -0.13360393 4278190080
-0.32839584 0.81938887 -0.13360393 4278190080
-0.32553369 0.82053018 -0.13360393 4278190080
-0.32266757 0.82166153 -0.13360393 4278190080
-0.31800839 0.81817973 -0.13282262 4278190080
-0.31515029 0.81928486 -0.13282262 4278190080
-0.31228858 0.82037991 -0.13282262 4278190080
-0.30927977 0.82151896 -0.13282262 4278190080
-0.30482909 0.8179124 -0.13204131 4278190080
-0.30197224 0.81897146 -0.13204131 4278190080
-0.29911149 0.82002062 -0.13204131 4278190080
-0.29457116 0.8164143 -0.13126001 4278190080
-0.29171959 0.81743753 -0.13126001 4278190080
-0.28872147 0.81850129 -0.13126001 4278190080
-0.28586265 0.81950408 -0.13126001 4278190080
-0.28300038 0.82049692 -0.13126001 4278190080
-0.27854064 0.81680554 -0.1304787 4278190080
-0.27568781 0.81777281 -0.1304787 4278190080
-0.27283138 0.81873024 -0.1304787 4278190080
-0.26997188 0.81967759 -0.1304787 4278190080
-0.26710907 0.82061493 -0.1304787 4278190080
-0.26258835 0.81688678 -0.12969738 4278190080
-0.25973511 0.81779844 -0.12969738 4278190080
-0.25540042 0.81398803 -0.12891607 4278190080
-0.25255758 0.81487459 -0.12891607 4278190080
-0.24971163 0.81575119 -0.12891607 4278190080
-0.24686265 0.81661785 -0.12891607 4278190080
-0.24401045 0.81747466 -0.12891607 4278190080
-0.24115548 0.81832141 -0.12891607 4278190080
-0.23829758 0.8191582 -0.12891607 4278190080
-0.23407386 0.81523824 -0.12813477 4278190080
-0.23122677 0.81605029 -0.12813477 4278190080
-0.22837664 0.81685251 -0.12813477 4278190080
-0.22552395 0.81764472 -0.12813477 4278190080
-0.2226685 0.81842697 -0.12813477 4278190080
-0.21966723 0.81923759 -0.12813477 4278190080
-0.21680626 0.8199994 -0.12813477 4278190080
-0.21394265 0.82075119 -0.12813477 4278190080
-0.21107644 0.82149297 -0.12813477 4278190080
-0.20806399 0.8222611 -0.12813477 4278190080
-0.20533611 0.82294655 -0.12813477 4278190080
-0.20246227 0.82365829 -0.12813477 4278190080
-0.19842365 0.81956011 -0.12735346 4278190080
-0.19556192 0.82024771 -0.12735346 4278190080
-0.19156878 0.81611747 -0.12657215 4278190080
-0.1885764 0.81681412 -0.12657215 4278190080
-0.18572386 0.81746745 -0.12657215 4278190080
-0.18286949 0.8181107 -0.12657215 4278190080
-0.18001246 0.81874406 -0.12657215 4278190080
-0.17715369 0.81936741 -0.12657215 4278190080
-0.17429231 0.8199808 -0.12657215 4278190080
-0.1714288 0.82058424 -0.12657215 4278190080
-0.16856365 0.8211776 -0.12657215 4278190080
-0.16471985 0.81691986 -0.12579083 4278190080
-0.16186753 0.81748986 -0.12579083 4278190080
-0.15886988 0.81807768 -0.12579083 4278190080
-0.15601355 0.81862724 -0.12579083 4278190080
-0.15315488 0.81916684 -0.12579083 4278190080
-0.15029478 0.81969643 -0.12579083 4278190080
-0.14655872 0.81535536 -0.12500952 4278190080
-0.14371152 0.815862 -0.12500952 4278190080
-0.14002328 0.81149197 -0.12422821 4278190080
-0.13718961 0.81197584 -0.12422821 4278190080
-0.13435471 0.81244969 -0.12422821 4278190080
-0.13151774 0.81291378 -0.12422821 4278190080
-0.12867917 0.81336796 -0.12422821 4278190080
-0.12583946 0.81381214 -0.12422821 4278190080
-0.12285553 0.81426793 -0.12422821 4278190080
-0.12001272 0.81469178 -0.12422821 4278190080
-0.11716801 0.81510574 -0.12422821 4278190080
-0.1143223 0.81550974 -0.12422821 4278190080
-0.11147477 0.81590384 -0.12422821 4278190080
-0.10862589 0.81628805 -0.12422821 4278190080
-0.10499993 0.8117829 -0.1234469 4278190080
-0.1021659 0.81214446 -0.1234469 4278190080
-0.099330194 0.81249613 -0.1234469 4278190080
-0.096493274 0.81283796 -0.1234469 4278190080
-0.093655609 0.81316978 -0.1234469 4278190080
-0.090816371 0.81349176 -0.1234469 4278190080
-0.087976463 0.81380379 -0.1234469 4278190080
-0.08513505 0.81410593 -0.1234469 4278190080
-0.082292594 0.81439817 -0.1234469 4278190080
-0.079449579 0.81468046 -0.1234469 4278190080
-0.076462775 0.8149662 -0.1234469 4278190080
-0.073617809 0.8152281 -0.1234469 4278190080
-0.070771508 0.81548011 -0.1234469 4278190080
-0.067924783 0.81572217 -0.1234469 4278190080
-0.065076791 0.81595433 -0.1234469 4278190080
-0.062228009 0.81617653 -0.1234469 4278190080
-0.058878884 0.81147349 -0.12266559 4278190080
-0.056046214 0.81167406 -0.12266559 4278190080
-0.053212427 0.81186473 -0.12266559 4278190080
-0.050377995 0.81204557 -0.12266559 4278190080
-0.047543377 0.81221646 -0.12266559 4278190080
-0.044707753 0.81237745 -0.12266559 4278190080
-0.041730061 0.81253588 -0.12266559 4278190080
-0.038893353 0.81267661 -0.12266559 4278190080
-0.036056604 0.81280738 -0.12266559 4278190080
-0.033218984 0.81292832 -0.12266559 4278190080
-0.030381393 0.8130393 -0.12266559 4278190080
-0.027542997 0.81314039 -0.12266559 4278190080
-0.024704266 0.81323159 -0.12266559 4278190080
-0.021865668 0.81331289 -0.12266559 4278190080
-0.019026371 0.81338423 -0.12266559 4278190080
-0.016187273 0.81344569 -0.12266559 4278190080
-0.013347546 0.81349725 -0.12266559 4278190080
-0.010507655 0.81353891 -0.12266559 4278190080
-0.0076215258 0.80863225 -0.12188429 4278190080
-0.0047986535 0.80865395 -0.12188429 4278190080
-0.0019761538 0.80866575 -0.12188429 4278190080
0.00084680074 0.80866772 -0.12188429 4278190080
0.0038105899 0.8086592 -0.12188429 4278190080
0.0066334861 0.80864096 -0.12188429 4278190080
0.009456302 0.80861288 -0.12188429 4278190080
0.012278572 0.80857497 -0.12188429 4278190080
0.015101123 0.80852717 -0.12188429 4278190080
0.017923059 0.80846953 -0.12188429 4278190080
0.020745207 0.80840206 -0.12188429 4278190080
0.023423176 0.80338824 -0.12110297 4278190080
0.026227126 0.80330157 -0.12110297 4278190080
0.029031184 0.80320513 -0.12110297 4278190080
0.03163885 0.79816419 -0.12032167 4278190080
0.034424938 0.79804891 -0.12032167 4278190080
0.037349585 0.79791737 -0.12032167 4278190080
0.04013478 0.79778212 -0.12032167 4278190080
0.042919058 0.79763716 -0.12032167 4278190080
0.045985803 0.80241299 -0.12110297 4278190080
0.04878664 0.80224758 -0.12110297 4278190080
0.051586453 0.80207241 -0.12110297 4278190080
0.054720242 0.80681467 -0.12188429 4278190080
0.057535961 0.80661875 -0.12188429 4278190080
0.060351405 0.80641299 -0.12188429 4278190080
0.063166119 0.8061974 -0.12188429 4278190080
0.066120431 0.80596048 -0.12188429 4278190080
0.068933532 0.80572474 -0.12188429 4278190080
0.071745358 0.80547923 -0.12188429 4278190080
0.074556738 0.80522388 -0.12188429 4278190080
0.077366784 0.80495876 -0.12188429 4278190080
0.080176316 0.8046838 -0.12188429 4278190080
0.082984865 0.80439901 -0.12188429 4278190080
0.085791983 0.80410445 -0.12188429 4278190080
0.088598475 0.80380005 -0.12188429 4278190080
0.091403469 0.80348593 -0.12188429 4278190080
0.094207771 0.80316198 -0.12188429 4278190080
0.097010925 0.80282819 -0.12188429 4278190080
0.099952668 0.80246723 -0.12188429 4278190080
0.10275294 0.80211347 -0.12188429 4278190080
0.10555238 0.80174989 -0.12188429 4278190080
0.10835054 0.80137658 -0.12188429 4278190080
0.11128688 0.80097407 -0.12188429 4278190080
0.11408187 0.80058074 -0.12188429 4278190080
0.11687589 0.80017763 -0.12188429 4278190080
0.11952877 0.79978567 -0.12188429 4278190080
0.12231998 0.79936355 -0.12188429 4278190080
0.12510929 0.79893172 -0.12188429 4278190080
0.12881848 0.80334413 -0.12266559 4278190080
0.13162206 0.80288953 -0.12266559 4278190080
0.13442403 0.80242515 -0.12266559 4278190080
0.13805689 0.8068189 -0.1234469 4278190080
0.14087255 0.80633205 -0.1234469 4278190080
0.14368606 0.80583543 -0.1234469 4278190080
0.14649825 0.80532897 -0.1234469 4278190080
0.15020947 0.80966836 -0.12422821 4278190080
0.15317594 0.80911237 -0.12422821 4278190080
0.1559995 0.80857277 -0.12422821 4278190080
0.15882073 0.80802333 -0.12422821 4278190080
0.16164047 0.807464 -0.12422821 4278190080
0.1644578 0.8068949 -0.12422821 4278190080
0.16727355 0.8063159 -0.12422821 4278190080
0.17008728 0.80572706 -0.12422821 4278190080
0.1728985 0.80512846 -0.12422821 4278190080
0.17584816 0.80448937 -0.12422821 4278190080
0.17865545 0.80387062 -0.12422821 4278190080
0.18146056 0.80324203 -0.12422821 4278190080
0.18536811 0.80741715 -0.12500952 4278190080
0.18818556 0.80676514 -0.12500952 4278190080
0.19100028 0.80610341 -0.12500952 4278190080
0.19381312 0.80543172 -0.12500952 4278190080
0.19662359 0.80475026 -0.12500952 4278190080
0.20062014 0.80885243 -0.12579083 4278190080
0.20344251 0.80814719 -0.12579083 4278190080
0.20626198 0.80743217 -0.12579083 4278190080
0.20907936 0.8067072 -0.12579083 4278190080
0.21203457 0.8059355 -0.12579083 4278190080
0.21484669 0.80519044 -0.12579083 4278190080
0.21765618 0.80443555 -0.12579083 4278190080
0.22046261 0.80367094 -0.12579083 4278190080
0.22326677 0.80289644 -0.12579083 4278190080
0.22740749 0.80686563 -0.12657215 4278190080
0.23022276 0.80606687 -0.12657215 4278190080
0.23303522 0.80525833 -0.12657215 4278190080
0.23584442 0.80444002 -0.12657215 4278190080
0.23865117 0.80361181 -0.12657215 4278190080
0.2414546 0.80277395 -0.12657215 4278190080
0.2442555 0.8019262 -0.12657215 4278190080
0.24864921 0.80574459 -0.12735346 4278190080
0.25146043 0.80487168 -0.12735346 4278190080
0.25426817 0.80398911 -0.12735346 4278190080
0.25707325 0.80309659 -0.12735346 4278190080
0.25987518 0.8021943 -0.12735346 4278190080
0.26267353 0.80128235 -0.12735346 4278190080
0.26560849 0.80031425 -0.12735346 4278190080
0.26840064 0.79938215 -0.12735346 4278190080
0.27277783 0.80311656 -0.12813477 4278190080
0.2755793 0.80215955 -0.12813477 4278190080
0.27837786 0.8011927 -0.12813477 4278190080
0.28117257 0.80021614 -0.12813477 4278190080
0.28396431 0.79922974 -0.12813477 4278190080
0.28675258 0.79823363 -0.12813477 4278190080
0.28967622 0.79717726 -0.12813477 4278190080
0.29416016 0.80079693 -0.12891607 4278190080
0.29695341 0.79976535 -0.12891607 4278190080
0.29974347 0.79872382 -0.12891607 4278190080
0.30252945 0.79767275 -0.12891607 4278190080
0.30531216 0.79661179 -0.12891607 4278190080
0.30987468 0.80014646 -0.12969738 4278190080
0.31266555 0.79905999 -0.12969738 4278190080
0.31559205 0.79790872 -0.12969738 4278190080
0.31837553 0.79680216 -0.12969738 4278190080
0.32300353 0.80026549 -0.1304787 4278190080
0.32579476 0.79913324 -0.1304787 4278190080
0.32858244 0.79799104 -0.1304787 4278190080
0.33136567 0.79683936 -0.1304787 4278190080
0.33605751 0.8002311 -0.13126001 4278190080
0.33884895 0.79905307 -0.13126001 4278190080
0.34163585 0.79786551 -0.13126001 4278190080
0.344419 0.79666805 -0.13126001 4278190080
0.34719756 0.79546106 -0.13126001 4278190080
0.34997228 0.79424417 -0.13126001 4278190080
0.35274276 0.79301763 -0.13126001 4278190080
0.35753137 0.79628688 -0.13204131 4278190080
0.36030892 0.79503393 -0.13204131 4278190080
0.36308163 0.79377151 -0.13204131 4278190080
0.36598882 0.79243529 -0.13204131 4278190080
0.36875245 0.79115301 -0.13204131 4278190080
0.37361398 0.79432988 -0.13282262 4278190080
0.37638462 0.79302078 -0.13282262 4278190080
0.37915021 0.79170227 -0.13282262 4278190080
0.38406029 0.79482055 -0.13360393 4278190080
0.38683212 0.79347521 -0.13360393 4278190080
0.38959968 0.79211998 -0.13360393 4278190080
0.39250022 0.79068679 -0.13360393 4278190080
0.39525801 0.78931177 -0.13360393 4278190080
0.40023726 0.79233551 -0.13438524 4278190080
0.40300074 0.79093349 -0.13438524 4278190080
0.40801677 0.79391438 -0.13516656 4278190080
0.41078532 0.79248542 -0.13516656 4278190080
0.41583729 0.79542315 -0.13594787 4278190080
0.41861105 0.79396689 -0.13594787 4278190080
0.42138013 0.79250073 -0.13594787 4278190080
0.42414406 0.79102492 -0.13594787 4278190080
0.42704037 0.78946513 -0.13594787 4278190080
0.42979324 0.78796983 -0.13594787 4278190080
0.43492126 0.79079193 -0.13672917 4278190080
0.43767917 0.78926891 -0.13672917 4278190080
0.4404313 0.78773642 -0.13672917 4278190080
0.44560361 0.79049629 -0.13751048 4278190080
0.44836 0.78893614 -0.13751048 4278190080
0.45111135 0.78736621 -0.13751048 4278190080
0.4564648 0.78998363 -0.13829179 4278190080
0.45921975 0.78838533 -0.13829179 4278190080
0.46446967 0.79103619 -0.1390731 4278190080
0.46722782 0.78941023 -0.1390731 4278190080
0.46998069 0.78777438 -0.1390731 4278190080
0.47527245 0.79036146 -0.1398544 4278190080
0.4781664 0.78861403 -0.1398544 4278190080
0.48091599 0.78694028 -0.1398544 4278190080
0.48366016 0.78525668 -0.1398544 4278190080
0.48900265 0.78775966 -0.14063571 4278190080
0.49174961 0.78604782 -0.14063571 4278190080
0.49712446 0.788504 -0.14141703 4278190080
0.50001103 0.7866767 -0.14141703 4278190080
0.50527996 0.78917336 -0.14219834 4278190080
0.50803137 0.78740501 -0.14219834 4278190080
0.51346886 0.78976715 -0.14297964 4278190080
0.51635993 0.78787994 -0.14297964 4278190080
0.52182865 0.79019368 -0.14376095 4278190080
0.52458394 0.78836721 -0.14376095 4278190080
0.52733243 0.78653145 -0.14376095 4278190080
0.53283936 0.78877813 -0.14454226 4278190080
0.53558922 0.78691357 -0.14454226 4278190080
0.54112595 0.78911209 -0.14532357 4278190080
0.5466845 0.79128146 -0.14610489 4278190080
0.54958093 0.78927249 -0.14610489 4278190080
0.55516857 0.79139245 -0.1468862 4278190080
0.55792785 0.78944963 -0.1468862 4278190080
0.56354463 0.79152024 -0.1476675 4278190080
0.56644177 0.78944951 -0.1476675 4278190080
0.57208681 0.79147011 -0.14844881 4278190080
0.57484627 0.78946817 -0.14844881 4278190080
0.58051962 0.79143882 -0.14923012 4278190080
0.58327842 0.78940779 -0.14923012 4278190080
0.58897924 0.79132855 -0.15001144 4278190080
0.59173769 0.78926802 -0.15001144 4278190080
0.59746552 0.79113853 -0.15079273 4278190080
0.60022366 0.78904802 -0.15079273 4278190080
0.602974 0.7869482 -0.15079273 4278190080
0.60873485 0.78874815 -0.15157405 4278190080
0.61148411 0.78661865 -0.15157405 4278190080
0.61727095 0.78836775 -0.15235536 4278190080
0.62001926 0.78620809 -0.15235536 4278190080
0.62583125 0.78790635 -0.15313667 4278190080
0.62857789 0.78571689 -0.15313667 4278190080
0.6345526 0.7872529 -0.15391797 4278190080
0.63729692 0.78503293 -0.15391797 4278190080
0.64315903 0.78662711 -0.15469928 4278190080
0.64590114 0.7843771 -0.15469928 4278190080
0.651788 0.78591901 -0.15548061 4278190080
0.65769303 0.78742963 -0.15626191 4278190080
0.66043782 0.78512889 -0.15626191 4278190080
0.6663664 0.78658718 -0.15704322 4278190080
0.66910821 0.78425616 -0.15704322 4278190080
0.67506033 0.7856614 -0.15782453 4278190080
0.67779845 0.78330046 -0.15782453 4278190080
0.68377328 0.78465277 -0.15860584 4278190080
0.6899026 0.78585279 -0.15938714 4278190080
0.69264174 0.78343964 -0.15938714 4278190080
0.69865596 0.78470576 -0.16016845 4278190080
0.70139104 0.78226209 -0.16016845 4278190080
0.70742679 0.78347468 -0.16094977 4278190080
0.71347994 0.78465426 -0.16173108 4278190080
0.71621466 0.78215885 -0.16173108 4278190080
0.72228819 0.78328484 -0.16251238 4278190080
0.72837865 0.78437757 -0.16329369 4278190080
0.73111194 0.78183049 -0.16329369 4278190080
0.73735923 0.78274006 -0.164075 4278190080
0.74008679 0.78016162 -0.164075 4278190080
0.74621707 0.78114438 -0.1648563 4278190080
0.75222653 0.78222519 -0.16563761 4278190080
0.75495213 0.7795949 -0.16563761 4278190080
0.76111698 0.7804904 -0.16641892 4278190080
0.76743323 0.78121871 -0.16720024 4278190080
0.77362883 0.7820459 -0.16798154 4278190080
0.77983958 0.7828393 -0.16876285 4278190080
0.78606474 0.7835992 -0.16954416 4278190080
0.79244179 0.78418684 -0.17032549 4278190080
0.79517448 0.78141576 -0.17032549 4278190080
0.80143195 0.78208435 -0.1711068 4278190080
0.80770332 0.78271914 -0.1718881 4278190080
0.81398922 0.78331918 -0.17266941 4278190080
0.81671834 0.78047335 -0.17266941 4278190080
0.82315665 0.78087324 -0.17345072 4278190080
0.82587713 0.77799535 -0.17345072 4278190080
0.82858795 0.77510762 -0.17345072 4278190080
1.1128488 0.8103137 -0.21173489 4278190080
1.1076657 0.8006379 -0.21017228 4278190080
1.0944031 0.7852506 -0.20704702 4278190080
1.1172507 0.79575062 -0.21095358 4278190080
1.1119561 0.7861442 -0.20939095 4278190080
1.1188734 0.78489918 -0.21017228 4278190080
1.1216061 0.78098917 -0.21017228 4278190080
1.1283883 0.77987695 -0.21095358 4278190080
1.1311034 0.77593374 -0.21095358 4278190080
1.1338052 0.77198046 -0.21095358 4278190080
1.1364932 0.76801783 -0.21095358 4278190080
1.1391668 0.76404637 -0.21095358 4278190080
1.1459382 0.76280159 -0.21173489 4278190080
1.1527143 0.76151943 -0.2125162 4278190080
1.1594956 0.76019865 -0.21329752 4278190080
1.1664139 0.75863653 -0.21407881 4278190080
1.1773537 0.75991648 -0.21564144 4278190080
1.1841576 0.75846612 -0.21642275 4278190080
1.1951339 0.75962603 -0.21798536 4278190080
1.2019556 0.75808394 -0.21876667 4278190080
1.2129669 0.75912404 -0.22032928 4278190080
1.2198049 0.75749046 -0.2211106 4278190080
1.2308503 0.75840968 -0.22267321 4278190080
1.2377039 0.7566843 -0.22345452 4278190080
1.2487829 0.75748158 -0.22501715 4278190080
1.2556505 0.75566477 -0.22579844 4278190080
1.2667613 0.75634032 -0.22736107 4278190080
1.2736425 0.75443119 -0.22814238 4278190080
1.2805263 0.75248253 -0.22892368 4278190080
1.2916784 0.75298226 -0.23048632 4278190080
1.298574 0.75094157 -0.23126763 4278190080
1.3098863 0.75108963 -0.23283024 4278190080
1.3210855 0.75139636 -0.23439287 4278190080
1.332303 0.75163329 -0.23595548 4278190080
1.3435378 0.75180173 -0.2375181 4278190080
1.3547903 0.75190008 -0.23908071 4278190080
1.3660598 0.75192899 -0.24064334 4278190080
1.3773454 0.75188905 -0.24220595 4278190080
1.3886477 0.75177872 -0.24376857 4278190080
1.4000968 0.75135475 -0.24533118 4278190080
1.4114306 0.75110269 -0.24689381 4278190080
1.4184114 0.74847656 -0.24767512 4278190080
1.4297671 0.74809963 -0.24923773 4278190080
1.4367533 0.74537897 -0.25001904 4278190080
1.4481299 0.74487686 -0.25158167 4278190080
1.4595203 0.7443043 -0.25314429 4278190080
1.470924 0.743662 -0.25470692 4278190080
1.4823412 0.74294835 -0.25626954 4278190080
1.4937708 0.74216479 -0.25783214 4278190080
1.5096438 0.74349153 -0.26017606 4278190080
1.521106 0.74255002 -0.26173869 4278190080
1.5370252 0.74368924 -0.26408261 4278190080
1.5485179 0.74259007 -0.26564524 4278190080
1.5644817 0.74354035 -0.26798916 4278190080
1.5760034 0.74228305 -0.26955178 4278190080
1.5875355 0.74095434 -0.27111441 4278190080
1.6035591 0.74162799 -0.27345833 4278190080
1.6152468 0.73985827 -0.27502096 4278190080
1.6268135 0.73829788 -0.27658358 4278190080
1.6428937 0.73869008 -0.27892751 4278190080
1.6544844 0.73697031 -0.28049013 4278190080
1.6706017 0.73717141 -0.28283405 4278190080
1.6822153 0.73529094 -0.28439668 4278190080
1.6983676 0.73530138 -0.2867406 4278190080
1.7145407 0.73520702 -0.28908452 4278190080
1.7307334 0.73500961 -0.29142848 4278190080
1.7469457 0.73470712 -0.2937724 4278190080
1.7633048 0.73399317 -0.29611632 4278190080
1.7795541 0.73347908 -0.29846025 4278190080
1.7958208 0.73286134 -0.30080417 4278190080
1.8121051 0.73213798 -0.30314809 4278190080
1.8284061 0.73130977 -0.30549201 4278190080
1.8401309 0.72855961 -0.30705464 4278190080
1.8564574 0.72753745 -0.30939856 4278190080
1.8681941 0.72462523 -0.31096122 4278190080
1.8845439 0.72340864 -0.31330511 4278190080
1.8962911 0.72033298 -0.31486773 4278190080
1.9126623 0.71892273 -0.31721169 4278190080
1.9336756 0.7191273 -0.32033691 4278190080
1.9502038 0.71714896 -0.32268086 4278190080
1.9712595 0.71708977 -0.32580608 4278190080
1.9876909 0.71522123 -0.32815 4278190080
2.0087864 0.71490151 -0.33127522 4278190080
2.0299032 0.71444416 -0.33440048 4278190080
2.0463774 0.71222371 -0.3367444 4278190080
2.0675304 0.7115038 -0.33986965 4278190080
2.0887027 0.71064597 -0.34299487 4278190080
2.1098945 0.70964783 -0.34612012 4278190080
2.131104 0.70851147 -0.34924534 4278190080
2.1570232 0.70877612 -0.35315192 4278190080
2.1829698 0.70886832 -0.35705844 4278190080
2.2042408 0.70728028 -0.36018372 4278190080
2.2302344 0.70704353 -0.36409023 4278190080
2.2515402 0.70515901 -0.36721548 4278190080
2.2728598 0.70313311 -0.3703407 4278190080
2.2989159 0.70240998 -0.37424728 4278190080
2.3249936 0.70151454 -0.3781538 4278190080
2.3464825 0.69862443 -0.38127908 4278190080
2.3725972 0.69739372 -0.3851856 4278190080
2.3987322 0.69598788 -0.38909215 4278190080
2.4248855 0.69440925 -0.3929987 4278190080
2.4558094 0.69399816 -0.39768654 4278190080
2.4296744 0.67746252 -0.3929987 4278190080
2.3225048 0.63885248 -0.37502855 4278190080
2.257993 0.61263657 -0.36409023 4278190080
2.1837857 0.58432716 -0.35158929 4278190080
2.2001376 0.58047986 -0.35393322 4278190080
2.1830325 0.56782317 -0.35080796 4278190080
2.189785 0.56142676 -0.35158929 4278190080
2.1917317 0.55377907 -0.35158929 4278190080
2.1936512 0.54612583 -0.35158929 4278190080
2.1955442 0.53846478 -0.35158929 4278190080
2.1974106 0.53079712 -0.35158929 4278190080
2.1945362 0.52159798 -0.35080796 4278190080
2.1963434 0.51393515 -0.35080796 4278190080
2.2029369 0.50737333 -0.35158929 4278190080
2.209511 0.50077164 -0.35237059 4278190080
2.2160656 0.49413151 -0.35315192 4278190080
2.2274249 0.48850843 -0.35471454 4278190080
2.2339439 0.48177209 -0.35549581 4278190080
2.2404435 0.47499505 -0.35627714 4278190080
2.2420878 0.46717104 -0.35627714 4278190080
2.2630577 0.46330461 -0.35940239 4278190080
2.2162447 0.44566566 -0.35158929 4278190080
2.2468569 0.44366774 -0.35627714 4278190080
2.3114986 0.44763499 -0.36643419 4278190080
2.3857439 0.45381004 -0.3781538 4278190080
2.5135376 0.46903408 -0.39846787 4278190080
2.4859328 0.45535734 -0.39378002 4278190080
2.4828017 0.44493747 -0.3929987 4278190080
2.4794757 0.43541348 -0.3922174 4278190080
2.4761131 0.42591941 -0.39143607 4278190080
2.4775848 0.41727304 -0.39143607 4278190080
2.4790263 0.40862161 -0.39143607 4278190080
2.4755621 0.39918032 -0.39065477 4278190080
2.4720621 0.38976687 -0.38987345 4278190080
2.4734075 0.38113618 -0.38987345 4278190080
2.4747229 0.37249953 -0.38987345 4278190080
2.471122 0.36314031 -0.38909215 4278190080
2.4723744 0.35451308 -0.38909215 4278190080
2.473597 0.34588018 -0.38909215 4278190080
2.4698958 0.33657756 -0.38831082 4278190080
2.4710557 0.32795343 -0.38831082 4278190080
2.4722409 0.31889474 -0.38831082 4278190080
2.473285 0.31069463 -0.38831082 4278190080
2.4694524 0.30146042 -0.38752955 4278190080
2.4704895 0.29283935 -0.38752955 4278190080
2.4715464 0.28378165 -0.38752955 4278190080
2.4725218 0.2751534 -0.38752955 4278190080
2.4734674 0.2665205 -0.38752955 4278190080
2.4743824 0.25788563 -0.38752955 4278190080
2.4703538 0.24875154 -0.38674822 4278190080
2.4712071 0.24012636 -0.38674822 4278190080
2.4720302 0.23149957 -0.38674822 4278190080
2.4728231 0.22286864 -0.38674822 4278190080
2.4735861 0.2142363 -0.38674822 4278190080
2.4743187 0.20560004 -0.38674822 4278190080
2.4750214 0.19696127 -0.38674822 4278190080
2.4756939 0.18832143 -0.38674822 4278190080
2.4763362 0.17967796 -0.38674822 4278190080
2.4769483 0.17103364 -0.38674822 4278190080
2.4726024 0.16206291 -0.38596693 4278190080
2.4731529 0.15343042 -0.38596693 4278190080
2.4736733 0.14479735 -0.38596693 4278190080
2.4692326 0.13588983 -0.3851856 4278190080
2.4696918 0.12727056 -0.3851856 4278190080
2.4701211 0.11864842 -0.3851856 4278190080
2.4705393 0.10959455 -0.3851856 4278190080
2.4708891 0.10140124 -0.3851856 4278190080
2.4662931 0.09258981 -0.3844043 4278190080
2.4666014 0.083981067 -0.3844043 4278190080
2.4668925 0.074939013 -0.3844043 4278190080
2.4622023 0.066195555 -0.38362297 4278190080
2.4624183 0.057599936 -0.38362297 4278190080
2.4626043 0.049004927 -0.38362297 4278190080
2.4627604 0.040408012 -0.38362297 4278190080
2.4628863 0.031810604 -0.38362297 4278190080
2.4629824 0.023214117 -0.38362297 4278190080
2.4630485 0.014616038 -0.38362297 4278190080
2.4630845 0.0060190926 -0.38362297 4278190080
2.4630904 -0.0025793433 -0.38362297 4278190080
2.4630666 -0.011177118 -0.38362297 4278190080
2.4630125 -0.019774757 -0.38362297 4278190080
2.4629285 -0.028372156 -0.38362297 4278190080
2.4628143 -0.036969207 -0.38362297 4278190080
2.4626703 -0.045565806 -0.38362297 4278190080
2.4624963 -0.054161854 -0.38362297 4278190080
2.4622922 -0.062757239 -0.38362297 4278190080
2.4620581 -0.071351856 -0.38362297 4278190080
2.4617941 -0.079945616 -0.38362297 4278190080
2.4614999 -0.088538386 -0.38362297 4278190080
2.461159 -0.097559646 -0.38362297 4278190080
2.4608035 -0.1061501 -0.38362297 4278190080
2.460418 -0.11473926 -0.38362297 4278190080
2.4600024 -0.12332702 -0.38362297 4278190080
2.4595571 -0.13191327 -0.38362297 4278190080
2.4590814 -0.14049794 -0.38362297 4278190080
2.4585762 -0.14908087 -0.38362297 4278190080
2.4580407 -0.157662 -0.38362297 4278190080
2.4574754 -0.1662412 -0.38362297 4278190080
2.4568801 -0.17481838 -0.38362297 4278190080
2.456255 -0.18339342 -0.38362297 4278190080
2.4555998 -0.19196622 -0.38362297 4278190080
2.4549148 -0.20053671 -0.38362297 4278190080
2.4541998 -0.20910473 -0.38362297 4278190080
2.453455 -0.21767023 -0.38362297 4278190080
2.4526801 -0.22623305 -0.38362297 4278190080
2.4518754 -0.23479311 -0.38362297 4278190080
2.4559555 -0.24383828 -0.3844043 4278190080
2.4550893 -0.25240967 -0.3844043 4278190080
2.4541934 -0.26097801 -0.3844043 4278190080
2.4581764 -0.27008247 -0.3851856 4278190080
2.4572186 -0.27866146 -0.3851856 4278190080
2.4562309 -0.28723708 -0.3851856 4278190080
2.4552133 -0.29580918 -0.3851856 4278190080
2.4541659 -0.30437768 -0.3851856 4278190080
2.4530885 -0.31294245 -0.3851856 4278190080
2.4568779 -0.32214546 -0.38596693 4278190080
2.4557383 -0.33071962 -0.38596693 4278190080
2.4545691 -0.33928972 -0.38596693 4278190080
2.4533696 -0.34785569 -0.38596693 4278190080
2.4521406 -0.35641748 -0.38596693 4278190080
2.4508815 -0.36497486 -0.38596693 4278190080
2.4447103 -0.37278333 -0.3851856 4278190080
2.4433942 -0.38131467 -0.3851856 4278190080
2.4886634 -0.39372033 -0.30467334 4278190080
2.4872739 -0.40240496 -0.30467334 4278190080
2.4858541 -0.41108477 -0.30467334 4278190080
2.4892974 -0.42058626 -0.30528268 4278190080
2.4878139 -0.42927295 -0.30528268 4278190080
2.4863005 -0.43795443 -0.30528268 4278190080
2.4847565 -0.44663057 -0.30528268 4278190080
2.4880638 -0.45619631 -0.30589205 4278190080
2.4864562 -0.4648785 -0.30589205 4278190080
2.4896932 -0.47448406 -0.30650139 4278190080
2.4880219 -0.48317182 -0.30650139 4278190080
2.48632 -0.49185368 -0.30650139 4278190080
2.4893656 -0.50194412 -0.30711076 4278190080
2.4876873 -0.51019645 -0.30711076 4278190080
2.4858913 -0.51887697 -0.30711076 4278190080
2.4840651 -0.52755117 -0.30711076 4278190080
2.4870591 -0.53726685 -0.30772007 4278190080
2.4851685 -0.54594505 -0.30772007 4278190080
2.4832478 -0.55461657 -0.30772007 4278190080
2.4812965 -0.56328136 -0.30772007 4278190080
2.4793153 -0.57193923 -0.30772007 4278190080
2.4773037 -0.58059019 -0.30772007 4278190080
2.4800899 -0.59038335 -0.30832943 4278190080
