# .PCD v0.7 - Point Cloud Data file format
VERSION 0.7
FIELDS x y z rgb
SIZE 4 4 4 4
TYPE F F F U
COUNT 1 1 1 1
WIDTH 1154
HEIGHT 1
VIEWPOINT 0 0 0 1 0 0 0
POINTS 1154
DATA ascii
2.6340001 2.2212181 -0.33132797 4294967295
2.6327 2.2152159 -0.32968318 4294967295
2.6578333 0.73870426 1.997081 4294967295
2.6606002 -0.8959567 1.9984249 4294967295
2.648 -0.90236485 1.9967462 4294967295
2.6565557 0.739721 1.9747967 4294967295
2.6556926 -0.8915481 1.9737037 4294967295
2.6500001 -0.90100002 1.9845414 4294967295
2.6552856 0.74034667 1.9482983 4294967295
2.6548572 -0.89120209 1.9458609 4294967295
2.6529996 0.74393046 1.912326 4294967295
2.655143 -0.89658087 1.9165393 4294967295
2.6659999 -0.90025437 1.9036931 4294967295
2.6511428 0.74358726 1.8845528 4294967295
2.6440001 -0.89895999 1.8984094 4294967295
2.6544285 -0.9051404 1.8844846 4294967295
2.655 0.7420342 1.8548635 4294967295
2.6507781 -0.91014272 1.8513744 4294967295
2.655 0.75126153 1.8117176 4294967295
2.6545556 0.74532682 1.825204 4294967295
2.6555836 -0.90596372 1.8233093 4294967295
2.6505835 1.0037054 1.783451 4294967295
2.6504004 0.97442162 1.7849002 4294967295
2.6531253 0.94619012 1.7892709 4294967295
2.6506877 0.91494739 1.7884917 4294967295
2.6440001 0.89232314 1.7818532 4294967295
2.65025 0.79245305 1.7884206 4294967295
2.6545928 0.76586288 1.7944238 4294967295
2.6596668 -0.89605385 1.7903572 4294967295
2.649857 -0.90358454 1.7978249 4294967295
2.6490595 1.8401845 1.7600373 4294967295
2.6504552 1.8174855 1.7622789 4294967295
2.6440003 1.7940992 1.7511806 4294967295
2.6516364 1.0559695 1.7558471 4294967295
2.6564443 1.036222 1.7689437 4294967295
2.6649997 1.004521 1.7795091 4294967295
2.66225 0.97568893 1.7782093 4294967295
2.6621249 0.90693623 1.7673399 4294967295
2.6501336 0.88906908 1.7642779 4294967295
2.6440001 0.81380111 1.7659035 4294967295
2.6475461 0.79662788 1.765682 4294967295
2.6528571 0.76545525 1.7638119 4294967295
2.6547999 -0.89399916 1.765437 4294967295
2.6464002 2.1972852 1.7228246 4294967295
2.6473341 2.1717165 1.7295253 4294967295
2.6472507 2.1417887 1.7311903 4294967295
2.6539233 2.1141429 1.7313898 4294967295
2.6566668 2.0862236 1.7385755 4294967295
2.6548464 2.056371 1.7320535 4294967295
2.6460004 2.0287447 1.7234609 4294967295
2.6470003 1.8913245 1.7218702 4294967295
2.6525002 1.8715051 1.7256737 4294967295
2.6552312 1.8462471 1.738627 4294967295
2.6610005 1.8160819 1.739616 4294967295
2.6483753 1.7916934 1.7355477 4294967295
2.6440003 1.6622069 1.720508 4294967295
2.6464002 1.6360769 1.7215977 4294967295
2.6440003 1.6131306 1.720508 4294967295
2.6440001 1.5088435 1.720508 4294967295
2.6440001 1.4873726 1.720508 4294967295
2.6440001 1.4444309 1.720508 4294967295
2.6440001 1.4260274 1.720508 4294967295
2.6440001 1.4045565 1.720508 4294967295
2.6470001 1.3324453 1.7218702 4294967295
2.6474285 1.3059072 1.7238175 4294967295
2.6440001 1.2849331 1.720508 4294967295
2.6504998 1.2388855 1.7249898 4294967295
2.6526842 1.2162609 1.7280009 4294967295
2.6474168 1.1872951 1.7281984 4294967295
2.6440001 1.168377 1.720508 4294967295
2.6440001 1.0845383 1.7225529 4294967295
2.6550741 1.0644134 1.7344278 4294967295
2.6659999 0.9399541 1.7274041 4294967295
2.6577694 0.912628 1.7343577 4294967295
2.6476152 0.88645756 1.737275 4294967295
2.6440001 0.81502801 1.7254156 4294967295
2.6460004 0.79722512 1.7304134 4294967295
2.6530001 0.76559067 1.7344277 4294967295
2.6550717 -0.89610773 1.7347673 4294967295
2.6508007 2.2267537 1.6989813 4294967295
2.6550004 2.2071848 1.7113229 4294967295
2.6578751 2.17466 1.7133067 4294967295
2.6590002 2.1451209 1.7128092 4294967295
2.6620002 2.1243813 1.7178682 4294967295
2.6623335 2.0453832 1.7164694 4294967295
2.6556158 2.0242615 1.7091774 4294967295
2.6515002 1.9968153 1.6992909 4294967295
2.6470003 1.9660472 1.69423 4294967295
2.6517007 1.9309633 1.697844 4294967295
2.6548889 1.9072157 1.7110718 4294967295
2.6586668 1.886296 1.7189368 4294967295
2.6660001 1.8028418 1.7181258 4294967295
2.6560006 1.7818507 1.707451 4294967295
2.6555007 1.7556717 1.6972131 4294967295
2.6572504 1.7240832 1.6956861 4294967295
2.6554785 1.694189 1.70079 4294967295
2.6554799 1.6663358 1.7086979 4294967295
2.6574001 1.6346571 1.7126039 4294967295
2.6549504 1.6044035 1.7088325 4294967295
2.6536198 1.5748621 1.7078528 4294967295
2.6538754 1.5452524 1.7126672 4294967295
2.6537004 1.5143704 1.7156725 4294967295
2.654222 1.4855961 1.7162486 4294967295
2.6538181 1.4542656 1.7154461 4294967295
2.6561666 1.4223083 1.7147223 4294967295
2.6556427 1.3931309 1.7139016 4294967295
2.6560836 1.3657774 1.7141713 4294967295
2.6596665 1.3357317 1.7183586 4294967295
2.6568997 1.3016815 1.7152643 4294967295
2.6540561 1.274421 1.7096627 4294967295
2.6571426 1.2481519 1.715021 4294967295
2.6659999 1.2059338 1.7181258 4294967295
2.6556153 1.1825172 1.7134521 4294967295
2.6515834 1.1578897 1.6977926 4294967295
2.65325 1.1185839 1.6931498 4294967295
2.6526191 1.0927566 1.7033046 4294967295
2.6570554 1.0686467 1.7110133 4294967295
2.656857 0.93982118 1.704772 4294967295
2.648375 0.92068732 1.7094378 4294967295
2.6482501 0.84306234 1.6963166 4294967295
2.655231 0.82596284 1.7049769 4294967295
2.6576669 0.79621297 1.7147855 4294967295
2.655 0.7789945 1.7193424 4294967295
2.6542501 -0.89576036 1.7071954 4294967295
2.6525221 2.229321 1.6770025 4294967295
2.6635001 2.2182832 1.6613843 4294967295
2.6606255 1.9882615 1.6832933 4294967295
2.6544507 1.9625435 1.6796603 4294967295
2.6565835 1.9407991 1.6835846 4294967295
2.659143 1.1495095 1.6859506 4294967295
2.6586251 1.1285743 1.6870492 4294967295
2.65925 0.9375757 1.68269 4294967295
2.6526926 0.91608095 1.6766219 4294967295
2.6541109 0.88478583 1.6724097 4294967295
2.6548951 0.85546649 1.6810254 4294967295
2.6659999 0.83789212 1.6871979 4294967295
2.6514447 -0.89191705 1.6760414 4294967295
2.6486003 2.2236884 1.6549965 4294967295
2.6555266 2.2095203 1.6427287 4294967295
2.6516364 -0.89260054 1.6456592 4294967295
2.6521671 2.1992536 1.6175532 4294967295
2.6580002 2.1874845 1.603518 4294967295
2.6440001 0.60400015 1.6039518 4294967295
2.6500001 0.5930739 1.6125602 4294967295
2.6552501 0.53725964 1.6116481 4294967295
2.653625 -0.89683604 1.6125017 4294967295
2.6500001 -0.90100002 1.6033375 4294967295
2.6530004 2.1761439 1.5849105 4294967295
2.6537499 0.54465592 1.5863945 4294967295
2.6577501 -0.89592212 1.5910896 4294967295
2.654 -0.90440351 1.57999 4294967295
2.6493335 2.260783 1.550133 4294967295
2.6440003 2.2388527 1.5487411 4294967295
2.6531112 2.1723433 1.5533073 4294967295
2.6500001 0.5438863 1.5664468 4294967295
2.655 0.53875238 1.559181 4294967295
2.6531429 -0.91920465 1.5571334 4294967295
2.6470003 2.2567434 1.5360917 4294967295
2.6450005 2.2376559 1.5337893 4294967295
2.6508336 2.2036114 1.523095 4294967295
2.658417 2.1857724 1.5322412 4294967295
2.6546364 -0.91711622 1.525993 4294967295
2.6485002 2.2226894 1.4936537 4294967295
2.6517506 2.2060709 1.4966058 4294967295
2.6621335 2.1868739 1.4927933 4294967295
2.661 -0.89856601 1.4905288 4294967295
2.6524999 -0.904149 1.4989665 4294967295
2.6481767 2.2010005 1.4690493 4294967295
2.6583159 2.1839244 1.4643919 4294967295
2.6511426 -0.89786649 1.4697919 4294967295
2.6553333 -0.90075147 1.4566269 4294967295
2.6549416 2.1787145 1.435226 4294967295
2.6522222 -0.90448672 1.4336481 4294967295
2.6561182 2.1800418 1.4026475 4294967295
2.6565001 0.52672625 1.4041328 4294967295
2.658 -0.89755297 1.3969328 4294967295
2.6518748 -0.90394145 1.4064515 4294967295
2.6460004 2.1934755 1.369436 4294967295
2.6539414 2.1836872 1.3736711 4294967295
2.655 0.64347333 1.3866996 4294967295
2.6532001 0.51499337 1.3738053 4294967295
2.6547999 -0.89461511 1.3743107 4294967295
2.6440003 2.1928439 1.3585706 4294967295
2.6537831 2.1741605 1.3450661 4294967295
2.6513333 0.51134038 1.3527 4294967295
2.6565001 0.50823915 1.3409679 4294967295
2.6544287 -0.89457387 1.3451469 4294967295
2.6500001 -0.90100002 1.338954 4294967295
2.6534667 2.1674376 1.3155949 4294967295
2.6570001 2.1584146 1.3236521 4294967295
2.6516666 0.50525641 1.3179274 4294967295
2.6659999 -0.86932653 1.3036923 4294967295
2.6549544 -0.88642645 1.3122065 4294967295
2.6500001 -0.90100002 1.3235829 4294967295
2.6440003 2.2603238 1.2726872 4294967295
2.6535718 2.1954818 1.276283 4294967295
2.6538339 2.1820064 1.2898462 4294967295
2.6634998 -0.86851132 1.287508 4294967295
2.6511824 -0.88377285 1.2853563 4294967295
2.6528263 2.2065692 1.2561932 4294967295
2.6524003 -0.88358152 1.2563668 4294967295
2.6525886 2.2108109 1.225531 4294967295
2.653125 -0.88896924 1.2264169 4294967295
2.6539049 2.20573 1.19487 4294967295
2.6551666 -0.89555871 1.2019454 4294967295
2.6537499 -0.90226227 1.1861889 4294967295
2.6547 2.1998537 1.1660894 4294967295
2.6531539 -0.90963811 1.1644881 4294967295
2.6531878 2.2096837 1.1337203 4294967295
2.6538002 -0.91336143 1.1354949 4294967295
2.6525004 2.2214305 1.0935535 4294967295
2.6559377 2.2146692 1.1046968 4294967295
2.661 -0.89856601 1.0923074 4294967295
2.6538892 -0.90504611 1.107193 4294967295
2.6516473 2.2255936 1.0750886 4294967295
2.6610003 2.219291 1.0830464 4294967295
2.661 -0.89856601 1.0861335 4294967295
2.6543846 -0.90532523 1.0728749 4294967295
2.6536005 2.2254241 1.0463849 4294967295
2.6635001 2.2182832 1.0341344 4294967295
2.6541002 -0.92455775 1.0464749 4294967295
2.6500001 -0.93174231 1.0346055 4294967295
2.6531112 2.2089338 1.0157145 4294967295
2.6608 -0.9281289 1.0132442 4294967295
2.6490002 -0.93369114 1.0136712 4294967295
2.655 2.2019582 0.98629618 4294967295
2.653667 -0.92104411 0.98401326 4294967295
2.648 -0.93308389 0.99530494 4294967295
2.6549335 2.2019019 0.95548582 4294967295
2.6539998 0.50160307 0.95533645 4294967295
2.658 -0.89755297 0.94674087 4294967295
2.6517692 -0.90774322 0.9582839 4294967295
2.6543503 2.2047949 0.9233675 4294967295
2.6530001 0.50141406 0.92438376 4294967295
2.6539998 -0.89524156 0.92454767 4294967295
2.6500001 -0.90100002 0.93623036 4294967295
2.6519001 2.1987658 0.90084505 4294967295
2.6544285 2.1865225 0.88589412 4294967295
2.652 0.50122511 0.89347982 4294967295
2.6518998 -0.89241177 0.8934657 4294967295
2.6530001 2.1794639 0.86141205 4294967295
2.6542857 0.49900615 0.86741042 4294967295
2.6542001 -0.89318699 0.86298513 4294967295
2.6543849 2.1985965 0.83269644 4294967295
2.655 2.1896467 0.84461486 4294967295
2.6517999 0.50118732 0.83804548 4294967295
2.6560001 -0.89687198 0.8367995 4294967295
2.6500001 -0.90100002 0.83478093 4294967295
2.6500001 2.2224138 0.79481596 4294967295
2.6526318 2.2077644 0.80544448 4294967295
2.6659999 0.51005661 0.80266076 4294967295
2.6496665 0.50693178 0.81321591 4294967295
2.6543334 -0.90246487 0.80861366 4294967295
2.6524546 2.2278118 0.77492261 4294967295
2.6608 2.2166524 0.78482091 4294967295
2.6569998 0.51449943 0.77087075 4294967295
2.655 -0.90886003 0.78917444 4294967295
2.6539094 2.2290306 0.74708539 4294967295
2.6605 2.215781 0.7341767 4294967295
2.661 0.52144802 0.75273889 4294967295
2.6554999 -0.93676311 0.73992264 4294967295
2.6500001 2.2224138 0.72718298 4294967295
2.6535218 2.2031331 0.71514833 4294967295
2.6553333 -0.95004201 0.71118009 4294967295
2.6502781 2.194953 0.68313372 4294967295
2.655 2.1896467 0.68445349 4294967295
2.648 0.537332 0.67787147 4294967295
2.6558182 -0.95450497 0.6833806 4294967295
2.6489999 2.1918669 0.65539604 4294967295
2.6582856 2.18662 0.65293878 4294967295
2.658 0.53833026 0.65173161 4294967295
2.6617999 -0.92476916 0.64411581 4294967295
2.6537895 -0.94343305 0.65489733 4294967295
2.6512499 2.1926942 0.61963058 4294967295
2.6565001 2.1885703 0.62522286 4294967295
2.6659999 0.54098451 0.62018633 4294967295
2.6626666 0.53824627 0.63344765 4294967295
2.6564798 -0.91895956 0.62094355 4294967295
2.6485 -0.93428564 0.63182038 4294967295
2.6512668 2.1984468 0.5927695 4294967295
2.655 2.1896467 0.60129279 4294967295
2.655 0.54181963 0.60128003 4294967295
2.6568329 0.53192067 0.58799577 4294967295
2.6546319 -0.91422719 0.59561187 4294967295
2.6495562 2.2017579 0.56800693 4294967295
2.6586425 2.1842685 0.5626291 4294967295
2.6569998 0.51448709 0.5797776 4294967295
2.6552 0.49565595 0.5711121 4294967295
2.6561668 0.46708053 0.56230152 4294967295
2.6608 0.43498987 0.5613426 4294967295
2.655 0.40323123 0.56125247 4294967295
2.6561999 0.37260488 0.56127113 4294967295
2.6573749 0.34192994 0.56438071 4294967295
2.6527998 0.31671765 0.56614631 4294967295
2.6529999 0.28597698 0.56737679 4294967295
2.6574001 0.25561249 0.56745535 4294967295
2.6598001 0.22500135 0.56749821 4294967295
2.6546667 0.19239905 0.57015312 4294967295
2.655143 0.16035563 0.57182074 4294967295
2.6561999 0.13223381 0.56743395 4294967295
2.6525002 0.1043825 0.56276 4294967295
2.6500001 0.076603919 0.56117475 4294967295
2.658 0.047015954 0.56541896 4294967295
2.6559999 0.012511285 0.56567568 4294967295
2.6560001 -0.017719708 0.56024557 4294967295
2.6542001 -0.046459492 0.55508184 4294967295
2.6659999 -0.065201789 0.55523777 4294967295
2.66225 -0.10525542 0.55518824 4294967295
2.655 -0.13269335 0.55509239 4294967295
2.6500001 -0.16318573 0.55502629 4294967295
2.6597142 -0.19200979 0.55957299 4294967295
2.6586001 -0.22539102 0.56130838 4294967295
2.6617999 -0.25656232 0.56135809 4294967295
2.6476002 -0.28590393 0.55499458 4294967295
2.6476002 -0.31660166 0.55499458 4294967295
2.6586668 -0.34364709 0.5592646 4294967295
2.6584284 -0.37605506 0.559551 4294967295
2.6545715 -0.40190321 0.55685407 4294967295
2.6552861 -0.43547168 0.55774552 4294967295
2.6552856 -0.4662703 0.56390452 4294967295
2.6498001 -0.49515456 0.56731963 4294967295
2.6537502 -0.52204949 0.56970978 4294967295
2.6525002 -0.55414051 0.56736785 4294967295
2.6532001 -0.58196753 0.56246161 4294967295
2.655 -0.61317748 0.56125247 4294967295
2.6527777 -0.64480972 0.55848992 4294967295
2.6535997 -0.6744172 0.55816203 4294967295
2.6541665 -0.70330739 0.56021708 4294967295
2.655 -0.73637849 0.56125247 4294967295
2.6565001 -0.76453573 0.56127578 4294967295
2.6553333 -0.7939651 0.55784339 4294967295
2.6546249 -0.82865739 0.55740559 4294967295
2.6569998 -0.85611588 0.56231445 4294967295
2.654 -0.88661456 0.56808323 4294967295
2.6544285 -0.9068898 0.57708502 4294967295
2.6470008 2.203439 0.53590143 4294967295
2.6566398 2.1781683 0.53809935 4294967295
2.6440001 -0.08000008 0.54881251 4294967295
2.6466665 2.2230263 0.5044902 4294967295
2.6532419 2.2051599 0.5066672 4294967295
2.6606667 2.1881385 0.5181281 4294967295
2.6500001 2.2224138 0.48739335 4294967295
2.6536553 2.2095315 0.47461143 4294967295
2.6470001 2.222965 0.43215683 4294967295
2.6531379 2.2091031 0.44468808 4294967295
2.6490667 2.225312 0.4111886 4294967295
2.6584074 2.2072868 0.41441292 4294967295
2.6491177 2.2252812 0.38472572 4294967295
2.6606665 2.210176 0.3840881 4294967295
2.6464002 2.2236886 0.35235822 4294967295
2.6577272 2.2098172 0.3580924 4294967295
2.6482143 2.2257373 0.32502759 4294967295
2.6574442 2.2132304 0.32836139 4294967295
2.6500001 2.2254782 0.29679012 4294967295
2.6599333 2.2118099 0.29430854 4294967295
2.6512728 2.2564621 0.25753549 4294967295
2.6544073 2.234082 0.26652834 4294967295
2.6604779 2.207305 0.26369998 4294967295
2.6523793 2.2587676 0.2352649 4294967295
2.6618092 2.2361326 0.23374191 4294967295
2.6612914 2.2056384 0.235118 4294967295
2.6613333 2.1787403 0.23134819 4294967295
2.6537781 2.2609065 0.20525253 4294967295
2.6643331 2.2447357 0.21315998 4294967295
2.6659999 2.192533 0.21503121 4294967295
2.6660001 2.1770692 0.21296936 4294967295
2.653389 2.2604697 0.17372167 4294967295
2.6525002 2.2337224 0.14580154 4294967295
2.6496668 2.2159781 0.13083211 4294967295
2.6537371 2.2080333 0.1140385 4294967295
2.6512501 2.1934688 0.089855015 4294967295
2.6560833 2.1859059 0.08162421 4294967295
2.6474288 2.192174 0.053065151 4294967295
2.6559999 2.1847413 0.056828916 4294967295
2.6470001 2.222965 0.014535367 4294967295
2.6540501 2.2067032 0.025502294 4294967295
2.6523335 2.2630415 -0.0087606907 4294967295
2.6527405 2.2335968 -0.0043491721 4294967295
2.6575 2.2145171 -0.003505528 4294967295
2.6505384 2.2606988 -0.027293682 4294967295
2.6537402 2.2319217 -0.036005855 4294967295
2.661375 2.2149675 -0.029890299 4294967295
2.6534998 2.2237957 -0.064431846 4294967295
2.661 2.219291 -0.074573636 4294967295
2.6541877 2.2166712 -0.09613812 4294967295
2.6535001 2.2253308 -0.1275298 4294967295
2.655 2.2142868 -0.11019331 4294967295
2.6526999 2.2268138 -0.15518379 4294967295
2.661 2.219291 -0.16718328 4294967295
2.6476157 2.2237163 -0.18403709 4294967295
2.6568823 2.2133069 -0.1864199 4294967295
2.6470001 2.2239876 -0.2075808 4294967295
2.6520913 2.2101688 -0.21494138 4294967295
2.6505005 2.2043762 -0.2422238 4294967295
2.6541431 2.2000635 -0.27625293 4294967295
2.655 2.1865666 -0.28883487 4294967295
2.6490004 2.2003644 -0.30667681 4294967295
2.657074 2.177649 -0.30635846 4294967295
2.6503339 2.2045295 -0.3342663 4294967295
2.6586246 2.177974 -0.33466107 4294967295
2.655 2.1988866 -0.35043538 4294967295
2.6659999 2.1739762 -0.3540417 4294967295
2.6989999 0.74180722 2.0241458 4294967295
2.6989999 -0.89887351 2.027277 4294967295
2.69625 0.74105144 2.0038493 4294967295
2.684375 -0.89087361 2.0035257 4294967295
2.6967998 0.74120259 1.975987 4294967295
2.6823747 -0.88399172 1.9744132 4294967295
2.6766 0.74186093 1.9402301 4294967295
2.6822855 -0.89063978 1.9468004 4294967295
2.6819999 0.7433576 1.9151087 4294967295
2.6764998 -0.8975901 1.9246613 4294967295
2.6879997 -0.90351713 1.9151199 4294967295
2.6823332 0.74136263 1.8820432 4294967295
2.6892498 -0.90965658 1.8853161 4294967295
2.6758571 0.74076045 1.8555851 4294967295
2.6805997 -0.90703607 1.8534083 4294967295
2.6843748 0.74634475 1.8236854 4294967295
2.6865001 -0.89781904 1.8208324 4294967295
2.6786668 -0.90245283 1.8315432 4294967295
2.6764998 0.96227956 1.7818327 4294967295
2.6770771 0.94313955 1.7842535 4294967295
2.6730001 0.92485189 1.7853556 4294967295
2.6873636 0.75390106 1.7974178 4294967295
2.6828887 -0.89280063 1.7969335 4294967295
2.671 1.0501676 1.7513587 4294967295
2.686435 1.0361704 1.7638718 4294967295
2.6850004 1.0058196 1.7710223 4294967295
2.6878698 0.9740724 1.7710285 4294967295
2.6889522 0.94374746 1.767357 4294967295
2.6752856 0.91973251 1.7657489 4294967295
2.6842222 0.75295877 1.7643509 4294967295
2.6868179 -0.89197236 1.76543 4294967295
2.6864376 2.1115334 1.725729 4294967295
2.6818576 2.0886655 1.7292289 4294967295
2.6710002 2.0634058 1.7234715 4294967295
2.6990001 1.9003032 1.720432 4294967295
2.6860003 1.8745021 1.7254372 4294967295
2.6845002 1.8450874 1.7288365 4294967295
2.6742859 1.8208547 1.7280487 4294967295
2.6989999 1.355497 1.720432 4294967295
2.6989999 1.3492348 1.720432 4294967295
2.6935 1.2402587 1.7211041 4294967295
2.6799998 1.2240596 1.7206655 4294967295
2.6766665 1.0513519 1.7311609 4294967295
2.6874545 1.0452874 1.735696 4294967295
2.6924543 0.97513187 1.7317144 4294967295
2.6775715 0.94803309 1.7357507 4294967295
2.677 0.92830467 1.7479138 4294967295
2.6809232 0.76459002 1.7286361 4294967295
2.6914442 -0.89287829 1.7337092 4294967295
2.6795001 2.2238159 1.695421 4294967295
2.6853335 2.2074847 1.702327 4294967295
2.6844449 2.1761973 1.6994013 4294967295
2.6825502 2.1445026 1.7034521 4294967295
2.6823001 2.1243923 1.7136136 4294967295
2.689667 2.0746927 1.7162677 4294967295
2.6845837 2.0531132 1.707762 4294967295
2.6766667 2.0274181 1.6970388 4294967295
2.6843753 1.928928 1.6975652 4294967295
2.6817503 1.907335 1.7132686 4294967295
2.6820002 1.8883339 1.7190937 4294967295
2.6990001 1.8314197 1.7141699 4294967295
2.6874666 1.8123623 1.7052947 4294967295
2.6815388 1.7846131 1.6944636 4294967295
2.6854446 1.7557553 1.6929333 4294967295
2.6811254 1.7259805 1.6914811 4294967295
2.6815717 1.6862632 1.6922277 4294967295
2.683048 1.6640581 1.69849 4294967295
2.6791666 1.6352727 1.6991645 4294967295
2.6799288 1.6048276 1.6950556 4294967295
2.6834738 1.5767301 1.7004042 4294967295
2.6834285 1.5451031 1.7112726 4294967295
2.6798887 1.5158381 1.7153779 4294967295
2.6794999 1.4855824 1.7148604 4294967295
2.6807272 1.4531672 1.7145524 4294967295
2.6847775 1.4251708 1.7120175 4294967295
2.6834543 1.3923864 1.7101139 4294967295
2.6823332 1.3637195 1.7143923 4294967295
2.6831429 1.3341893 1.7169317 4294967295
2.6841331 1.3065013 1.7071548 4294967295
2.6826427 1.2756931 1.7024691 4294967295
2.6827998 1.2502538 1.71384 4294967295
2.6846001 1.2087355 1.7152667 4294967295
2.6821663 1.1867939 1.7025515 4294967295
2.688 1.1171303 1.6926634 4294967295
2.6813636 1.0960733 1.696745 4294967295
2.6818569 1.0659879 1.7074596 4294967295
2.6819999 1.0482697 1.7190937 4294967295
2.6888998 0.9723658 1.7065724 4294967295
2.6722 0.95763999 1.7023067 4294967295
2.6800833 0.81794906 1.6949047 4294967295
2.6815455 0.7961005 1.7041646 4294967295
2.6795001 0.77685469 1.717976 4294967295
2.6864998 -0.89158273 1.7055032 4294967295
2.6777999 2.2258344 1.6817973 4294967295
2.6905241 2.2096975 1.6750522 4294967295
2.6872222 2.0208588 1.6819162 4294967295
2.6832352 1.9950063 1.6690774 4294967295
2.6817226 1.9658883 1.6705666 4294967295
2.6773751 1.9417537 1.6836321 4294967295
2.6947503 1.7175505 1.6888361 4294967295
2.6882999 1.6968766 1.6888322 4294967295
2.6989999 1.6623418 1.680582 4294967295
2.6919549 1.6344362 1.6761185 4294967295
2.6930001 1.610093 1.6836281 4294967295
2.6933334 1.1755918 1.6866535 4294967295
2.6828179 1.1555345 1.6821001 4294967295
2.6807141 1.1303982 1.68652 4294967295
2.6935 0.96840435 1.686739 4294967295
2.6799998 0.94675362 1.6790178 4294967295
2.6892498 0.91616821 1.6755275 4294967295
2.6873999 0.88513482 1.6747303 4294967295
2.6831815 0.85120392 1.6782951 4294967295
2.6882308 0.82901388 1.6863582 4294967295
2.6989999 0.80442864 1.6891214 4294967295
2.6775715 -0.89084238 1.6771713 4294967295
2.6822002 2.2054195 1.6478165 4294967295
2.6880002 1.9923444 1.65941 4294967295
2.6990001 1.6560798 1.6546795 4294967295
2.6928129 1.6343178 1.6512866 4294967295
2.6894283 -0.89657116 1.6439518 4294967295
2.684778 2.1982579 1.6185691 4294967295
2.6795003 2.1880906 1.6029605 4294967295
2.6795001 0.543724 1.6029534 4294967295
2.6823332 0.53807545 1.6196587 4294967295
2.6822498 -0.89639384 1.6165017 4294967295
2.6885002 2.1835747 1.5841244 4294967295
2.6920002 0.54626042 1.589283 4294967295
2.6803334 -0.89679676 1.5918977 4294967295
2.6898329 -0.91037709 1.5780079 4294967295
2.6990001 2.1946239 1.5450921 4294967295
2.6810002 2.1807556 1.5545815 4294967295
2.6815 -0.91869801 1.5539756 4294967295
2.6850002 2.1925359 1.5273317 4294967295
2.6818464 2.1859219 1.5232418 4294967295
2.6845715 -0.91095591 1.5280309 4294967295
2.6815298 2.1829565 1.496356 4294967295
2.6790001 -0.8984285 1.4939929 4294967295
2.671 -0.90194285 1.5096691 4294967295
2.6831112 2.1844647 1.4657344 4294967295
2.6795001 -0.89859623 1.4724057 4294967295
2.68925 -0.90341526 1.460269 4294967295
2.6825001 2.1843131 1.4361254 4294967295
2.6989999 0.53515661 1.4261115 4294967295
2.678 -0.90430665 1.4376971 4294967295
2.6990004 2.1946239 1.4052377 4294967295
2.679625 2.1843023 1.4048407 4294967295
2.6879997 0.52362055 1.4068398 4294967295
2.6833999 -0.89740437 1.4009542 4294967295
2.6823332 -0.90368247 1.416363 4294967295
2.6990001 2.1946239 1.3854076 4294967295
2.678091 2.1832559 1.3744578 4294967295
2.6795001 0.6494112 1.3667243 4294967295
2.6787999 0.51125312 1.3745549 4294967295
2.6842222 -0.89117736 1.3734014 4294967295
2.6833999 2.1725819 1.3480203 4294967295
2.6837499 0.50722581 1.3431685 4294967295
2.6836662 -0.88440377 1.3441572 4294967295
2.6990001 2.1946239 1.3071308 4294967295
2.6818335 2.1739039 1.3156116 4294967295
2.6710002 2.159462 1.3299508 4294967295
2.671 0.50481606 1.3237537 4294967295
2.6877999 -0.86769408 1.3088505 4294967295
2.6766665 -0.87486386 1.3223515 4294967295
2.6838572 2.2000954 1.2840319 4294967295
2.6770003 2.1891575 1.2945037 4294967295
2.6855714 -0.86679721 1.2889711 4294967295
2.6795001 -0.8706103 1.273458 4294967295
2.6823335 2.2121763 1.2555854 4294967295
2.682333 -0.8753382 1.2552309 4294967295
2.6990001 2.2259345 1.2319851 4294967295
2.6813335 2.2149775 1.2242045 4294967295
2.6837499 -0.88600564 1.2271731 4294967295
2.6842861 2.206213 1.1951697 4294967295
2.6835001 -0.89681643 1.2029915 4294967295
2.6823332 -0.90368247 1.1881773 4294967295
2.6821818 2.2063975 1.1641762 4294967295
2.6847141 -0.90923381 1.1650391 4294967295
2.6990001 2.2259345 1.134922 4294967295
2.6787503 2.2162189 1.134196 4294967295
2.6847141 -0.90923381 1.1356694 4294967295
2.6962502 2.2252257 1.1077228 4294967295
2.6752503 2.2156529 1.1054544 4294967295
2.6819999 -0.89943457 1.0968239 4294967295
2.68225 -0.90261704 1.1124392 4294967295
2.682286 2.2308049 1.0764278 4294967295
2.6819999 -0.89943457 1.0843785 4294967295
2.688 -0.90767485 1.0700496 4294967295
2.6828182 2.2312419 1.0471892 4294967295
2.6788747 -0.9240216 1.0464249 4294967295
2.6989999 -0.93018425 1.0378587 4294967295
2.6990001 2.2259345 1.0253345 4294967295
2.6823332 2.2128663 1.0152915 4294967295
2.6849999 0.51992136 1.0258316 4294967295
2.6822498 -0.92335689 1.0144107 4294967295
2.6818998 2.2087135 0.98479533 4294967295
2.6989999 0.50384587 0.9783684 4294967295
2.6828749 -0.91138524 0.98495924 4294967295
2.6794999 2.206737 0.95328939 4294967295
2.6802001 0.50033635 0.95342338 4294967295
2.6821668 -0.89637262 0.95062178 4294967295
2.6823332 -0.90368247 0.96413708 4294967295
2.686111 2.2118344 0.92458862 4294967295
2.6800001 0.50029904 0.92228591 4294967295
2.6892221 -0.89213824 0.92505276 4294967295
2.6830001 2.2018287 0.8978321 4294967295
2.6754999 0.499459 0.89368367 4294967295
2.6851997 -0.89115161 0.89502209 4294967295
2.688 2.1919162 0.86735952 4294967295
2.674 2.1867042 0.86555034 4294967295
2.671 0.49861893 0.85586691 4294967295
2.6852498 -0.89194602 0.86700416 4294967295
2.6827998 2.2050955 0.83680439 4294967295
2.6786668 0.50212049 0.83715284 4294967295
2.6822855 -0.89685595 0.83639324 4294967295
2.6989999 2.2259345 0.79363531 4294967295
2.6797774 2.2135289 0.80549717 4294967295
2.6823332 0.51109415 0.80236083 4294967295
2.6843331 -0.90642822 0.80877936 4294967295
2.6845829 2.2285645 0.77243984 4294967295
2.6819999 2.218137 0.78568912 4294967295
2.6953335 0.51775604 0.77657306 4294967295
2.6837499 2.2283804 0.74901831 4294967295
2.6846001 2.2152798 0.73486948 4294967295
2.6989999 0.53202552 0.7435382 4294967295
2.6808181 2.2047043 0.71771467 4294967295
2.6989999 0.54141873 0.71848965 4294967295
2.671 0.53580195 0.72262764 4294967295
2.6803334 -0.95484519 0.71088487 4294967295
2.6841109 2.2011859 0.68623912 4294967295
2.6989999 0.54141873 0.68717891 4294967295
2.6795001 0.537507 0.67664862 4294967295
2.6872499 -0.9534049 0.68411559 4294967295
2.687 2.1942058 0.65733409 4294967295
2.677 2.1891575 0.6516552 4294967295
2.6810715 0.53024954 0.65318298 4294967295
2.6989996 0.2524657 0.64513314 4294967295
2.6989999 0.23457387 0.64334393 4294967295
2.6989999 -0.89887351 0.64647502 4294967295
2.6837997 -0.91288972 0.64971375 4294967295
2.6833332 -0.9351449 0.66234708 4294967295
2.683923 2.1971996 0.62444621 4294967295
2.671 0.54199916 0.6110785 4294967295
2.6849413 0.52978599 0.62437528 4294967295
2.6989999 0.27715641 0.6333245 4294967295
2.6974282 0.25231999 0.63119876 4294967295
2.6989996 0.23144279 0.63081968 4294967295
2.6882997 -0.89842135 0.62413538 4294967295
2.6739998 -0.90605444 0.62746227 4294967295
2.68225 2.1996555 0.59122789 4294967295
2.671 0.54199916 0.60488129 4294967295
2.6853075 0.52571172 0.59622627 4294967295
2.6824999 0.50387126 0.58035135 4294967295
2.6989996 0.34103027 0.5878793 4294967295
2.6989996 0.32110521 0.58755398 4294967295
2.6989999 0.21578746 0.58072251 4294967295
2.6913633 0.19360566 0.58510268 4294967295
2.6877999 0.16624476 0.58422017 4294967295
2.6989999 0.14377283 0.58072251 4294967295
2.6901999 0.015358961 0.58052456 4294967295
2.6989999 -0.0033874605 0.58072251 4294967295
2.6989999 -0.36972266 0.58072251 4294967295
2.6953335 -0.49741137 0.58064002 4294967295
2.6989999 -0.52314508 0.58072251 4294967295
2.6878331 -0.89514047 0.58931559 4294967295
2.6768 -0.90265405 0.59762621 4294967295
2.671 2.190448 0.57389539 4294967295
2.6795001 2.181864 0.56474239 4294967295
2.6859999 0.48893815 0.57419807 4294967295
2.68925 0.46768439 0.56802416 4294967295
2.6990001 0.43078762 0.56819826 4294967295
2.688 0.40512487 0.56800181 4294967295
2.6851666 0.37458801 0.56899494 4294967295
2.6849997 0.34756982 0.57314503 4294967295
2.678 0.31352547 0.57403666 4294967295
2.6822 0.28288886 0.57412142 4294967295
2.6967998 0.25314355 0.57441598 4294967295
2.6852498 0.22404306 0.57418293 4294967295
2.671 0.20735165 0.57389539 4294967295
2.681 0.13657564 0.57409722 4294967295
2.6730001 0.1020714 0.56773394 4294967295
2.6798 0.077475555 0.56785542 4294967295
2.6877999 0.04651073 0.57299495 4294967295
2.678 0.015274508 0.57403666 4294967295
2.6857498 -0.013509976 0.57030183 4294967295
2.6872499 -0.04467639 0.56410187 4294967295
2.678 -0.074791037 0.55696195 4294967295
2.6888332 -0.10528781 0.56178898 4294967295
2.6899996 -0.13444029 0.56492734 4294967295
2.6745999 -0.16469222 0.56155699 4294967295
2.6989999 -0.23508665 0.56819826 4294967295
2.6989999 -0.24447988 0.56819826 4294967295
2.674 -0.28565124 0.5615477 4294967295
2.678 -0.31402731 0.5616098 4294967295
2.6896665 -0.34765041 0.5680424 4294967295
2.6904998 -0.37479085 0.57117754 4294967295
2.685333 -0.40486661 0.56728005 4294967295
2.6877999 -0.4336811 0.56551939 4294967295
2.6869998 -0.46381387 0.57155305 4294967295
2.6743999 -0.49354365 0.573964 4294967295
2.671 -0.53321081 0.57389539 4294967295
2.681 -0.55387926 0.57409722 4294967295
2.6836247 -0.58630115 0.5710516 4294967295
2.6878886 -0.61591858 0.57147878 4294967295
2.6867776 -0.64406008 0.57076317 4294967295
2.6864998 -0.67498082 0.57032335 4294967295
2.6861997 -0.70450205 0.57110077 4294967295
2.6857998 -0.7355662 0.57108849 4294967295
2.6851666 -0.76237875 0.57003862 4294967295
2.6801665 -0.79620481 0.56682909 4294967295
2.6814284 -0.82369524 0.56611383 4294967295
2.6838572 -0.85735393 0.56971705 4294967295
2.6800001 -0.88009161 0.57407701 4294967295
2.6814165 2.1761656 0.53625995 4294967295
2.684083 2.2021918 0.50306571 4294967295
2.6764998 2.1856372 0.51811695 4294967295
2.6824999 2.2092083 0.47454575 4294967295
2.6823072 2.2068875 0.44199896 4294967295
2.6846473 2.2012515 0.41186476 4294967295
2.6790001 2.1962574 0.38650092 4294967295
2.688818 2.1868997 0.38312626 4294967295
2.6801004 2.2019284 0.3548792 4294967295
2.6871428 2.1876314 0.36580554 4294967295
2.681294 2.2113137 0.32525924 4294967295
2.6828499 2.2091663 0.29340142 4294967295
2.6797776 2.1986635 0.26457635 4294967295
2.671 2.2276311 0.22065639 4294967295
2.6795001 2.2035763 0.23529533 4294967295
2.679769 2.1756315 0.23402745 4294967295
2.6756001 2.2550514 0.19779116 4294967295
2.6815236 2.2369883 0.20316949 4294967295
2.6789336 2.2064803 0.20359355 4294967295
2.6822777 2.1740978 0.20520991 4294967295
2.6850455 2.2645164 0.17660838 4294967295
2.6990001 2.2321968 0.18620771 4294967295
2.6990001 2.2134104 0.18620771 4294967295
2.674 2.2518442 0.15827882 4294967295
2.6830711 2.2372382 0.14504758 4294967295
2.6896665 2.2265518 0.12287825 4294967295
2.6799998 2.2111409 0.10949898 4294967295
2.6865554 2.1997302 0.088016003 4294967295
2.671 2.1842508 0.07192418 4294967295
2.6902001 2.1937103 0.056209624 4294967295
2.6739998 2.1867042 0.055903584 4294967295
2.6827497 2.2062912 0.026903868 4294967295
2.69625 2.2252257 -0.0042433143 4294967295
2.6758747 2.2161701 -0.0041698217 4294967295
2.6860001 2.2234957 -0.038571358 4294967295
2.680444 2.2161489 -0.03193742 4294967295
2.6823573 2.2273026 -0.063334167 4294967295
2.6833997 2.2248814 -0.096393943 4294967295
2.6838179 2.2292421 -0.12550843 4294967295
2.6823635 2.2314413 -0.15741575 4294967295
2.6864998 2.2234015 -0.17688674 4294967295
2.6816249 2.2162628 -0.18884319 4294967295
2.6811814 2.2129192 -0.21310514 4294967295
2.6990001 2.2259345 -0.24587995 4294967295
2.6767142 2.2119837 -0.2439847 4294967295
2.6816664 2.206799 -0.27620715 4294967295
2.6849999 2.1925812 -0.29174453 4294967295
2.680923 2.1746457 -0.30581659 4294967295
2.6823571 2.1721802 -0.33449095 4294967295
2.6859999 2.1778042 -0.35643703 4294967295
2.7125001 -0.89391953 2.0222096 4294967295
2.7142498 -0.88662833 2.0011482 4294967295
2.71 0.74483055 1.961105 4294967295
2.7146001 -0.88895172 1.973001 4294967295
2.7160001 0.74647963 1.9453979 4294967295
2.71 -0.89624935 1.9548173 4294967295
2.71 -0.90253705 1.9359543 4294967295
2.7129998 0.74565506 1.9186554 4294967295
2.7136669 -0.91005433 1.9158274 4294967295
2.7039998 0.74318147 1.8920468 4294967295
2.7136667 -0.91214561 1.8822367 4294967295
2.7122002 0.74543518 1.8521371 4294967295
2.721 -0.89988726 1.8438543 4294967295
2.7142501 -0.90552086 1.8563051 4294967295
2.7160001 0.75278121 1.8162154 4294967295
2.7125001 0.74865454 1.8271515 4294967295
2.71 -0.89624935 1.8227973 4294967295
2.704 -0.90053874 1.8355833 4294967295
2.7201664 0.75393605 1.7961097 4294967295
2.7199998 -0.89324564 1.7928809 4294967295
2.7057147 1.0315315 1.7574917 4294967295
2.7049232 1.0060549 1.7583045 4294967295
2.7040002 0.9768784 1.7618668 4294967295
2.7193334 0.75580561 1.7652349 4294967295
2.7156003 -0.8930555 1.7643557 4294967295
2.7100003 2.1123905 1.7221738 4294967295
2.7040002 2.0983098 1.7226559 4294967295
2.7154288 1.9001626 1.7232313 4294967295
2.7125006 1.8751746 1.7232798 4294967295
2.7070005 1.8541149 1.7224149 4294967295
2.7160003 1.3577334 1.7216916 4294967295
2.7129998 1.2411298 1.723053 4294967295
2.7160001 1.2254 1.7216916 4294967295
2.7136669 1.0522462 1.7227504 4294967295
2.7146111 1.0361636 1.739612 4294967295
2.7120476 1.0063826 1.7376027 4294967295
2.7039998 0.98576617 1.7456596 4294967295
2.714 0.76931399 1.7306999 4294967295
2.7189999 -0.89291734 1.735636 4294967295
2.7098005 2.2021163 1.6912767 4294967295
2.7130837 2.1751099 1.695738 4294967295
2.7146668 2.1427867 1.7058761 4294967295
2.7140837 2.1187022 1.7140137 4294967295
2.7136669 2.0876153 1.7122512 4294967295
2.7112503 2.0598934 1.6975596 4294967295
2.7176669 1.9533794 1.6930023 4294967295
2.7136669 1.9357967 1.7073698 4294967295
2.7040002 1.9132344 1.7163821 4294967295
2.7163751 1.848335 1.7037286 4294967295
2.7057147 1.8162345 1.6938183 4294967295
2.7121253 1.7883992 1.6932299 4294967295
2.7140007 1.753438 1.6924623 4294967295
2.7120001 1.7332627 1.6905516 4294967295
2.7142503 1.5961614 1.6909982 4294967295
2.7138236 1.574789 1.6988658 4294967295
2.7146673 1.5475866 1.7126966 4294967295
2.711556 1.5148757 1.7169193 4294967295
2.7125003 1.4849896 1.7169864 4294967295
2.7130001 1.4578358 1.7167583 4294967295
2.7161112 1.4250052 1.7119315 4294967295
2.7116668 1.3964332 1.7134827 4294967295
2.7124999 1.3669822 1.7169864 4294967295
2.7139001 1.33338 1.7106746 4294967295
2.7122002 1.3048534 1.6986061 4294967295
2.7117779 1.2759131 1.7058414 4294967295
2.704 1.2513546 1.7163821 4294967295
2.7164285 1.210282 1.7101666 4294967295
2.7125001 1.1923535 1.6918125 4294967295
2.7160001 1.1434793 1.6901838 4294967295
2.7140002 1.125315 1.6948249 4294967295
2.7129998 1.0963351 1.7005786 4294967295
2.71275 1.0665727 1.7123828 4294967295
2.719125 0.99811649 1.7073001 4294967295
2.7108333 0.98510516 1.7005098 4294967295
2.7160001 0.81579709 1.6901838 4294967295
2.7133079 0.79222339 1.7030579 4294967295
2.7193334 -0.89302671 1.7105439 4294967295
2.7128673 2.2046313 1.6766517 4294967295
2.7197502 2.0474288 1.6807542 4294967295
2.7161005 2.0257645 1.6668942 4294967295
2.717 1.9949253 1.6666592 4294967295
2.712286 1.9689884 1.6777883 4294967295
2.7210002 1.8652875 1.6702418 4294967295
2.7121253 1.8407123 1.6708046 4294967295
2.7104118 1.820282 1.6796267 4294967295
2.7176003 1.721715 1.6858225 4294967295
2.7127862 1.693747 1.6788889 4294967295
2.7040005 1.670799 1.6751548 4294967295
2.7142503 1.6229229 1.6658051 4294967295
2.714438 1.608857 1.679265 4294967295
2.7210002 1.5875074 1.6860247 4294967295
2.7165999 1.1828046 1.6828686 4294967295
2.7117779 1.1591742 1.6820652 4294967295
2.7142498 0.96798331 1.6847005 4294967295
2.7125003 0.94059527 1.6792257 4294967295
2.7146001 0.91363162 1.6782386 4294967295
2.718857 0.88424277 1.6724859 4294967295
2.7158422 0.85554284 1.6735183 4294967295
2.7145004 0.8263588 1.6816545 4294967295
2.7153332 0.80298358 1.6856877 4294967295
2.7116663 -0.89680058 1.6725591 4294967295
2.7160003 2.2210503 1.6523741 4294967295
2.7130003 2.2149911 1.6439246 4294967295
2.7040002 2.0104773 1.6599185 4294967295
2.7040002 2.0042036 1.6599185 4294967295
2.7155561 1.8468543 1.6570777 4294967295
2.7210002 1.6822051 1.6544588 4294967295
2.7122502 1.6647241 1.6502692 4294967295
2.7115004 1.6310207 1.6504941 4294967295
2.721 0.60265058 1.6481456 4294967295
2.721 0.53951877 1.6418325 4294967295
2.7156005 2.2043283 1.6143878 4294967295
2.7160001 0.63305116 1.6271678 4294967295
2.704 0.6239804 1.6285498 4294967295
2.7160001 0.54482895 1.6208663 4294967295
2.7185001 -0.89906049 1.6187259 4294967295
2.7190001 2.1982694 1.5842381 4294967295
2.7132001 -0.90989786 1.5882479 4294967295
2.7155559 2.1982791 1.5527685 4294967295
2.7122002 -0.91836238 1.5538596 4294967295
2.7140002 2.1942155 1.5273883 4294967295
2.7160003 2.1895423 1.5137393 4294967295
2.7176666 -0.90719086 1.522755 4294967295
2.7146003 2.1947043 1.4892964 4294967295
2.7122862 2.1874328 1.5042853 4294967295
2.7160001 -0.90453523 1.4948347 4294967295
2.7127502 2.197932 1.4669075 4294967295
2.7125001 -0.90650648 1.4652874 4294967295
2.7160003 2.2021456 1.4349697 4294967295
2.704 -0.90681249 1.4372008 4294967295
2.7160003 2.2021456 1.4066125 4294967295
2.7125001 0.51579636 1.3991568 4294967295
2.7136667 -0.89746195 1.3995677 4294967295
2.7160001 -0.90453529 1.4192157 4294967295
2.7156 2.1967728 1.3787539 4294967295
2.7100003 2.1878421 1.363777 4294967295
2.7119999 0.51256502 1.3801374 4294967295
2.7144997 -0.88933516 1.3735847 4294967295
2.7116671 2.1808028 1.3443785 4294967295
2.7193334 0.50764167 1.3446113 4294967295
2.7116671 -0.87791473 1.3433189 4294967295
2.7156 2.2005529 1.3119776 4294967295
2.704 0.50477928 1.3274102 4294967295
2.7155998 -0.86785287 1.3119586 4294967295
2.7185004 2.2262454 1.2812867 4294967295
2.704 2.211237 1.2876766 4294967295
2.7176666 -0.87356305 1.2810436 4294967295
2.7147145 2.2289901 1.2541301 4294967295
2.71 -0.8789618 1.2553045 4294967295
2.7165003 2.2277551 1.2292485 4294967295
2.7096667 2.2179489 1.2159251 4294967295
2.7142003 -0.89259571 1.2234001 4294967295
2.7140005 2.2154703 1.1965702 4294967295
2.7142501 -0.9086746 1.1903442 4294967295
2.7142501 2.2259097 1.1635956 4294967295
2.7040002 2.211237 1.1768405 4294967295
2.7096665 -0.91289532 1.1614739 4294967295
2.7190001 2.2361207 1.1363175 4294967295
2.7167499 -0.90951002 1.1326675 4294967295
2.7166002 2.2379243 1.1042678 4294967295
2.7121999 -0.90326971 1.1033294 4294967295
2.7176669 2.2518363 1.0687704 4294967295
2.7080004 2.2438228 1.077293 4294967295
2.7172501 -0.90967774 1.0760365 4294967295
2.7132003 2.238898 1.0418413 4294967295
2.7160001 0.51962262 1.0379698 4294967295
2.7128332 -0.92655969 1.0478455 4294967295
2.7160001 2.2289274 1.0174897 4294967295
2.704 2.2175107 1.0074494 4294967295
2.7160001 0.51962262 1.0285175 4294967295
2.7156003 -0.92330176 1.0158445 4294967295
2.7184999 2.2262454 0.98482513 4294967295
2.704 2.2175107 0.97921765 4294967295
2.721 0.50795281 0.99157453 4294967295
2.7141998 -0.91022527 0.98409069 4294967295
2.7189999 2.2247641 0.95337665 4294967295
2.704 2.2175107 0.95725954 4294967295
2.72 0.50145531 0.95353597 4294967295
2.7112501 -0.89508444 0.94899172 4294967295
2.704 -0.90053874 0.96353328 4294967295
2.7160003 2.2273519 0.92769212 4294967295
2.704 2.2175107 0.91334331 4294967295
2.721 0.50163966 0.9347558 4294967295
2.721 -0.89357406 0.92528605 4294967295
2.7185001 2.2230947 0.90599442 4294967295
2.71 2.2098558 0.88592863 4294967295
2.721 0.50163966 0.89056349 4294967295
2.7160001 -0.89193219 0.89618421 4294967295
2.7155998 2.2106371 0.86463571 4294967295
2.721 0.50163966 0.8779372 4294967295
2.7136669 -0.89325702 0.86334574 4294967295
2.7136667 2.225425 0.83291245 4294967295
2.704 2.211237 0.84433216 4294967295
2.704 0.50477928 0.83805841 4294967295
2.721 -0.89988726 0.84637123 4294967295
2.7125001 -0.90336961 0.8296082 4294967295
2.7136002 2.2316797 0.8076964 4294967295
2.7185001 0.51379353 0.81137788 4294967295
2.7080002 -0.91442764 0.80503184 4294967295
2.7142224 2.238483 0.77628005 4294967295
2.721 0.52057922 0.77692616 4294967295
2.7142222 2.2307765 0.74759036 4294967295
2.704 2.2175107 0.73454171 4294967295
2.721 -0.95670593 0.73904711 4294967295
2.7160001 2.2210503 0.72604144 4294967295
2.7073998 2.2127547 0.70779097 4294967295
2.721 0.54583192 0.71379435 4294967295
2.704 -0.95700246 0.72513109 4294967295
2.721 -0.96301907 0.71063781 4294967295
2.7098002 2.2122023 0.68533283 4294967295
2.7125001 0.53783339 0.67858481 4294967295
2.7141998 -0.94927233 0.68056828 4294967295
2.7160001 -0.96124953 0.69453353 4294967295
2.7118752 2.2042987 0.657309 4294967295
2.7108335 0.52072632 0.65699661 4294967295
2.7189999 0.50505418 0.64930618 4294967295
2.721 0.30908754 0.64434934 4294967295
2.7160835 0.28490439 0.64885759 4294967295
2.7146666 0.25430158 0.65719283 4294967295
2.7136667 0.22884658 0.65101492 4294967295
2.721 0.0028981119 0.64434934 4294967295
2.721 -0.014463145 0.64434934 4294967295
2.721 -0.038137585 0.64434934 4294967295
2.721 -0.069703504 0.64434934 4294967295
2.7155557 -0.89177603 0.65040547 4294967295
2.7127502 -0.91682369 0.66364706 4294967295
2.71 -0.93711221 0.66899729 4294967295
2.7156665 2.2113242 0.62519932 4294967295
2.7118337 0.5172435 0.62347639 4294967295
2.7206671 0.4969478 0.6304459 4294967295
2.718111 0.46222207 0.6274029 4294967295
2.7110999 0.43596771 0.62345874 4294967295
2.7123682 0.40629929 0.62143862 4294967295
2.7173333 0.37487167 0.61896616 4294967295
2.7131109 0.34421274 0.62337244 4294967295
2.7073474 0.3158673 0.62407571 4294967295
2.7057996 0.287269 0.62262237 4294967295
2.7066367 0.25522497 0.61628604 4294967295
2.7078233 0.22091581 0.62380338 4294967295
2.7142498 0.19771017 0.62004191 4294967295
2.7183332 0.16687489 0.61900336 4294967295
2.721 0.14494474 0.61594003 4294967295
2.7210004 0.010263493 0.62014878 4294967295
2.7207732 -0.015178688 0.62712222 4294967295
2.7210004 -0.044240333 0.62919772 4294967295
2.7197502 -0.073348857 0.62588888 4294967295
2.7185001 -0.10235938 0.62019295 4294967295
2.721 -0.12546997 0.61488783 4294967295
2.721 -0.37904957 0.61278343 4294967295
2.7110002 -0.89342707 0.62501889 4294967295
2.7118752 2.21295 0.59595668 4294967295
2.714 0.51743221 0.60085273 4294967295
2.7136667 0.49923086 0.58525282 4294967295
2.7197499 0.4304207 0.6048522 4294967295
2.7184999 0.40656799 0.60323417 4294967295
2.7136402 0.3743777 0.59364021 4294967295
2.704 0.346488 0.59627807 4294967295
2.704 0.31253394 0.59786373 4294967295
2.7152917 0.2868959 0.59395528 4294967295
2.7206671 0.25539574 0.59593767 4294967295
2.7142632 0.22695874 0.59432876 4294967295
2.704 0.19960663 0.59965622 4294967295
2.7072001 0.16534795 0.59933782 4294967295
2.717643 0.13890807 0.59195679 4294967295
2.721 0.11653543 0.58121753 4294967295
2.721 0.066029951 0.58121753 4294967295
2.7161252 0.043075081 0.5842644 4294967295
2.7165999 0.015503322 0.5968895 4294967295
2.7162352 -0.013792812 0.59113067 4294967295
2.721 -0.04129418 0.58121753 4294967295
2.721 -0.08338207 0.60436583 4294967295
2.7186191 -0.10613509 0.59558189 4294967295
2.7200003 -0.13089527 0.59087288 4294967295
2.7183573 -0.34984341 0.59107381 4294967295
2.7083907 -0.37442043 0.59460831 4294967295
2.7170668 -0.40141359 0.59122282 4294967295
2.721 -0.42008522 0.58121753 4294967295
2.7165999 -0.46855921 0.58238113 4294967295
2.7155557 -0.49486059 0.58740431 4294967295
2.7168 -0.52533263 0.58932436 4294967295
2.7136922 -0.55358988 0.58687884 4294967295
2.7172999 -0.58407229 0.58555001 4294967295
2.7188573 -0.61260331 0.58297306 4294967295
2.721 -0.64735985 0.58121753 4294967295
2.721 -0.67576915 0.58121753 4294967295
2.7189999 -0.70365399 0.58117253 4294967295
2.7169998 -0.73466748 0.58112752 4294967295
2.721 -0.76099718 0.58121753 4294967295
2.721 -0.83044219 0.58121753 4294967295
2.721 -0.85569501 0.58121753 4294967295
2.7129233 -0.88751888 0.59216958 4294967295
2.7132001 2.1973441 0.56718361 4294967295
2.704 2.186142 0.55574006 4294967295
2.7112503 0.46996474 0.57313913 4294967295
2.704 0.4420419 0.56828755 4294967295
2.721 0.39431554 0.57490432 4294967295
2.7119999 0.380436 0.57472271 4294967295
2.704 0.12208109 0.5745613 4294967295
2.7098002 0.10346233 0.5746783 4294967295
2.7129998 0.075288199 0.57474291 4294967295
2.704 0.059343677 0.5745613 4294967295
2.704 -0.02535183 0.5745613 4294967295
2.71 -0.048460528 0.57259113 4294967295
2.7112503 -0.075215988 0.56947714 4294967295
2.7105002 -0.10151123 0.57092822 4294967295
2.7063999 -0.1352734 0.5746097 4294967295
2.708143 -0.1640638 0.57016367 4294967295
2.704 -0.19474286 0.56828755 4294967295
2.704 -0.21983783 0.56828755 4294967295
2.7136667 -0.26156196 0.56846017 4294967295
2.721 -0.27488199 0.56859112 4294967295
2.721 -0.32538748 0.56859112 4294967295
2.7128334 -0.33803838 0.57264364 4294967295
2.7080002 -0.4118045 0.574642 4294967295
2.7136669 -0.43469352 0.5726651 4294967295
2.7160001 -0.45397204 0.57480341 4294967295
2.704 -0.5931254 0.5745613 4294967295
2.704 -0.67154717 0.5745613 4294967295
2.704 -0.77192706 0.5745613 4294967295
2.7063999 -0.79459542 0.5746097 4294967295
2.7088001 -0.82671326 0.57465816 4294967295
2.7039998 -0.85034883 0.5745613 4294967295
2.7153332 2.1952915 0.52859849 4294967295
2.7080002 2.1851842 0.54114491 4294967295
2.7185001 2.2230947 0.49600866 4294967295
2.7155001 2.2096059 0.511792 4294967295
2.704 2.2175107 0.47418141 4294967295
2.7193334 2.2237761 0.44237888 4294967295
2.7039998 2.2154195 0.44490397 4294967295
2.714875 2.2083163 0.41495171 4294967295
2.7136667 2.1960487 0.39111444 4294967295
2.704 2.186142 0.37380159 4294967295
2.7121251 2.204495 0.35055643 4294967295
2.704 2.186142 0.36752784 4294967295
2.7179999 2.2239461 0.3225925 4294967295
2.70825 2.2178395 0.32645956 4294967295
2.7184999 2.2246702 0.30363926 4294967295
2.7112498 2.2155807 0.29162529 4294967295
2.7128892 2.2087057 0.26771352 4294967295
2.7141998 2.1981528 0.24225929 4294967295
2.7112501 2.1841276 0.22871968 4294967295
2.714 2.1847744 0.20115218 4294967295
2.7130625 2.263088 0.17187408 4294967295
2.7121251 2.2375259 0.17828694 4294967295
2.7112498 2.206156 0.18311438 4294967295
2.717 2.2557409 0.15167144 4294967295
2.7080002 2.245914 0.14319542 4294967295
2.7133753 2.2338471 0.11596513 4294967295
2.7160001 2.2210503 0.095883071 4294967295
2.7154999 2.2127626 0.081791878 4294967295
2.7130001 2.2042038 0.059500933 4294967295
2.7119999 2.224062 0.016808271 4294967295
2.7142501 2.2101679 0.033181101 4294967295
2.7173331 2.2357955 -0.0072950125 4294967295
2.7127502 2.228616 -0.038134038 4294967295
2.71225 2.2342257 -0.066091418 4294967295
2.7155559 2.2395797 -0.091664195 4294967295
2.721 2.2503917 -0.13848549 4294967295
2.7172499 2.2425611 -0.12181824 4294967295
2.721 2.2503917 -0.16373825 4294967295
2.7064004 2.243336 -0.15380132 4294967295
2.7105715 2.2327795 -0.18356806 4294967295
2.704 2.2237844 -0.21279329 4294967295
2.72 2.236943 -0.24553287 4294967295
2.7142498 2.2306387 -0.27224094 4294967295
2.704 2.2175107 -0.28494132 4294967295
2.721 2.2251389 -0.29000193 4294967295
2.7142 2.2057049 -0.29931772 4294967295
2.704 2.1830051 -0.30689937 4294967295
2.7125003 2.1835642 -0.33464301 4294967295
2.704 2.1798682 -0.35708934 4294967295
2.756 0.75107908 2.0527148 4294967295
2.756 -0.90506804 2.0591092 4294967295
2.756 0.75107908 2.0367289 4294967295
2.7425001 -0.89531952 2.0335286 4294967295
2.733 -0.90385592 2.0462646 4294967295
2.7409997 0.74699116 2.0030422 4294967295
2.7415998 -0.88761717 2.0001626 4294967295
2.7403998 0.7468276 1.9740903 4294967295
2.73825 -0.89447385 1.9761286 4294967295
2.756 -0.90506804 1.9695877 4294967295
2.756 0.75107908 1.9472073 4294967295
2.744 0.74780875 1.9569093 4294967295
2.7427497 -0.91026217 1.9435058 4294967295
2.7424998 0.74739999 1.9147692 4294967295
2.7422001 -0.9170655 1.9075935 4294967295
2.7391999 0.74650061 1.8844807 4294967295
2.7433331 -0.91256833 1.8854798 4294967295
2.756 0.75107908 1.8640802 4294967295
2.744 0.74780875 1.8677777 4294967295
