# .PCD v0.7 - Point Cloud Data file format
VERSION 0.7
FIELDS x y z rgb
SIZE 4 4 4 4
TYPE F F F U
COUNT 1 1 1 1
WIDTH 1151
HEIGHT 1
VIEWPOINT 0 0 0 1 0 0 0
POINTS 1151
DATA ascii
2.839 0.77369863 1.3611341 4294967295
2.8210001 0.51353031 1.373255 4294967295
2.837889 0.50635731 1.3754289 4294967295
2.8385003 -0.8959344 1.3741596 4294967295
2.823 -0.90305316 1.3771363 4294967295
2.8270004 2.2540879 1.3352749 4294967295
2.8326898 2.2339518 1.3456533 4294967295
2.8393335 2.2164938 1.3568361 4294967295
2.8343997 0.51201421 1.3492334 4294967295
2.8329999 0.50914174 1.3593564 4294967295
2.8310001 -0.89392835 1.3441648 4294967295
2.8210001 -0.90023321 1.3558011 4294967295
2.825125 2.2553797 1.3189185 4294967295
2.8371253 2.2367051 1.3142292 4294967295
2.8359091 -0.89301592 1.3135514 4294967295
2.8210003 2.2545538 1.2968943 4294967295
2.8302176 2.2407644 1.2854435 4294967295
2.834357 -0.89086157 1.2845981 4294967295
2.8210001 -0.90023321 1.2805314 4294967295
2.8316474 2.2363763 1.2553754 4294967295
2.8344615 -0.8923797 1.2560802 4294967295
2.8210001 -0.90023321 1.2543504 4294967295
2.8305717 2.2269959 1.2286962 4294967295
2.8356001 2.2175217 1.2153811 4294967295
2.8379998 -0.89775294 1.227828 4294967295
2.8222001 -0.90061611 1.2251914 4294967295
2.8295004 2.2245638 1.188925 4294967295
2.8347859 2.2162285 1.1987382 4294967295
2.839 -0.8993904 1.19646 4294967295
2.8287141 -0.90456498 1.1930702 4294967295
2.8330002 2.250998 1.1555921 4294967295
2.8350387 2.2366533 1.1651484 4294967295
2.8382857 -0.89633882 1.1624243 4294967295
2.8243332 -0.90493315 1.1652975 4294967295
2.82775 2.2845383 1.1257041 4294967295
2.8338752 2.2634542 1.1355013 4294967295
2.8442502 2.2467344 1.1432669 4294967295
2.8270001 0.5244543 1.124723 4294967295
2.8381665 -0.89692795 1.1402826 4294967295
2.8286002 -0.91008562 1.1322825 4294967295
2.8304739 2.2890661 1.1062918 4294967295
2.838834 2.2655046 1.1067756 4294967295
2.8407502 2.2472672 1.0947181 4294967295
2.8405716 0.51896709 1.1036289 4294967295
2.8321538 -0.91439027 1.1048505 4294967295
2.8210003 2.2840071 1.0874479 4294967295
2.8264546 2.2630732 1.0855675 4294967295
2.8327651 2.2376432 1.0735776 4294967295
2.8347499 0.52095968 1.0770462 4294967295
2.8341999 -0.89260572 1.0690637 4294967295
2.8270001 -0.90542746 1.0821025 4294967295
2.8356001 2.2227805 1.0548512 4294967295
2.8324447 2.2162182 1.0393573 4294967295
2.8364999 0.52951425 1.047755 4294967295
2.836 -0.86553991 1.0345385 4294967295
2.8317778 -0.87665677 1.0450916 4294967295
2.8310952 2.2112975 1.0140865 4294967295
2.8396666 0.51691365 1.003351 4294967295
2.8425 -0.86752373 1.0225201 4294967295
2.8313575 -0.88429731 1.0153785 4294967295
2.8313332 -0.90132964 1.0041077 4294967295
2.8253634 2.2264512 0.98044878 4294967295
2.8357141 2.2087224 0.98607051 4294967295
2.8269999 0.51462251 0.99682701 4294967295
2.8315001 0.50558215 0.98444688 4294967295
2.8285003 -0.90508097 0.98640925 4294967295
2.831655 2.2340353 0.95456147 4294967295
2.8425 2.2156744 0.96646595 4294967295
2.8376667 0.49899444 0.96128535 4294967295
2.8351667 -0.89378154 0.94996893 4294967295
2.8317499 -0.90201288 0.95986509 4294967295
2.8210001 2.2545538 0.91727257 4294967295
2.8338284 2.2382822 0.92489874 4294967295
2.8332 0.50260419 0.92553544 4294967295
2.8293998 -0.88124502 0.92502856 4294967295
2.8210001 2.2545538 0.9009096 4294967295
2.8326335 2.2359979 0.89569247 4294967295
2.8420002 2.2157555 0.88914233 4294967295
2.8425 0.51084906 0.89061844 4294967295
2.8239999 0.50752425 0.90131116 4294967295
2.8312857 -0.89037341 0.89712989 4294967295
2.8253999 2.2287793 0.8693881 4294967295
2.8367062 2.2136621 0.86218774 4294967295
2.8293998 0.51505941 0.86591578 4294967295
2.8311665 -0.90894616 0.86833769 4294967295
2.8329999 2.250998 0.82036686 4294967295
2.8327649 2.2341738 0.83347428 4294967295
2.8383331 2.216804 0.84507561 4294967295
2.8285 0.52145821 0.82972145 4294967295
2.8329999 -0.92378169 0.84336555 4294967295
2.8354547 2.2541263 0.80209124 4294967295
2.8210001 2.2480085 0.81254935 4294967295
2.8393333 0.52564645 0.80567652 4294967295
2.8293998 -0.93704909 0.80684459 4294967295
2.8329999 2.250998 0.78750163 4294967295
2.8332 2.2346945 0.77470136 4294967295
2.8269999 2.2199941 0.76069862 4294967295
2.839 0.54315484 0.7617203 4294967295
2.8329999 0.53323829 0.78092861 4294967295
2.8347499 -0.95065325 0.78273362 4294967295
2.8329999 -0.96979302 0.76120949 4294967295
2.8322856 2.2123892 0.74424952 4294967295
2.8299999 0.55128211 0.74452841 4294967295
2.8343334 -0.97133571 0.74378639 4294967295
2.8328001 2.2008705 0.71518439 4294967295
2.8353751 0.55068284 0.7120837 4294967295
2.8393333 0.52564406 0.70355964 4294967295
2.8392501 0.40158185 0.70245373 4294967295
2.8329999 0.37439436 0.70205206 4294967295
2.8332856 0.34391105 0.70395708 4294967295
2.8313332 0.31285506 0.70414603 4294967295
2.8338997 0.28573999 0.70540828 4294967295
2.8329999 0.25607955 0.70205206 4294967295
2.8365998 0.22678314 0.70228338 4294967295
2.8425 0.20417355 0.70266259 4294967295
2.8425 0.072284028 0.70266259 4294967295
2.839 0.04583906 0.70243764 4294967295
2.839 0.016197721 0.70243764 4294967295
2.8446 -0.016776612 0.70279753 4294967295
2.846 -0.22808093 0.70288748 4294967295
2.8331668 -0.91724873 0.70534968 4294967295
2.8341665 -0.94498301 0.72185934 4294967295
2.8300831 2.2016056 0.68435723 4294967295
2.823 0.52043962 0.69485962 4294967295
2.8296666 0.49395296 0.69236362 4294967295
2.8336666 0.464697 0.6926052 4294967295
2.8299999 0.43745956 0.69311148 4294967295
2.8255 0.40619361 0.69501448 4294967295
2.8210001 0.21572368 0.69473577 4294967295
2.8294001 0.19337568 0.69525605 4294967295
2.8304286 0.16250254 0.69251466 4294967295
2.8300004 0.13433588 0.69202065 4294967295
2.8292503 0.10476334 0.69197416 4294967295
2.8281999 0.075198822 0.69518173 4294967295
2.8210001 0.045548432 0.69473577 4294967295
2.8210001 0.016095025 0.69473577 4294967295
2.8257999 -0.0166732 0.69503307 4294967295
2.8290002 -0.048396811 0.69304955 4294967295
2.8315833 -0.077467158 0.6904766 4294967295
2.8300002 -0.10533313 0.68545103 4294967295
2.8317997 -0.13495375 0.68555629 4294967295
2.8307998 -0.16578802 0.68747735 4294967295
2.8313639 -0.19286534 0.69120753 4294967295
2.8263333 -0.22504418 0.69142985 4294967295
2.8276663 -0.25430888 0.6922397 4294967295
2.8304286 -0.28500369 0.69344974 4294967295
2.8278573 -0.3166045 0.69235539 4294967295
2.8323333 -0.34381506 0.6917938 4294967295
2.8344545 -0.3754015 0.68960881 4294967295
2.8295002 -0.40399995 0.68673956 4294967295
2.8329999 -0.43408999 0.68890595 4294967295
2.8329999 -0.46366867 0.68890595 4294967295
2.8304286 -0.49701026 0.6859476 4294967295
2.8324444 -0.5241847 0.68596232 4294967295
2.8281999 -0.55474687 0.68074888 4294967295
2.8347499 -0.58234322 0.67915368 4294967295
2.8329999 -0.61484861 0.67575991 4294967295
2.8314285 -0.64266086 0.67943782 4294967295
2.8339999 -0.67330462 0.68615454 4294967295
2.8333747 -0.70696133 0.69140458 4294967295
2.8343999 -0.73351645 0.69031012 4294967295
2.8329999 -0.76602864 0.68890595 4294967295
2.8314998 -0.79518086 0.68881655 4294967295
2.8374445 -0.82501787 0.69210571 4294967295
2.8358002 -0.85559601 0.69237292 4294967295
2.8316252 -0.88390487 0.6929394 4294967295
2.8239999 -0.90446311 0.69492155 4294967295
2.8312106 2.2301879 0.65041417 4294967295
2.8337779 2.2150724 0.66483933 4294967295
2.8296428 2.2576878 0.61741495 4294967295
2.8366253 2.242748 0.62946922 4294967295
2.8282499 2.2599964 0.59806848 4294967295
2.8386252 2.2463927 0.58881015 4294967295
2.8312631 2.2319574 0.56883854 4294967295
2.8352222 2.2147326 0.55382097 4294967295
2.833143 2.203815 0.53334451 4294967295
2.8210001 2.2218277 0.49510708 4294967295
2.8296068 2.2030206 0.50464678 4294967295
2.8209999 2.227778 0.47636402 4294967295
2.8326402 2.2070408 0.47489399 4294967295
2.8210001 2.2229187 0.44819981 4294967295
2.8328698 2.2120075 0.44770315 4294967295
2.8333333 2.222738 0.41065851 4294967295
2.8289998 2.2193735 0.41846237 4294967295
2.8210001 2.2578263 0.37402087 4294967295
2.8270414 2.2301068 0.38273174 4294967295
2.8314998 2.2185912 0.384956 4294967295
2.8209999 2.2578266 0.35438526 4294967295
2.8209994 2.2349181 0.35438526 4294967295
2.8339093 2.2140477 0.35333329 4294967295
2.8210001 2.2545538 0.32493186 4294967295
2.8234541 2.2350645 0.32416368 4294967295
2.8353686 2.2113137 0.32549405 4294967295
2.8249996 2.2564275 0.29252994 4294967295
2.8339314 2.2362943 0.29579747 4294967295
2.8379998 2.2141395 0.30465668 4294967295
2.8274 2.2557209 0.26610711 4294967295
2.8397696 2.2421763 0.26509583 4294967295
2.8210001 2.2545538 0.23657164 4294967295
2.8314545 2.2449689 0.2364217 4294967295
2.8210001 2.2807345 0.19075522 4294967295
2.8209996 2.2619717 0.20122755 4294967295
2.8312004 2.2421818 0.20349884 4294967295
2.8210001 2.2741895 0.18421003 4294967295
2.8284705 2.2284594 0.18140733 4294967295
2.8344002 2.2090077 0.17012623 4294967295
2.8210001 2.229682 0.13315749 4294967295
2.8292596 2.2049665 0.1455414 4294967295
2.8256662 2.2615476 0.11226085 4294967295
2.8330832 2.2329628 0.11373925 4294967295
2.8406668 2.2109454 0.12328348 4294967295
2.8239996 2.2616715 0.091399252 4294967295
2.8316209 2.2337878 0.085321844 4294967295
2.8364446 2.2149694 0.07561931 4294967295
2.8210001 2.2240098 0.064214647 4294967295
2.8312144 2.204736 0.054205179 4294967295
2.830909 2.198858 0.025998712 4294967295
2.839 2.1898959 0.017393351 4294967295
2.8302381 2.2021849 -0.0066981912 4294967295
2.8420002 2.1884389 -0.0010352135 4294967295
2.8290002 2.2226417 -0.042103469 4294967295
2.8340771 2.2138963 -0.030289769 4294967295
2.8312311 2.2238071 -0.064604938 4294967295
2.8313 2.2226925 -0.089618862 4294967295
2.8353636 2.2157781 -0.10217178 4294967295
2.8210001 2.2218277 -0.11032403 4294967295
2.8285711 2.2033904 -0.12372404 4294967295
2.8375001 2.1797919 -0.13281178 4294967295
2.8232496 2.1986184 -0.15667963 4294967295
2.8363159 2.1794968 -0.15253961 4294967295
2.8210001 2.223464 -0.19050276 4294967295
2.8314784 2.208353 -0.18521887 4294967295
2.839 2.1898959 -0.17362863 4294967295
2.8210001 2.2242823 -0.21259284 4294967295
2.8341668 2.2164698 -0.21701032 4294967295
2.8331001 2.2126009 -0.24613518 4294967295
2.8297999 2.234432 -0.27730709 4294967295
2.8362501 2.2173688 -0.26508486 4294967295
2.8275001 2.2531793 -0.30530411 4294967295
2.8387003 2.2476101 -0.30592972 4294967295
2.8325002 2.239629 -0.3345021 4294967295
2.8336 2.2290981 -0.36032903 4294967295
2.8307004 2.2090971 -0.3745324 4294967295
2.8339999 2.1954172 -0.38845307 4294967295
2.8349996 2.1858447 -0.40005106 4294967295
2.858 0.76561451 2.1160717 4294967295
2.852 -0.87042308 2.112721 4294967295
2.8540001 0.76454294 2.1005993 4294967295
2.869 -0.87561142 2.1055532 4294967295
2.8770001 0.7640292 2.053256 4294967295
2.86675 -0.88323212 2.0644007 4294967295
2.8770001 0.7640292 2.0432434 4294967295
2.865778 -0.88495946 2.0361791 4294967295
2.8755 -0.88426691 2.0090857 4294967295
2.8663332 0.76119649 1.9744319 4294967295
2.8582499 -0.88724816 1.9736277 4294967295
2.8643334 0.75401974 1.9468386 4294967295
2.8718331 -0.8964656 1.9472077 4294967295
2.8770001 0.75067902 1.9175284 4294967295
2.8710001 0.74911338 1.9101731 4294967295
2.8620002 -0.89339602 1.9124601 4294967295
2.8559999 0.75182593 1.8763996 4294967295
2.8662858 -0.8909235 1.8850698 4294967295
2.8682001 0.75503749 1.8555698 4294967295
2.8620002 -0.88675576 1.8526971 4294967295
2.87075 0.75736308 1.82847 4294967295
2.863625 -0.89057845 1.8235369 4294967295
2.8601665 0.75844634 1.795408 4294967295
2.8623333 -0.8979162 1.8019246 4294967295
2.8657501 -0.9045347 1.7879484 4294967295
2.8637502 0.75717813 1.7671262 4294967295
2.8658891 -0.91085279 1.7628767 4294967295
2.8680003 0.75297654 1.7337132 4294967295
2.8675001 -0.9117381 1.7354974 4294967295
2.8653843 0.75683892 1.7039039 4294967295
2.8770001 0.69060278 1.692799 4294967295
2.8610001 0.67347914 1.6962371 4294967295
2.852 0.63828182 1.7024591 4294967295
2.858 0.54678994 1.7115779 4294967295
2.8623333 0.52106386 1.7045377 4294967295
2.8710001 0.50930983 1.6970143 4294967295
2.8770001 -0.89474088 1.6961365 4294967295
2.8613 -0.90577579 1.7069753 4294967295
2.8606 1.422709 1.6655276 4294967295
2.858875 1.3959864 1.6688197 4294967295
2.8618002 1.3681993 1.6626929 4294967295
2.8570001 0.75871098 1.6813258 4294967295
2.8708334 0.74573696 1.6736356 4294967295
2.858 0.68273336 1.6784086 4294967295
2.8670001 0.52190685 1.6754042 4294967295
2.8624287 -0.89067572 1.6764165 4294967295
2.852 -0.90350872 1.6892248 4294967295
2.8660913 2.173903 1.6327233 4294967295
2.8620002 2.1495266 1.6343777 4294967295
2.860889 1.9066079 1.6331196 4294967295
2.8520002 1.8889188 1.6362879 4294967295
2.8653846 1.4492757 1.6425356 4294967295
2.8627501 1.4377214 1.6570917 4294967295
2.8770001 1.3547783 1.6594234 4294967295
2.8644001 1.3335365 1.6544216 4294967295
2.8675001 1.3037295 1.6473391 4294967295
2.8618569 1.2769719 1.641085 4294967295
2.8690002 1.2544868 1.6329511 4294967295
2.8710001 1.2054063 1.6304022 4294967295
2.8695002 1.1825846 1.6331421 4294967295
2.8656001 1.1585932 1.6322951 4294967295
2.8655002 1.0590478 1.6349134 4294967295
2.8627329 1.0356487 1.6493318 4294967295
2.8663077 1.0067344 1.6561986 4294967295
2.8658462 0.97485459 1.6452634 4294967295
2.863625 0.94983858 1.6350152 4294967295
2.8643334 0.74070883 1.6566125 4294967295
2.8643334 0.54798692 1.6455506 4294967295
2.8770001 0.53707474 1.6594234 4294967295
2.8627145 -0.89076227 1.645225 4294967295
2.8655457 2.2260711 1.6089445 4294967295
2.866236 2.2077527 1.6214983 4294967295
2.8580003 2.1879673 1.6286829 4294967295
2.8707504 2.1411233 1.6236372 4294967295
2.8617148 2.1229894 1.6154091 4294967295
2.8705003 1.9511144 1.6035686 4294967295
2.8649094 1.9349172 1.6165622 4294967295
2.8690004 1.9068218 1.6246278 4294967295
2.8621254 1.8765188 1.6161586 4294967295
2.8580003 1.8597374 1.605481 4294967295
2.8644001 1.7455989 1.6039183 4294967295
2.8612499 1.7245094 1.6096029 4294967295
2.8612502 1.6967109 1.6091894 4294967295
2.8629417 1.6640495 1.6089078 4294967295
2.8650002 1.6346464 1.6196125 4294967295
2.8638184 1.6055812 1.6264001 4294967295
2.8633637 1.5757328 1.6250223 4294967295
2.8643997 1.5435553 1.6189629 4294967295
2.862077 1.5145222 1.6085461 4294967295
2.8644547 1.4844887 1.6073177 4294967295
2.8615556 1.4629452 1.6208389 4294967295
2.8645 1.2392199 1.6262083 4294967295
2.8652859 1.2215196 1.6253333 4294967295
2.852 1.1908119 1.6296707 4294967295
2.8660002 1.1451199 1.6267885 4294967295
2.8648465 1.1253436 1.619819 4294967295
2.8623333 1.094945 1.6176302 4294967295
2.862 1.070806 1.6255774 4294967295
2.8770001 0.96428317 1.616035 4294967295
2.8669407 0.94410229 1.6147382 4294967295
2.8527498 0.9197523 1.6125857 4294967295
2.8624001 -0.89417243 1.6117938 4294967295
2.8586667 2.2260485 1.5902574 4294967295
2.8675716 2.212858 1.5796551 4294967295
2.866667 2.1092443 1.5954511 4294967295
2.8634288 2.0862987 1.5838059 4294967295
2.8662858 2.057025 1.5734631 4294967295
2.8646002 2.0221598 1.5707564 4294967295
2.8636668 1.9955461 1.5773643 4294967295
2.8638003 1.9651569 1.59306 4294967295
2.8656003 1.8407289 1.5963849 4294967295
2.8652861 1.8131709 1.5882897 4294967295
2.8690007 1.7870089 1.5871861 4294967295
2.8650002 1.7584593 1.5942827 4294967295
2.8770003 1.7219106 1.5993471 4294967295
2.8761432 1.6913705 1.593304 4294967295
2.8770003 1.6762973 1.5971221 4294967295
2.87375 0.97486025 1.5848002 4294967295
2.8643334 0.94012022 1.5945951 4294967295
2.855 0.92048043 1.5944055 4294967295
2.8652859 -0.89630806 1.5892516 4294967295
2.8675001 -0.901766 1.5724932 4294967295
2.8647647 2.2073984 1.5556495 4294967295
2.8770003 2.0456543 1.5659715 4294967295
2.8672502 2.0320692 1.5674105 4294967295
2.8770003 1.711898 1.5526212 4294967295
2.8708184 1.692476 1.5522258 4294967295
2.8715003 1.6703068 1.550647 4294967295
2.858 -0.90540951 1.5524216 4294967295
2.8630717 2.2036979 1.528162 4294967295
2.8710003 1.7149888 1.5338147 4294967295
2.8571429 1.6915627 1.529398 4294967295
2.8618999 1.6650426 1.5325891 4294967295
2.8770001 1.2079253 1.5325958 4294967295
2.8658001 0.54693842 1.5180228 4294967295
2.8770001 0.53039962 1.5125705 4294967295
2.8644001 -0.90476978 1.5241671 4294967295
2.8665459 2.1966174 1.4962529 4294967295
2.8664446 0.52252483 1.4926636 4294967295
2.8645 -0.89748967 1.4916373 4294967295
2.8640001 -0.90066534 1.5080855 4294967295
2.8650002 2.1996629 1.4637053 4294967295
2.8568001 0.51606864 1.4698133 4294967295
2.8698573 0.5062483 1.4654057 4294967295
2.8607779 -0.89079314 1.4656754 4294967295
2.8625717 2.1995211 1.4340534 4294967295
2.8610001 0.70003814 1.4439929 4294967295
2.8605001 0.50278968 1.435196 4294967295
2.8635001 -0.89219755 1.4381411 4294967295
2.8612502 2.1937559 1.4158542 4294967295
2.8643849 2.1849186 1.4023932 4294967295
2.858 0.69930404 1.4198117 4294967295
2.8621666 0.50109243 1.4078398 4294967295
2.8645 -0.89748853 1.4035735 4294967295
2.8640001 -0.90066534 1.4084109 4294967295
2.8648465 2.2021387 1.3698132 4294967295
2.8617148 2.1855803 1.383985 4294967295
2.8666003 0.50187826 1.3759503 4294967295
2.8635714 -0.89102978 1.3741038 4294967295
2.8648002 2.2283907 1.3439629 4294967295
2.8645003 2.2161827 1.3587055 4294967295
2.8770001 0.51037425 1.3456922 4294967295
2.8627501 0.50617754 1.3548796 4294967295
2.8645 -0.89084029 1.3454092 4294967295
2.8651004 2.2359421 1.3136885 4294967295
2.863625 -0.88724822 1.3136084 4294967295
2.8770003 2.2525833 1.2756033 4294967295
2.8617148 2.2424994 1.2862973 4294967295
2.8612499 -0.88236624 1.2830789 4294967295
2.8652861 2.243403 1.2559009 4294967295
2.8634286 -0.89004016 1.2544744 4294967295
2.8665001 2.2277186 1.2296087 4294967295
2.8644004 2.2174401 1.2157952 4294967295
2.862 -0.89736915 1.2298311 4294967295
2.8640001 -0.90066534 1.2157068 4294967295
2.8710003 2.2212408 1.1841011 4294967295
2.8629999 2.2164555 1.195055 4294967295
2.8675001 -0.8984285 1.1899335 4294967295
2.8640001 -0.90066534 1.2057393 4294967295
2.8617148 2.2269952 1.1636145 4294967295
2.8720005 2.219321 1.1669772 4294967295
2.8710001 0.52263224 1.1507951 4294967295
2.862 -0.89205354 1.1654065 4294967295
2.85425 2.2554615 1.1264188 4294967295
2.8635163 2.2340698 1.1356338 4294967295
2.8770003 2.2192075 1.134313 4294967295
2.8694 0.51967096 1.1331295 4294967295
2.8634999 -0.893857 1.1391683 4294967295
2.8618 -0.90527272 1.1248667 4294967295
2.8544004 2.2534275 1.1113846 4294967295
2.8678181 2.2402234 1.1071532 4294967295
2.8770001 0.51704937 1.1053874 4294967295
2.8645713 -0.90842831 1.1056948 4294967295
2.8648002 2.235919 1.0758698 4294967295
2.8643334 0.52141869 1.0762079 4294967295
2.8642499 -0.89076436 1.0728769 4294967295
2.852 -0.90350872 1.0870664 4294967295
2.8691254 2.2247744 1.0446987 4294967295
2.8520002 2.219775 1.044055 4294967295
2.8710001 0.53595465 1.0308933 4294967295
2.8659999 -0.86470866 1.0366421 4294967295
2.8645 -0.87422359 1.0529981 4294967295
2.8630002 2.2083919 1.0138139 4294967295
2.8770001 0.51371181 1.0085981 4294967295
2.8623333 -0.86471063 1.0249157 4294967295
2.866143 -0.88327605 1.0119777 4294967295
2.8640001 -0.90066534 1.0030677 4294967295
2.8640666 2.2012444 0.98357785 4294967295
2.8623333 0.50334167 0.98507369 4294967295
2.8652222 -0.90399218 0.98480248 4294967295
2.8627274 2.2256889 0.95031977 4294967295
2.8611667 2.216934 0.96496987 4294967295
2.8559999 0.50002241 0.95310932 4294967295
2.8643334 -0.89079416 0.95328331 4294967295
2.8634615 2.2256117 0.92477721 4294967295
2.852 2.219775 0.91502106 4294967295
2.8710001 0.50264859 0.93763638 4294967295
2.8657501 -0.88126862 0.92688608 4294967295
2.8710001 2.2212408 0.90099967 4294967295
2.8594444 2.2174451 0.89318585 4294967295
2.852 0.51255637 0.88193548 4294967295
2.858 0.50700361 0.90589857 4294967295
2.8666668 -0.89042211 0.90373552 4294967295
2.8645 -0.90413815 0.88685238 4294967295
2.8654165 2.2124734 0.86535227 4294967295
2.8705001 0.51588118 0.87428558 4294967295
2.8710001 -0.91618913 0.87102425 4294967295
2.8652663 2.2349508 0.82821167 4294967295
2.8612499 2.214515 0.84244168 4294967295
2.8682001 0.52212256 0.8373791 4294967295
2.858 -0.92530268 0.84954166 4294967295
2.8610001 -0.9362275 0.82998049 4294967295
2.8659375 2.255537 0.8076508 4294967295
2.8740001 2.2468967 0.79137301 4294967295
2.8645 0.52809513 0.80043769 4294967295
2.8643334 -0.94285494 0.80819178 4294967295
2.8609998 2.2352104 0.77746576 4294967295
2.8710001 0.54261589 0.77110612 4294967295
2.8710001 0.53595465 0.78442854 4294967295
2.8710001 -0.95615637 0.78442854 4294967295
2.8610001 -0.96609503 0.7702384 4294967295
2.8705001 2.2241764 0.75774229 4294967295
2.8650002 2.2165809 0.74464923 4294967295
2.87375 0.554802 0.74300748 4294967295
2.8640001 -0.95382512 0.73062408 4294967295
2.8675001 -0.97494656 0.7475217 4294967295
2.8625712 2.2090149 0.7181704 4294967295
2.8692501 0.55059654 0.71936119 4294967295
2.8656001 0.52162564 0.7107957 4294967295
2.8618002 0.49437761 0.70390284 4294967295
2.8692501 0.46573403 0.70438153 4294967295
2.8594999 0.43761244 0.70375502 4294967295
2.8668001 0.40878773 0.70955217 4294967295
2.8544002 0.37391669 0.71004999 4294967295
2.8603334 0.34593683 0.71267009 4294967295
2.8686666 0.31696135 0.71544993 4294967295
2.8770001 0.28341976 0.71822983 4294967295
2.8608572 0.25622642 0.71238708 4294967295
2.8657501 0.2257887 0.71080565 4294967295
2.8656001 0.19588478 0.70681703 4294967295
2.8692501 0.16615011 0.70438153 4294967295
2.8682001 0.1361589 0.70431411 4294967295
2.8625 0.10599712 0.70394778 4294967295
2.8695998 0.076279111 0.70973861 4294967295
2.8625002 0.046223719 0.71058929 4294967295
2.8668001 0.016346587 0.71087557 4294967295
2.8755 -0.013621679 0.71145487 4294967295
2.8582001 -0.043358706 0.70500648 4294967295
2.8627501 -0.073347755 0.70396388 4294967295
2.8770001 -0.09372513 0.70487958 4294967295
2.8720002 -0.16351445 0.70455825 4294967295
2.858 -0.19587626 0.70365864 4294967295
2.8684001 -0.2245592 0.70965868 4294967295
2.860857 -0.25296751 0.70574939 4294967295
2.8594999 -0.28556156 0.70375502 4294967295
2.858 -0.31524625 0.70365858 4294967295
2.8657501 -0.34602377 0.70415664 4294967295
2.8692501 -0.37307498 0.70438159 4294967295
2.8757999 -0.40395299 0.70480245 4294967295
2.8770001 -0.83800226 0.70487958 4294967295
2.8740001 -0.8604601 0.70468682 4294967295
2.8644001 -0.88748127 0.70406991 4294967295
2.8608 -0.91957164 0.71180832 4294967295
2.8615 -0.94302273 0.72380102 4294967295
2.8657777 2.2149701 0.68274117 4294967295
2.8535001 -0.10620601 0.69674885 4294967295
2.8568001 -0.1361452 0.69695324 4294967295
2.852 -0.15908195 0.69665593 4294967295
2.852 -0.38737282 0.69665593 4294967295
2.852 -0.40722418 0.69665593 4294967295
2.8568001 -0.43442822 0.69695324 4294967295
2.8625 -0.46518135 0.69730628 4294967295
2.8682001 -0.49605837 0.69765937 4294967295
2.8740001 -0.52706194 0.69801861 4294967295
2.8582001 -0.55398506 0.69174349 4294967295
2.8623333 -0.58577043 0.68844914 4294967295
2.855 -0.61631131 0.68359357 4294967295
2.8677502 -0.64569312 0.68932354 4294967295
2.8644001 -0.67484498 0.69477439 4294967295
2.855 -0.69579691 0.69684172 4294967295
2.8559999 -0.73912036 0.69690371 4294967295
2.858 -0.76615751 0.69702756 4294967295
2.855 -0.79515469 0.69684172 4294967295
2.852 -0.81086892 0.69665593 4294967295
2.8644288 2.2256341 0.65091628 4294967295
2.855 2.2187943 0.66041273 4294967295
2.855 2.251915 0.61072862 4294967295
2.8646815 2.2371757 0.62402195 4294967295
2.855 2.251915 0.60410452 4294967295
2.8654706 2.2427478 0.59463793 4294967295
2.8655455 2.2284851 0.57177794 4294967295
2.8694003 2.211328 0.55526501 4294967295
2.8656666 2.200247 0.53615332 4294967295
2.8644168 2.2033947 0.50525129 4294967295
2.8643751 2.2044735 0.47561789 4294967295
2.8740001 2.2268925 0.43462938 4294967295
2.8623335 2.2115636 0.44789284 4294967295
2.8644001 2.2307496 0.41297337 4294967295
2.8629999 2.2290621 0.38660687 4294967295
2.852 2.219775 0.37241673 4294967295
2.8710001 2.2212408 0.36477232 4294967295
2.8612499 2.2128556 0.35451269 4294967295
2.8613 2.2104084 0.32546198 4294967295
2.8655002 2.2269421 0.28972405 4294967295
2.8627501 2.216501 0.30378199 4294967295
2.8643999 2.2400446 0.26543388 4294967295
2.8770001 2.2525833 0.23094526 4294967295
2.8596251 2.2472627 0.23353261 4294967295
2.8648238 2.2387352 0.20480964 4294967295
2.8675001 2.2218552 0.18532813 4294967295
2.8635001 2.2137585 0.17499226 4294967295
2.8603749 2.2022288 0.14386299 4294967295
2.8622139 2.2125235 0.11337587 4294967295
2.8675001 2.2218552 0.092184842 4294967295
2.8625 2.2153029 0.079643697 4294967295
2.8632727 2.2037721 0.055368841 4294967295
2.8637779 2.1986637 0.024833441 4294967295
2.8659999 2.1949146 -0.0064937472 4294967295
2.852 2.1866894 0.0018576384 4294967295
2.8666668 2.224529 -0.045144677 4294967295
2.8657143 2.2066755 -0.030552745 4294967295
2.8631999 2.2311373 -0.063948393 4294967295
2.8671429 2.2286963 -0.09212786 4294967295
2.8627501 2.2181551 -0.10471421 4294967295
2.863625 2.2022283 -0.11652339 4294967295
2.8621817 2.1775761 -0.1297822 4294967295
2.8655457 2.1759021 -0.1553272 4294967295
2.8622224 2.2011385 -0.18519163 4294967295
2.858 2.1879673 -0.17163968 4294967295
2.8722501 2.2238691 -0.22340167 4294967295
2.8618 2.2167635 -0.20840222 4294967295
2.8740001 2.2235618 -0.23885584 4294967295
2.8615716 2.2158301 -0.24649817 4294967295
2.8625 2.2285814 -0.28230661 4294967295
2.8656001 2.2170422 -0.26655161 4294967295
2.8665001 2.2532184 -0.3111403 4294967295
2.8655002 2.2435548 -0.29644501 4294967295
2.8692501 2.2531614 -0.32748014 4294967295
2.8625715 2.2450652 -0.33974093 4294967295
2.8657002 2.2337477 -0.36299872 4294967295
2.858 2.2178137 -0.37720221 4294967295
2.8710001 2.2212408 -0.38128322 4294967295
2.8637779 2.2023509 -0.39452046 4294967295
2.8640001 2.189245 -0.4123106 4294967295
2.9024999 0.77080113 2.0904233 4294967295
2.8983333 -0.88456392 2.0982337 4294967295
2.8900001 0.76748157 2.0702422 4294967295
2.8930001 0.76827824 2.0315709 4294967295
2.8920002 0.76801264 2.0075753 4294967295
2.8930001 -0.88964844 1.998013 4294967295
2.8959999 0.76235569 1.976032 4294967295
2.8930001 -0.8963607 1.9778764 4294967295
2.9089999 -0.90131807 1.9758186 4294967295
2.8930001 0.75485373 1.9443221 4294967295
2.9089999 -0.90131807 1.9386971 4294967295
2.8930001 0.75485373 1.9040415 4294967295
2.8930001 -0.8963607 1.9107608 4294967295
2.9089999 -0.90131807 1.928573 4294967295
2.8959999 0.75563645 1.8853226 4294967295
2.9026668 -0.8926211 1.885113 4294967295
2.9057498 0.7581805 1.8629405 4294967295
2.8938003 -0.88989455 1.8540545 4294967295
2.8900001 0.76077628 1.8187937 4294967295
2.8900001 -0.89543122 1.8254989 4294967295
2.9089999 -0.90131807 1.8273324 4294967295
2.8994999 0.75990242 1.7961206 4294967295
2.8983335 -0.90921986 1.7922659 4294967295
2.8988001 0.75366735 1.7621961 4294967295
2.9046667 -0.91345406 1.7647411 4294967295
2.8986001 0.74823982 1.7311927 4294967295
2.9089999 0.65778786 1.7260917 4294967295
2.9089999 0.50930154 1.7260917 4294967295
2.8993332 -0.90840721 1.7355329 4294967295
2.8900001 0.754071 1.711509 4294967295
2.900125 0.74576944 1.7022237 4294967295
2.8959999 0.69516355 1.693825 4294967295
2.8900001 0.68031275 1.711509 4294967295
2.8920002 0.51527029 1.7123243 4294967295
2.8983333 -0.89352357 1.7014908 4294967295
2.8994999 -0.90172726 1.7154257 4294967295
2.9024999 1.4408559 1.6627882 4294967295
2.8971252 1.4255815 1.6699082 4294967295
2.895 1.3934661 1.6705754 4294967295
2.9026668 1.3612182 1.6650889 4294967295
2.8959999 1.3402081 1.6602288 4294967295
2.8983333 0.73830152 1.6790791 4294967295
2.9089999 0.52954966 1.6855955 4294967295
2.8961999 -0.89063251 1.6737266 4294967295
2.8983335 2.1975505 1.6319994 4294967295
2.9000003 2.1817739 1.6321901 4294967295
2.8980999 1.4554806 1.6442432 4294967295
2.9024999 1.3263879 1.6560538 4294967295
2.901 1.3004353 1.6487249 4294967295
2.8983335 1.274027 1.6375967 4294967295
2.8959999 1.2595775 1.633352 4294967295
2.8940001 1.211701 1.6325833 4294967295
2.899375 1.1853588 1.6354822 4294967295
2.8900001 1.1630938 1.6310455 4294967295
2.8969998 1.0617247 1.6387707 4294967295
2.8998573 1.0344154 1.6511669 4294967295
2.9020715 1.0020151 1.6462495 4294967295
2.8912001 0.97977656 1.6368737 4294967295
2.9026668 -0.89485621 1.642657 4294967295
2.8983335 2.2221992 1.6118255 4294967295
2.8961668 2.2104661 1.6244519 4294967295
2.9025002 2.1681595 1.625742 4294967295
2.8915005 2.1465309 1.6148485 4294967295
2.9025717 1.9608893 1.6127845 4294967295
2.896286 1.9345611 1.6238538 4294967295
2.8962004 1.9047389 1.6199808 4294967295
2.8995001 1.8749526 1.6077774 4294967295
2.8900003 1.7464545 1.6042243 4294967295
2.8983335 1.6648102 1.6110789 4294967295
2.8980005 1.6360153 1.6235509 4294967295
2.901 1.6050179 1.6251688 4294967295
2.8969998 1.5759193 1.6211244 4294967295
2.8986249 1.5456891 1.609127 4294967295
2.8971429 1.5164638 1.6049757 4294967295
2.8993332 1.4841291 1.6144527 4294967295
2.8959999 1.4678731 1.6266328 4294967295
2.9015713 1.2466167 1.6258693 4294967295
2.8959999 1.2259815 1.6266328 4294967295
2.9000001 1.1509615 1.6227679 4294967295
2.8987 1.1255631 1.6128578 4294967295
2.8997774 1.0975058 1.6198422 4294967295
2.8900001 1.075925 1.6243402 4294967295
2.9089999 0.99525666 1.614727 4294967295
2.8924 0.97750217 1.616532 4294967295
2.8974001 -0.89234251 1.6137052 4294967295
2.8900003 2.2225301 1.5975189 4294967295
2.8994002 2.2149463 1.5841904 4294967295
2.8960001 2.1330752 1.599756 4294967295
2.9025004 2.1142855 1.5887034 4294967295
2.8974001 2.0870376 1.5787579 4294967295
2.9026003 2.055769 1.571229 4294967295
2.8971431 2.0225065 1.5761766 4294967295
2.8983335 1.9935621 1.5905389 4294967295
2.8930004 1.9731243 1.5986375 4294967295
2.8998573 1.8389004 1.5886787 4294967295
2.8973637 1.8150613 1.5831424 4294967295
2.8991539 1.7819824 1.5869495 4294967295
2.8991768 1.7535722 1.5878606 4294967295
2.8915 1.7242172 1.5859996 4294967295
2.8926315 1.6943367 1.5833097 4294967295
2.8983338 1.6775048 1.5856687 4294967295
2.9089999 1.2314848 1.5708561 4294967295
2.9089999 1.2247354 1.5708561 4294967295
2.8983333 0.9960922 1.5916662 4294967295
2.8900001 0.98205096 1.5975189 4294967295
2.8900001 -0.89543122 1.5975189 4294967295
2.9014001 -0.90433639 1.5856237 4294967295
2.9090002 2.2236431 1.5506079 4294967295
2.8960001 2.2137058 1.5594407 4294967295
2.8960001 2.0457253 1.5661598 4294967295
2.8960001 2.0390062 1.5661598 4294967295
2.9071431 1.7500688 1.5547709 4294967295
2.8924005 1.7304571 1.5568131 4294967295
2.9004445 1.6675105 1.5535514 4294967295
2.9073751 1.2383862 1.5550942 4294967295
2.8996668 1.2163197 1.5525441 4294967295
2.8959999 1.1856661 1.5460023 4294967295
2.9024999 1.1647499 1.548305 4294967295
2.8930001 -0.90978521 1.5550078 4294967295
2.9007146 2.2144167 1.5236186 4294967295
2.8900003 1.7363964 1.5371714 4294967295
2.8959999 1.6627303 1.539283 4294967295
2.9003334 1.2367951 1.5363187 4294967295
2.8900001 1.2133836 1.5371714 4294967295
2.8900001 1.1865624 1.5371714 4294967295
2.9024999 0.54519463 1.5381961 4294967295
2.9014001 0.53084826 1.5209885 4294967295
2.89625 -0.9057638 1.5242517 4294967295
2.9025004 2.2119401 1.4910636 4294967295
2.8959999 0.51710433 1.5023274 4294967295
2.8983333 0.50518423 1.4885471 4294967295
2.8983333 -0.89576328 1.493022 4294967295
2.896286 2.2119958 1.4645008 4294967295
2.8936 0.49989176 1.4645967 4294967295
2.8936 -0.88983291 1.4645911 4294967295
2.8983335 2.2035186 1.4339952 4294967295
2.9089999 0.7252816 1.4223698 4294967295
2.8959999 0.71532118 1.4250565 4294967295
2.8900001 0.49926984 1.4298867 4294967295
2.9024999 -0.8959294 1.4439311 4294967295
2.8963335 -0.90186363 1.4296455 4294967295
2.9025002 2.1950967 1.396791 4294967295
2.8920004 2.1882787 1.4070315 4294967295
2.8900001 0.49926984 1.4030654 4294967295
2.8994999 -0.89499992 1.3958663 4294967295
2.9026668 -0.90159088 1.4136558 4294967295
2.902667 2.2300212 1.364278 4294967295
2.8962002 2.2084713 1.3767402 4294967295
2.8900001 0.79430276 1.3762443 4294967295
2.8988004 0.50079006 1.3788252 4294967295
2.8971665 -0.89204729 1.3749883 4294967295
2.9090002 2.2506404 1.3380027 4294967295
2.8950005 2.2384591 1.3481731 4294967295
2.8930001 0.5065003 1.3536367 4294967295
2.9046667 -0.89323616 1.3424137 4294967295
2.9046669 2.2585166 1.3131964 4294967295
2.8930004 2.2449739 1.3267877 4294967295
2.8930001 -0.8846125 1.3133667 4294967295
2.9000003 2.2638626 1.2849965 4294967295
2.8947501 -0.88347024 1.2869649 4294967295
2.9025004 2.2556977 1.2553482 4294967295
2.8963337 2.245296 1.2437062 4294967295
2.8940001 -0.8921957 1.2610373 4294967295
2.9089999 -0.90131807 1.246886 4294967295
2.8988004 2.2319736 1.2241454 4294967295
2.8945 -0.90354115 1.2197526 4294967295
2.8988574 2.2274129 1.198231 4294967295
2.8959999 -0.89729017 1.1831647 4294967295
2.8994999 -0.90172726 1.1973989 4294967295
2.9007003 2.2280543 1.1667354 4294967295
2.9089999 0.52280033 1.1591442 4294967295
2.89925 -0.89157039 1.1671033 4294967295
2.8969002 2.2271528 1.1356471 4294967295
2.8983333 0.51863348 1.1410913 4294967295
2.8930001 -0.89300108 1.1455638 4294967295
2.9026668 -0.90607578 1.1308286 4294967295
2.8953571 2.2400696 1.1028836 4294967295
2.8940001 -0.91009963 1.1088511 4294967295
2.8953753 2.2409317 1.0788956 4294967295
2.901 0.52473724 1.0765871 4294967295
2.9046667 -0.89322603 1.0773101 4294967295
2.8900001 -0.9021365 1.0879166 4294967295
2.8962502 2.2357326 1.04547 4294967295
2.8959999 -0.8704133 1.0487804 4294967295
2.9003334 2.2237375 1.0226445 4294967295
2.8963335 2.2094758 1.0062864 4294967295
2.8900001 0.52609098 1.0208638 4294967295
2.9089999 0.50930154 1.0039085 4294967295
2.8995001 -0.8832106 1.0157939 4294967295
2.8900001 -0.9021365 1.0007479 4294967295
2.8959999 2.2204249 0.97486913 4294967295
2.8988001 2.2104554 0.99010742 4294967295
2.8900001 0.50597513 0.99404263 4294967295
2.9057498 -0.90705299 0.98652458 4294967295
2.8986249 2.2358809 0.95342159 4294967295
2.8930001 -0.89300108 0.95761383 4294967295
2.8990002 2.2371292 0.9253751 4294967295
2.8994999 0.50763834 0.9316802 4294967295
2.9002502 2.2329271 0.89730978 4294967295
2.8994999 0.51436567 0.89804351 4294967295
2.8959999 -0.91744781 0.88080013 4294967295
2.9026668 2.2277715 0.86479396 4294967295
2.8959999 0.52046394 0.86736166 4294967295
2.8959999 -0.92416704 0.86736166 4294967295
2.8959999 -0.93088627 0.8539232 4294967295
2.8961997 2.229305 0.83379352 4294967295
2.8963335 -0.93994856 0.84052169 4294967295
2.8994286 2.2547424 0.80673999 4294967295
2.8924003 2.2471905 0.80787039 4294967295
2.8983333 0.52984768 0.80936038 4294967295
2.8963335 -0.95338851 0.80020177 4294967295
2.9089999 2.2506404 0.78792846 4294967295
2.8961997 2.2413948 0.77464521 4294967295
2.9089999 0.54642314 0.77442968 4294967295
2.8959999 -0.97792077 0.76657349 4294967295
2.8961666 2.227267 0.74418604 4294967295
2.8900001 -0.95577884 0.73253614 4294967295
2.8930001 -0.9769147 0.74618822 4294967295
2.8988001 2.2279475 0.71434444 4294967295
2.8959999 0.55406004 0.72625816 4294967295
2.8983333 0.53431785 0.71969974 4294967295
2.9011998 0.49445528 0.71316594 4294967295
2.9089999 0.46543065 0.71368527 4294967295
2.901 0.43724769 0.71315265 4294967295
2.9024999 0.39705524 0.7199868 4294967295
2.8930001 0.37561837 0.71933228 4294967295
2.8900001 0.34337175 0.71912557 4294967295
2.8930001 0.24807511 0.71933228 4294967295
2.9046667 0.23222062 0.72013611 4294967295
2.8940001 0.1910858 0.7126866 4294967295
2.9089999 0.17858212 0.71368527 4294967295
2.9089999 0.1279618 0.71368527 4294967295
2.9025998 0.1041331 0.71325916 4294967295
2.9089999 0.040219918 0.72043467 4294967295
2.9089999 0.023346478 0.72043467 4294967295
2.8900001 -0.047211591 0.71242028 4294967295
2.8962502 -0.074211136 0.71283638 4294967295
2.8947501 -0.10603213 0.70770758 4294967295
2.8900001 -0.13438039 0.705715 4294967295
2.9024999 -0.17535986 0.71325254 4294967295
2.8915002 -0.19482389 0.71252012 4294967295
2.8900001 -0.21149127 0.71242028 4294967295
2.8900001 -0.26178095 0.71242028 4294967295
2.8930001 -0.2821964 0.71262002 4294967295
2.8986001 -0.31298724 0.71299285 4294967295
2.9038002 -0.34724739 0.71333909 4294967295
2.9089999 -0.37824142 0.71368527 4294967295
2.8962502 -0.43708003 0.70611662 4294967295
2.9089999 -0.45923391 0.70693594 4294967295
2.9089999 -0.57734799 0.70018655 4294967295
2.9089999 -0.67183924 0.70018655 4294967295
2.901 -0.7069909 0.70642185 4294967295
2.8900001 -0.73115152 0.705715 4294967295
2.9089999 -0.76633054 0.70693594 4294967295
2.9038002 -0.79862916 0.70660174 4294967295
2.8900001 -0.82502562 0.705715 4294967295
2.8900001 -0.84849417 0.705715 4294967295
2.901 -0.90891534 0.71315265 4294967295
2.8959999 -0.93760544 0.7228986 4294967295
2.8900001 2.2292354 0.67218852 4294967295
2.8940001 -0.5609464 0.69925743 4294967295
2.8900001 -0.59369296 0.69230437 4294967295
2.89625 -0.61179471 0.69267702 4294967295
2.9003334 -0.63618124 0.69292045 4294967295
2.8959999 -0.67555612 0.69938135 4294967295
2.8989999 2.2390511 0.65441662 4294967295
2.8980415 2.2317734 0.62329769 4294967295
2.9089999 2.2152064 0.61919403 4294967295
2.9003479 2.2363131 0.59549415 4294967295
2.9073751 2.2084804 0.59384358 4294967295
2.9089999 2.1898961 0.58544713 4294967295
2.896889 2.227813 0.57472515 4294967295
2.9009998 2.2048838 0.56452262 4294967295
2.9089999 2.1898961 0.56519902 4294967295
2.9001539 2.2018557 0.53658754 4294967295
2.9089999 2.1898961 0.5449509 4294967295
2.9089999 2.2236431 0.49433059 4294967295
2.8944285 2.212496 0.50741649 4294967295
2.9089997 2.2236431 0.47070777 4294967295
2.8900001 2.2158248 0.4754999 4294967295
2.9037998 2.2344866 0.44384664 4294967295
2.9089999 2.2573898 0.40658867 4294967295
2.8930001 2.2449739 0.42063349 4294967295
2.9089999 2.2573898 0.39308992 4294967295
2.8920002 2.239723 0.37705675 4294967295
2.8989999 2.2294447 0.35365224 4294967295
2.8971248 2.2254784 0.32302886 4294967295
2.9000001 2.2382839 0.29189065 4294967295
2.9046667 2.2540171 0.26412204 4294967295
2.8920002 2.246433 0.26969782 4294967295
2.8997777 2.259943 0.23388648 4294967295
2.9057498 2.2531729 0.20951107 4294967295
2.8924003 2.2445054 0.20255458 4294967295
2.8971429 2.2308922 0.17801794 4294967295
2.9089999 2.2236431 0.13998833 4294967295
2.8900001 2.2158248 0.145823 4294967295
2.8930001 2.2214775 0.10516453 4294967295
2.8900001 2.2158248 0.12235445 4294967295
2.90025 2.2304015 0.086464345 4294967295
2.9046667 2.2225702 0.059672505 4294967295
2.8930001 2.2147653 0.051456064 4294967295
2.8945 2.2125592 0.024362355 4294967295
2.8973999 2.2093947 -0.0063900352 4294967295
2.8900001 2.2225301 -0.045277894 4294967295
2.8970001 2.2102594 -0.038243711 4294967295
2.9089999 2.2506404 -0.069242299 4294967295
2.8976665 2.2366111 -0.060952425 4294967295
2.8973999 2.2403071 -0.09916997 4294967295
2.8983333 2.2221992 -0.1141541 4294967295
2.8983333 2.2020254 -0.12424099 4294967295
2.8930001 2.1845636 -0.13647658 4294967295
2.9026 2.1891041 -0.15547109 4294967295
2.8994999 2.2230866 -0.19849008 4294967295
2.9042501 2.2115645 -0.18618488 4294967295
2.8977499 2.2301588 -0.21150088 4294967295
2.9000001 2.236949 -0.24233651 4294967295
2.8993332 2.2319448 -0.27693224 4294967295
2.9000001 2.2571192 -0.31098896 4294967295
2.8962502 2.242445 -0.30016863 4294967295
2.8978748 2.2647185 -0.33340216 4294967295
2.9057498 2.2565477 -0.363545 4294967295
2.8930001 2.2483265 -0.3647002 4294967295
2.9005001 2.2317128 -0.39167124 4294967295
2.8900001 2.2124722 -0.40401107 4294967295
2.8983333 2.2087648 -0.41674769 4294967295
2.9349999 0.77943194 2.1454535 4294967295
2.9259999 -0.88621885 2.1472425 4294967295
2.9280002 0.77757299 2.12799 4294967295
2.9349999 -0.88894475 2.1386437 4294967295
2.915 0.77412063 2.1073241 4294967295
2.915 -0.88965058 2.0870342 4294967295
2.915 -0.88965052 2.0633626 4294967295
2.9204998 -0.89132911 2.0323675 4294967295
2.928 0.77077955 1.9989142 4294967295
2.915 -0.8964138 1.9991113 4294967295
2.9315 -0.90148789 1.9972773 4294967295
2.925 0.76320332 1.9736578 4294967295
2.9236667 -0.90586233 1.9695818 4294967295
2.915 -0.90317708 1.9517682 4294967295
2.925 -0.89608413 1.9023647 4294967295
2.9315 -0.90148789 1.9224679 4294967295
2.9349999 0.7590028 1.8798752 4294967295
2.9193332 -0.89097297 1.8793999 4294967295
2.9193332 0.76172477 1.845513 4294967295
2.9232497 -0.89385921 1.857473 4294967295
2.928 -0.90041155 1.8426646 4294967295
2.928 0.76398605 1.825681 4294967295
2.9282501 -0.90558004 1.8257887 4294967295
2.9259999 0.75892979 1.7964839 4294967295
2.9281998 -0.91406083 1.7951757 4294967295
2.9241996 0.75213063 1.7703781 4294967295
2.9349999 0.74538344 1.7504909 4294967295
2.9308 -0.91214865 1.7623203 4294967295
2.9237776 0.74478269 1.7322034 4294967295
2.9319997 0.7018618 1.730773 4294967295
2.9349999 0.5410924 1.7436812 4294967295
2.9303334 0.52662885 1.7417356 4294967295
2.9315 0.50643927 1.7320237 4294967295
2.9255998 -0.90509009 1.737029 4294967295
2.9276667 0.73218352 1.7043931 4294967295
2.9349999 0.71405882 1.7055469 4294967295
2.9326668 0.52024394 1.7086923 4294967295
2.9215999 -0.8916555 1.7055508 4294967295
2.9326668 1.4501668 1.6655914 4294967295
2.927444 1.4272023 1.6718476 4294967295
2.9241996 1.400733 1.6740372 4294967295
2.9259999 1.3687891 1.6675063 4294967295
2.925 1.3400325 1.6614556 4294967295
2.915 0.73354083 1.6879996 4294967295
2.915 0.54755014 1.6643281 4294967295
2.928 0.5398019 1.6796216 4294967295
2.9281666 -0.89366895 1.6762673 4294967295
2.9247501 2.2085385 1.6325239 4294967295
2.9303334 1.4739422 1.635218 4294967295
2.9281666 1.4626558 1.6491151 4294967295
2.9315 1.3260256 1.6571982 4294967295
2.9272857 1.3042122 1.6463302 4294967295
2.9227996 1.2807206 1.635509 4294967295
2.928 1.2327348 1.6320673 4294967295
2.9281425 1.2201716 1.6369698 4294967295
2.9281664 1.1886474 1.6355225 4294967295
2.9282501 1.0629812 1.640077 4294967295
2.9246473 1.0341352 1.6419512 4294967295
2.9187143 1.0150225 1.6430377 4294967295
2.9281998 -0.89503181 1.6430171 4294967295
2.9260006 2.2230446 1.6137682 4294967295
2.9310002 2.2077918 1.627759 4294967295
2.9225717 2.1768515 1.6212724 4294967295
2.92325 2.151444 1.603122 4294967295
2.9265001 1.9874859 1.6043336 4294967295
2.9281669 1.9642708 1.6196725 4294967295
2.9205 1.9342691 1.6235622 4294967295
2.9242001 1.9082226 1.6184014 4294967295
2.9255998 1.876574 1.603995 4294967295
2.9249289 1.6662391 1.6119889 4294967295
2.9260001 1.6358277 1.6267735 4294967295
2.9298747 1.6048498 1.6217257 4294967295
2.9245553 1.5765784 1.6126468 4294967295
2.9252853 1.5486277 1.6058202 4294967295
2.9257498 1.5126417 1.6082964 4294967295
2.9242001 1.4862214 1.6211281 4294967295
2.9340668 1.2711413 1.6153065 4294967295
2.9287858 1.2485951 1.6158357 4294967295
2.9326668 1.1757308 1.6247656 4294967295
2.9267859 1.1536344 1.612667 4294967295
2.9232502 1.1205033 1.6048193 4294967295
2.928267 1.0965053 1.6176591 4294967295
2.925 1.078764 1.6275232 4294967295
2.9328997 1.0320181 1.6141933 4294967295
2.9207776 1.0105819 1.6142714 4294967295
2.9282498 -0.89199197 1.620265 4294967295
2.9315 -0.90148789 1.6027856 4294967295
2.9280002 2.2245798 1.5845132 4294967295
2.9280002 2.1396613 1.5947033 4294967295
2.9293337 2.1134331 1.581588 4294967295
2.9182501 2.0885186 1.57419 4294967295
2.9315002 2.0486953 1.5738808 4294967295
2.9289999 2.0267298 1.58488 4294967295
2.9215002 1.9993367 1.5957067 4294967295
2.9336002 1.8667307 1.5810981 4294967295
2.9215 1.8502198 1.5804478 4294967295
2.9224007 1.8139298 1.5761436 4294967295
2.9260004 1.7859584 1.5780354 4294967295
2.9150002 1.7615621 1.5764052 4294967295
2.9215002 1.6807528 1.5889208 4294967295
2.9266665 1.6720271 1.5794924 4294967295
2.9314997 1.2736623 1.5823873 4294967295
2.9253333 1.2480145 1.5846821 4294967295
2.9257498 1.2164912 1.5794526 4294967295
2.9314997 1.1831965 1.5755872 4294967295
2.9326663 1.1545577 1.5763843 4294967295
2.9328997 1.1279584 1.5862913 4294967295
2.9349999 1.0450102 1.5938678 4294967295
2.9247499 -0.91128558 1.5799348 4294967295
2.9250002 2.225682 1.5562649 4294967295
2.9260001 2.0782304 1.5656739 4294967295
2.9238334 2.0619819 1.5660285 4294967295
2.9350004 1.9302714 1.5461999 4294967295
2.9338334 1.8705112 1.5526017 4294967295
2.9272504 1.8440975 1.5557959 4294967295
2.9289482 1.8178899 1.5576657 4294967295
2.9311111 1.7849048 1.5584397 4294967295
2.9150002 1.7615621 1.5628786 4294967295
2.9252858 1.6640228 1.5573505 4294967295
2.9349999 1.3854953 1.5461999 4294967295
2.9298747 1.2734696 1.5580016 4294967295
2.915 1.2529621 1.5581442 4294967295
2.915 1.205619 1.5635548 4294967295
2.915 1.1853291 1.5608497 4294967295
2.9215 1.15881 1.5618148 4294967295
2.9215 0.54877871 1.5516548 4294967295
2.928 0.5398019 1.5437524 4294967295
2.9259999 -0.91337419 1.5566462 4294967295
2.9271669 2.2262008 1.5309951 4294967295
2.9350002 1.940486 1.5359854 4294967295
2.9280002 1.8645265 1.5369589 4294967295
2.923667 1.8482105 1.5377083 4294967295
2.9150002 1.829195 1.539207 4294967295
2.9349999 1.3786856 1.5393902 4294967295
2.9281998 0.52217764 1.5248085 4294967295
2.9215999 -0.90657467 1.5279667 4294967295
2.9280002 2.2245798 1.4961982 4294967295
2.915 0.51035202 1.5053906 4294967295
2.9315 0.50303441 1.4939522 4294967295
2.9259999 -0.89526212 1.4955213 4294967295
2.928 -0.90041155 1.5097852 4294967295
2.9259999 2.2241797 1.4683712 4294967295
2.9260001 2.2162559 1.4525286 4294967295
2.928 0.49904114 1.4656277 4294967295
2.9241998 -0.89245832 1.4677742 4294967295
2.9349999 -0.90256417 1.4508641 4294967295
2.9232504 2.2039993 1.433563 4294967295
2.9303334 0.72607148 1.4425797 4294967295
2.928 0.49904111 1.4350572 4294967295
2.9249997 -0.9028706 1.4307263 4294967295
2.9223335 2.2014332 1.4046516 4294967295
2.92975 0.49933943 1.405009 4294967295
2.9259999 -0.89526212 1.4004779 4294967295
2.928 -0.90041155 1.4146767 4294967295
2.9280002 2.2517536 1.360329 4294967295
2.9238334 2.2315822 1.3726981 4294967295
2.9315002 2.2170324 1.3885398 4294967295
2.9259999 0.50321919 1.371089 4294967295
2.9242001 -0.89245832 1.3727832 4294967295
2.9315002 2.2612429 1.3443336 4294967295
2.9150002 2.2485192 1.3498347 4294967295
2.915 0.51035202 1.3464532 4294967295
2.9295998 -0.89409709 1.3458259 4294967295
2.92325 2.2684362 1.3148935 4294967295
2.9175999 -0.88502735 1.3167343 4294967295
2.9350004 2.2843757 1.2874312 4294967295
2.9280002 2.2789273 1.2991879 4294967295
2.9215999 -0.8875975 1.2839155 4294967295
2.9268 2.2643936 1.258106 4294967295
2.915 -0.8964138 1.2619119 4294967295
2.9259999 -0.90205097 1.2511439 4294967295
2.9350002 2.2503271 1.2397634 4294967295
2.9248335 2.2402599 1.2236879 4294967295
2.9215 0.51149005 1.2330711 4294967295
2.9322 -0.90850633 1.2254703 4294967295
2.9248333 2.2380004 1.1931617 4294967295
2.9349999 -0.89575446 1.1852858 4294967295
2.9215 -0.90179431 1.1957674 4294967295
2.9268 2.2358873 1.1657724 4294967295
2.9315 0.52004236 1.160691 4294967295
2.928 -0.89361811 1.1667154 4294967295
2.9273748 2.2368319 1.1360114 4294967295
2.915 0.51711535 1.1379181 4294967295
2.915 -0.8964138 1.1469358 4294967295
2.9264998 -0.908427 1.1324441 4294967295
2.932667 2.2508028 1.1031108 4294967295
2.9176002 2.241044 1.1109431 4294967295
2.9241996 0.51874739 1.108182 4294967295
2.9214997 -0.91027105 1.1042743 4294967295
2.9315002 2.2544451 1.0858655 4294967295
2.9150002 2.2485192 1.0725396 4294967295
2.9326668 0.52705365 1.0758828 4294967295
2.925 -0.88251114 1.0642438 4294967295
2.9349999 -0.90256417 1.08995 4294967295
2.932667 2.2530725 1.0486711 4294967295
2.9150002 2.241756 1.043232 4294967295
2.9283333 0.53306913 1.0501289 4294967295
2.928 -0.87323773 1.0342429 4294967295
2.9271667 2.2261932 1.0159687 4294967295
2.915 2.2147028 1.0049067 4294967295
2.9216664 0.51828253 1.0195577 4294967295
2.9283333 -0.89143443 1.0161887 4294967295
2.925 -0.90627545 1.0031652 4294967295
2.9244287 2.230577 0.98127759 4294967295
2.92975 0.50613689 0.98357499 4294967295
2.9259999 -0.90658528 0.98186654 4294967295
2.9315 2.2510405 0.95324683 4294967295
2.9193332 2.2428241 0.95822406 4294967295
2.9315 0.50643927 0.96343702 4294967295
2.9193332 -0.89322746 0.95369506 4294967295
2.9322 2.2508974 0.92611957 4294967295
2.915 2.241756 0.92374706 4294967295
2.9215 0.51149005 0.92125058 4294967295
2.9215 -0.89163429 0.9348073 4294967295
2.9349999 2.2503271 0.90608805 4294967295
2.9236667 2.2416377 0.89104044 4294967295
2.9315 0.52004236 0.88861966 4294967295
