# .PCD v0.7 - Point Cloud Data file format
VERSION 0.7
FIELDS x y z rgb
SIZE 4 4 4 4
TYPE F F F U
COUNT 1 1 1 1
WIDTH 1088
HEIGHT 1
VIEWPOINT 0 0 0 1 0 0 0
POINTS 1088
DATA ascii
0.42061198 0.81248385 0.076697052 4278190080
0.42575103 0.81542599 0.077132829 4278190080
0.42859453 0.81393498 0.077132829 4278190080
0.43376938 0.81683302 0.077568613 4278190080
0.43661821 0.81531382 0.077568613 4278190080
0.43946126 0.8137849 0.077568613 4278190080
0.44244084 0.81216878 0.077568613 4278190080
0.44527334 0.81061935 0.077568613 4278190080
0.44810039 0.80906004 0.077568613 4278190080
0.45335004 0.81183994 0.07800439 4278190080
0.45618129 0.81025237 0.07800439 4278190080
0.46146536 0.81298703 0.078440167 4278190080
0.46430057 0.81137115 0.078440167 4278190080
0.46713012 0.80974537 0.078440167 4278190080
0.46995357 0.80811 0.078440167 4278190080
0.4727717 0.80646455 0.078440167 4278190080
0.47825903 0.8090142 0.078875944 4278190080
0.48108026 0.80733973 0.078875944 4278190080
0.48645985 0.80992562 0.079311721 4278190080
0.49186376 0.81248355 0.079747498 4278190080
0.49469703 0.81076157 0.079747498 4278190080
0.5001331 0.81327283 0.080183282 4278190080
0.50311041 0.81143439 0.080183282 4278190080
0.50857943 0.81389725 0.08061906 4278190080
0.51141757 0.81211692 0.08061906 4278190080
0.51691794 0.81453258 0.081054844 4278190080
0.51975822 0.8127231 0.081054844 4278190080
0.52259171 0.81090403 0.081054844 4278190080
0.52541929 0.80907476 0.081054844 4278190080
0.53096789 0.81140357 0.081490621 4278190080
0.53393811 0.80945212 0.081490621 4278190080
0.53676015 0.80758357 0.081490621 4278190080
0.54234767 0.80984354 0.081926398 4278190080
0.54517138 0.80794531 0.081926398 4278190080
0.55078852 0.81015676 0.082362175 4278190080
0.55361331 0.80822909 0.082362175 4278190080
0.55926001 0.81039137 0.082797952 4278190080
0.56492901 0.81252378 0.083233736 4278190080
0.56790316 0.81044781 0.083233736 4278190080
0.57360148 0.81252956 0.083669513 4278190080
0.57643437 0.81052226 0.083669513 4278190080
0.58216083 0.81255442 0.08410529 4278190080
0.58499378 0.81051719 0.08410529 4278190080
0.58781922 0.80847043 0.08410529 4278190080
0.59358108 0.81043196 0.084541067 4278190080
0.59640658 0.80835491 0.084541067 4278190080
0.60219556 0.81026608 0.084976844 4278190080
0.60800552 0.81214637 0.085412621 4278190080
0.61083645 0.81001925 0.085412621 4278190080
0.61667329 0.8118484 0.085848406 4278190080
0.61950356 0.80969071 0.085848406 4278190080
0.6223259 0.80752355 0.085848406 4278190080
0.62819529 0.80928081 0.086284183 4278190080
0.63101614 0.80708331 0.086284183 4278190080
0.63691139 0.8087889 0.086719967 4278190080
0.63973087 0.80656058 0.086719967 4278190080
0.64268267 0.80421054 0.086719967 4278190080
0.6486088 0.8058427 0.087155744 4278190080
0.65141797 0.80357355 0.087155744 4278190080
0.65736932 0.80515295 0.087591521 4278190080
0.66017556 0.80285364 0.087591521 4278190080
0.66615117 0.80438042 0.088027298 4278190080
0.6690948 0.80193353 0.088027298 4278190080
0.67509454 0.80340636 0.088463075 4278190080
0.67789453 0.80104512 0.088463075 4278190080
0.6839177 0.80246478 0.088898852 4278190080
0.68671483 0.80007243 0.088898852 4278190080
0.68950313 0.79767066 0.088898852 4278190080
0.69555396 0.79901576 0.089334637 4278190080
0.69833851 0.79658318 0.089334637 4278190080
0.70441163 0.79787451 0.089770414 4278190080
0.7071926 0.79541063 0.089770414 4278190080
0.71328712 0.79664832 0.090206191 4278190080
0.71939927 0.79785275 0.090641968 4278190080
0.7256676 0.79889774 0.091077745 4278190080
0.72845203 0.79635966 0.091077745 4278190080
0.73460186 0.79747581 0.091513529 4278190080
0.74076873 0.79855829 0.091949306 4278190080
0.74355143 0.79596788 0.091949306 4278190080
0.7497384 0.7969954 0.092385083 4278190080
0.75594157 0.79798937 0.09282086 4278190080
0.75872219 0.79534602 0.09282086 4278190080
0.76494473 0.79628462 0.093256637 4278190080
0.77118254 0.79718989 0.093692414 4278190080
0.77743638 0.79806077 0.094128199 4278190080
0.78370571 0.79889774 0.094563976 4278190080
0.78648931 0.79615748 0.094563976 4278190080
0.79277676 0.79693848 0.09499976 4278190080
0.79907864 0.79768556 0.095435537 4278190080
0.80539578 0.7983979 0.095871322 4278190080
0.81186676 0.7989344 0.096307099 4278190080
0.82177562 0.80305797 0.097178653 4278190080
0.82814813 0.8036536 0.09761443 4278190080
0.83812177 0.80767041 0.098485991 4278190080
0.84093612 0.80473971 0.098485991 4278190080
0.84012914 0.79836845 0.098050207 4278190080
0.84305 0.79528356 0.098050207 4278190080
1.1244138 0.81393975 0.11809603 4278190080
1.1353378 0.81582338 0.11896759 4278190080
1.1260136 0.80317771 0.11766025 4278190080
1.1166151 0.79060715 0.11635291 4278190080
1.1193677 0.78670496 0.11635291 4278190080
1.1181579 0.77974802 0.11591713 4278190080
1.120873 0.77583992 0.11591713 4278190080
1.1276799 0.77474296 0.11635291 4278190080
1.1344925 0.77360845 0.11678869 4278190080
1.1413113 0.77243525 0.11722448 4278190080
1.1481351 0.77122438 0.11766025 4278190080
1.1549648 0.76997459 0.11809603 4278190080
1.1617997 0.76868653 0.11853181 4278190080
1.1686392 0.76736075 0.11896759 4278190080
1.1713108 0.76327652 0.11896759 4278190080
1.1781503 0.76188838 0.11940337 4278190080
1.1808028 0.75777102 0.11940337 4278190080
1.1877739 0.75611305 0.11983915 4278190080
1.1946174 0.75462216 0.12027492 4278190080
1.2014648 0.75309277 0.1207107 4278190080
1.2083156 0.75152528 0.12114648 4278190080
1.2194092 0.75253439 0.12201804 4278190080
1.2262763 0.75087476 0.12245382 4278190080
1.237404 0.75176185 0.12332537 4278190080
1.2442867 0.750009 0.12376115 4278190080
1.2554466 0.75077438 0.12463271 4278190080
1.2623436 0.74892867 0.12506849 4278190080
1.2735351 0.7495712 0.12594004 4278190080
1.2804455 0.74763244 0.12637582 4278190080
1.2916679 0.748151 0.12724738 4278190080
1.2985902 0.74611956 0.12768316 4278190080
1.309842 0.74651456 0.12855472 4278190080
1.3167756 0.74438947 0.1289905 4278190080
1.3281854 0.7444284 0.12986206 4278190080
1.3351291 0.74220818 0.13029784 4278190080
1.3464358 0.74235278 0.13116939 4278190080
1.3577592 0.74242812 0.13204095 4278190080
1.3690999 0.74243271 0.1329125 4278190080
1.3760701 0.74000794 0.13334829 4278190080
1.3919595 0.74198872 0.13465562 4278190080
1.4033484 0.7417804 0.13552718 4278190080
1.4146229 0.74174947 0.13639873 4278190080
1.4260423 0.74140197 0.13727029 4278190080
1.4374765 0.74098372 0.13814184 4278190080
1.4489247 0.74049538 0.13901339 4278190080
1.4603873 0.7399354 0.13988496 4278190080
1.4718632 0.73930508 0.14075653 4278190080
1.4833525 0.73860288 0.14162809 4278190080
1.4948549 0.73782933 0.14249964 4278190080
1.5064982 0.73672211 0.14337119 4278190080
1.5180252 0.73580372 0.14424275 4278190080
1.5295637 0.73481464 0.1451143 4278190080
1.541114 0.73375314 0.14598587 4278190080
1.552675 0.73262072 0.14685743 4278190080
1.5687593 0.7335254 0.14816475 4278190080
1.5803492 0.73223263 0.14903632 4278190080
1.5964754 0.73294687 0.15034364 4278190080
1.6082196 0.73121411 0.15121521 4278190080
1.6243868 0.7317329 0.15252255 4278190080
1.6360284 0.73011774 0.1533941 4278190080
1.6522337 0.73044509 0.15470144 4278190080
1.6684614 0.73066723 0.15600878 4278190080
1.6847103 0.73078579 0.15731612 4278190080
1.7009804 0.7307989 0.15862344 4278190080
1.7218544 0.73265743 0.16036656 4278190080
1.7106309 0.72084045 0.15905923 4278190080
1.7085401 0.71294636 0.15862344 4278190080
1.7110181 0.70697862 0.15862344 4278190080
1.7273059 0.7066595 0.15993078 4278190080
1.7482288 0.70810515 0.16167389 4278190080
1.7645591 0.70756036 0.16298124 4278190080
1.7855368 0.70874685 0.16472435 4278190080
1.8019075 0.70797491 0.16603169 4278190080
1.8230611 0.70858306 0.1677748 4278190080
1.8394698 0.70758045 0.16908213 4278190080
1.8605491 0.70824289 0.17082524 4278190080
1.8769935 0.70701194 0.17213258 4278190080
1.8935757 0.70534301 0.17343993 4278190080
1.9147208 0.70561898 0.17518304 4278190080
1.9312112 0.70404875 0.17649037 4278190080
1.9523997 0.70406163 0.17823347 4278190080
1.9689198 0.70226282 0.17954083 4278190080
1.9901484 0.70201313 0.18128394 4278190080
2.0113988 0.70162469 0.18302706 4278190080
2.0279622 0.69947129 0.1843344 4278190080
2.0492492 0.69881833 0.18607751 4278190080
2.0705557 0.6980263 0.18782063 4278190080
2.0918818 0.69709289 0.18956374 4278190080
2.1132259 0.69602013 0.19130684 4278190080
2.1393249 0.69634736 0.19348575 4278190080
2.1607096 0.69497555 0.19522886 4278190080
2.186857 0.69497257 0.19740775 4278190080
2.2130313 0.69479436 0.19958664 4278190080
2.2344725 0.69296753 0.20132977 4278190080
2.2606909 0.69245708 0.20350866 4278190080
2.2822852 0.68993223 0.20525178 4278190080
2.3085439 0.68908417 0.20743066 4278190080
2.3300464 0.68665439 0.20917377 4278190080
2.3563428 0.68547297 0.21135268 4278190080
2.3874464 0.68549079 0.21396734 4278190080
2.4137862 0.68394309 0.21614625 4278190080
2.444941 0.68355966 0.21876091 4278190080
2.4713204 0.68164384 0.2209398 4278190080
2.5025225 0.68085849 0.22355449 4278190080
2.5289381 0.6785726 0.22573337 4278190080
2.5601826 0.67738593 0.22834803 4278190080
2.59145 0.67598796 0.23096271 4278190080
2.6227379 0.6743812 0.23357737 4278190080
2.6588745 0.6737864 0.23662783 4278190080
2.6903229 0.6712721 0.23924251 4278190080
2.7265089 0.67019928 0.24229296 4278190080
2.7530372 0.6665377 0.24447185 4278190080
2.7892632 0.66501087 0.24752229 4278190080
2.8303609 0.6643759 0.25100854 4278190080
2.7889848 0.64440107 0.24708654 4278190080
2.5823662 0.58717304 0.22834803 4278190080
2.5455136 0.5694555 0.22486182 4278190080
2.5426211 0.55949694 0.22442605 4278190080
2.5250854 0.54640371 0.22268291 4278190080
2.5172331 0.53551412 0.22181135 4278190080
2.5093362 0.52468467 0.2209398 4278190080
2.5013945 0.51391685 0.22006823 4278190080
2.5031729 0.50518304 0.22006823 4278190080
2.5001216 0.49503797 0.21963248 4278190080
2.5018346 0.48630738 0.21963248 4278190080
2.5035169 0.47757083 0.21963248 4278190080
2.5100644 0.46974605 0.22006823 4278190080
2.5165882 0.46188009 0.22050403 4278190080
2.523087 0.45397559 0.2209398 4278190080
2.5344672 0.44689494 0.22181135 4278190080
2.5458283 0.43974033 0.22268291 4278190080
2.5620813 0.43334392 0.22399025 4278190080
2.5586646 0.42358389 0.22355449 4278190080
2.5502934 0.41305795 0.22268291 4278190080
2.6796308 0.42441183 0.23401317 4278190080
2.799232 0.43334341 0.24447185 4278190080
2.8155024 0.42580503 0.24577919 4278190080
2.8169718 0.4159739 0.24577919 4278190080
2.8233366 0.40684965 0.24621497 4278190080
2.8148744 0.39560482 0.2453434 4278190080
2.8162384 0.38577604 0.2453434 4278190080
2.8126307 0.37528536 0.24490763 4278190080
2.8139236 0.36546454 0.24490763 4278190080
2.815182 0.3556408 0.24490763 4278190080
2.8164062 0.34581122 0.24490763 4278190080
2.8126502 0.33538765 0.24447185 4278190080
2.8138037 0.3255685 0.24447185 4278190080
2.814923 0.31574392 0.24447185 4278190080
2.8110564 0.30537906 0.24403608 4278190080
2.8121569 0.29507288 0.24403608 4278190080
2.8082139 0.28475323 0.24360029 4278190080
2.8091908 0.27494839 0.24360029 4278190080
2.8101335 0.2651417 0.24360029 4278190080
2.8110418 0.25533029 0.24360029 4278190080
2.8119161 0.24551578 0.24360029 4278190080
2.8127558 0.23569976 0.24360029 4278190080
2.8135614 0.22587937 0.24360029 4278190080
2.8143327 0.21605773 0.24360029 4278190080
2.8150699 0.20623197 0.24360029 4278190080
2.8108039 0.1960571 0.24316452 4278190080
2.811471 0.18624526 0.24316452 4278190080
2.812104 0.17642967 0.24316452 4278190080
2.8077304 0.16631888 0.24272873 4278190080
2.8082938 0.15651645 0.24272873 4278190080
2.8088231 0.14671212 0.24272873 4278190080
2.8093181 0.1369075 0.24272873 4278190080
2.8097789 0.12709972 0.24272873 4278190080
2.8102055 0.11729189 0.24272873 4278190080
2.8056204 0.1072908 0.24229296 4278190080
2.8059781 0.0974961 0.24229296 4278190080
2.8063011 0.087701716 0.24229296 4278190080
2.8066037 0.077414438 0.24229296 4278190080
2.8068569 0.06761799 0.24229296 4278190080
2.8070757 0.057819221 0.24229296 4278190080
2.8072605 0.048021242 0.24229296 4278190080
2.807411 0.038221184 0.24229296 4278190080
2.8025465 0.028370237 0.24185717 4278190080
2.8026285 0.018588247 0.24185717 4278190080
2.8026762 0.0088045383 0.24185717 4278190080
2.80269 -0.0009783234 0.24185717 4278190080
2.8026695 -0.010761531 0.24185717 4278190080
2.8026149 -0.020544607 0.24185717 4278190080
2.7975454 -0.030273538 0.2414214 4278190080
2.7974229 -0.040038608 0.2414214 4278190080
2.797266 -0.049803194 0.2414214 4278190080
2.797075 -0.059567172 0.2414214 4278190080
2.7968502 -0.069330417 0.2414214 4278190080
2.796591 -0.07909283 0.2414214 4278190080
2.796298 -0.088854276 0.2414214 4278190080
2.8009486 -0.098790199 0.24185717 4278190080
2.8005867 -0.10856673 0.24185717 4278190080
2.8001699 -0.11883067 0.24185717 4278190080
2.7947624 -0.12837581 0.2414214 4278190080
2.7942972 -0.13813056 0.2414214 4278190080
2.793798 -0.14788364 0.2414214 4278190080
2.7932923 -0.15714739 0.2414214 4278190080
2.7927268 -0.16689685 0.2414214 4278190080
2.7921579 -0.17615694 0.2414214 4278190080
2.7964959 -0.18623328 0.24185717 4278190080
2.7957945 -0.1964817 0.24185717 4278190080
2.7950916 -0.20623964 0.24185717 4278190080
2.7943547 -0.21599509 0.24185717 4278190080
2.7935836 -0.22574788 0.24185717 4278190080
2.7927375 -0.23598537 0.24185717 4278190080
2.7918968 -0.24573241 0.24185717 4278190080
2.7910221 -0.25547644 0.24185717 4278190080
2.7901132 -0.26521736 0.24185717 4278190080
2.7891705 -0.27495509 0.24185717 4278190080
2.7881937 -0.28468943 0.24185717 4278190080
2.7921364 -0.29494357 0.24229296 4278190080
2.79109 -0.30468813 0.24229296 4278190080
2.7900093 -0.31442899 0.24229296 4278190080
2.7888949 -0.32416603 0.24229296 4278190080
2.7926917 -0.33449146 0.24272873 4278190080
2.7915072 -0.34423774 0.24272873 4278190080
2.7902884 -0.35397983 0.24272873 4278190080
2.7890358 -0.36371759 0.24272873 4278190080
2.7877493 -0.37345093 0.24272873 4278190080
2.7913635 -0.38385829 0.24316452 4278190080
2.7900064 -0.39359963 0.24316452 4278190080
2.7886155 -0.40333617 0.24316452 4278190080
2.7921176 -0.41379803 0.24360029 4278190080
2.7906563 -0.42354181 0.24360029 4278190080
2.7362313 -0.42799315 0.14313884 4278190080
2.7347207 -0.43754175 0.14313884 4278190080
2.7331767 -0.44708502 0.14313884 4278190080
2.7315993 -0.45662287 0.14313884 4278190080
2.7349107 -0.4669956 0.14340052 4278190080
2.733264 -0.4765394 0.14340052 4278190080
2.7315841 -0.48607737 0.14340052 4278190080
2.7347834 -0.4965013 0.1436622 4278190080
2.7330337 -0.50604445 0.1436622 4278190080
2.7312505 -0.51558143 0.1436622 4278190080
2.7343373 -0.52605551 0.14392388 4278190080
2.7324846 -0.53559691 0.14392388 4278190080
2.7305982 -0.5451318 0.14392388 4278190080
2.7286787 -0.55466002 0.14392388 4278190080
2.7267261 -0.56418151 0.14392388 4278190080
2.7296259 -0.57472485 0.14418556 4278190080
2.7276032 -0.58424956 0.14418556 4278190080
2.7304261 -0.59482998 0.14444724 4278190080
2.728333 -0.6043573 0.14444724 4278190080
2.7262068 -0.61387724 0.14444724 4278190080
2.7240474 -0.62338978 0.14444724 4278190080
2.7218547 -0.63289469 0.14444724 4278190080
2.7244883 -0.64353967 0.14470892 4278190080
2.7222252 -0.65304595 0.14470892 4278190080
2.7247806 -0.66372609 0.1449706 4278190080
2.7224472 -0.67323333 0.1449706 4278190080
2.7249234 -0.68394786 0.14523228 4278190080
2.7225192 -0.69345546 0.14523228 4278190080
2.7249165 -0.7042039 0.14549395 4278190080
2.7224417 -0.71371138 0.14549395 4278190080
2.7247591 -0.72449315 0.14575563 4278190080
2.7222137 -0.73399991 0.14575563 4278190080
2.7244515 -0.74481452 0.14601731 4278190080
2.7218349 -0.75432009 0.14601731 4278190080
2.7191854 -0.76381642 0.14601731 4278190080
2.7213047 -0.7746706 0.14627899 4278190080
2.7185841 -0.78416497 0.14627899 4278190080
2.720623 -0.7950505 0.14654067 4278190080
2.7178311 -0.80454236 0.14654067 4278190080
2.719789 -0.81545842 0.14680235 4278190080
2.7217038 -0.82639796 0.14706403 4278190080
2.7188025 -0.83589351 0.14706403 4278190080
2.7206357 -0.84686279 0.14732571 4278190080
2.7176628 -0.85635436 0.14732571 4278190080
2.7194142 -0.8673529 0.14758739 4278190080
2.7163701 -0.87684005 0.14758739 4278190080
2.7180393 -0.88786715 0.14784908 4278190080
2.7149234 -0.89734948 0.14784908 4278190080
2.7165098 -0.90840429 0.14811075 4278190080
2.7180524 -0.91948128 0.14837244 4278190080
2.7148261 -0.92896336 0.14837244 4278190080
2.7162855 -0.94006723 0.14863411 4278190080
2.7129874 -0.94954318 0.14863411 4278190080
2.7143636 -0.96067339 0.1488958 4278190080
2.7109935 -0.97014248 0.1488958 4278190080
2.7122858 -0.98129833 0.14915746 4278190080
2.7088439 -0.99076003 0.14915746 4278190080
2.7100525 -1.0019412 0.14941916 4278190080
2.7112157 -1.0131427 0.14968082 4278190080
2.7076626 -1.0226004 0.14968082 4278190080
2.7087417 -1.0338261 0.14994252 4278190080
2.709775 -1.0450718 0.15020418 4278190080
2.710763 -1.0563374 0.15046588 4278190080
2.711705 -1.0676223 0.15072754 4278190080
2.7079618 -1.0770814 0.15072754 4278190080
2.7088189 -1.088389 0.15098923 4278190080
2.7096298 -1.0997157 0.15125091 4278190080
2.7103946 -1.1110613 0.15151259 4278190080
2.7064998 -1.1205155 0.15151259 4278190080
2.7071786 -1.1318822 0.15177427 4278190080
2.7078111 -1.1432673 0.15203595 4278190080
2.7083969 -1.1546705 0.15229763 4278190080
2.7089362 -1.1660918 0.15255931 4278190080
2.7094285 -1.1775308 0.15282099 4278190080
2.7100816 -1.1885146 0.15308267 4278190080
2.7104821 -1.1999885 0.15334435 4278190080
2.7062769 -1.2094426 0.15334435 4278190080
2.7065902 -1.2209351 0.15360603 4278190080
2.706856 -1.2324444 0.15386771 4278190080
2.7068574 -1.2444431 0.15412939 4278190080
2.7072456 -1.2555131 0.15439108 4278190080
2.7073689 -1.2670721 0.15465274 4278190080
2.7074444 -1.2786472 0.15491444 4278190080
2.7074721 -1.290238 0.1551761 4278190080
2.7074518 -1.3018448 0.1554378 4278190080
2.7073834 -1.313467 0.15569946 4278190080
2.707267 -1.3251047 0.15596116 4278190080
2.7071018 -1.3367575 0.15622282 4278190080
2.7068887 -1.3484254 0.15648451 4278190080
2.7066267 -1.3601079 0.15674618 4278190080
2.7063162 -1.371805 0.15700787 4278190080
2.7059569 -1.3835164 0.15726954 4278190080
2.705549 -1.3952422 0.15753123 4278190080
2.705092 -1.4069818 0.1577929 4278190080
2.704586 -1.4187353 0.15805459 4278190080
2.6996171 -1.4281673 0.15805459 4278190080
2.6990209 -1.4399323 0.15831625 4278190080
2.6983752 -1.4517107 0.15857795 4278190080
2.6976802 -1.4635018 0.15883961 4278190080
2.7013164 -1.4777021 0.15936297 4278190080
2.7005141 -1.4895341 0.15962467 4278190080
2.6996617 -1.5013784 0.15988633 4278190080
2.6987598 -1.513235 0.16014802 4278190080
2.6978078 -1.5251032 0.1604097 4278190080
2.701144 -1.539456 0.16093306 4278190080
2.7000833 -1.5513628 0.16119474 4278190080
2.6989722 -1.5632811 0.16145642 4278190080
2.6978109 -1.5752103 0.1617181 4278190080
2.696599 -1.5871506 0.16197978 4278190080
2.6953366 -1.5991015 0.16224146 4278190080
2.6983089 -1.6136255 0.16276482 4278190080
2.6969364 -1.6256124 0.1630265 4278190080
2.6955128 -1.637609 0.16328818 4278190080
2.6982965 -1.6522229 0.16381153 4278190080
2.6967621 -1.6642541 0.16407323 4278190080
2.6994162 -1.6789315 0.16459659 4278190080
2.6980648 -1.6905249 0.16485825 4278190080
2.6963694 -1.7025986 0.16511995 4278190080
2.6991346 -1.7168905 0.1656433 4278190080
2.6973288 -1.7289963 0.16590497 4278190080
2.6951673 -1.7415808 0.16616666 4278190080
2.6974401 -1.7564273 0.16669002 4278190080
2.6996422 -1.7713108 0.16721338 4278190080
2.6934428 -1.7807235 0.16721338 4278190080
2.6685078 -1.7911354 0.16642833 4278190080
2.6882443 -2.1200016 0.17741889 4278190080
2.6612785 -2.1138446 0.17611049 4278190080
2.6694796 -2.1355982 0.17715721 4278190080
2.6697848 -2.1511691 0.17768057 4278190080
2.6622596 -2.1604753 0.17768057 4278190080
2.4625823 -2.4497218 0.18003568 4278190080
2.411685 -2.4158976 0.17689553 4278190080
2.4102676 -2.4313934 0.17741889 4278190080
2.3667374 -2.4042091 0.17480209 4278190080
2.3618212 -2.4160266 0.17506377 4278190080
2.3464174 -2.4170907 0.17454042 4278190080
2.3245249 -2.4104815 0.17349368 4278190080
2.3057363 -2.4077623 0.17270866 4278190080
0.8566559 -0.93291259 0.064373225 4278190080
0.83657253 -0.9174493 0.063064821 4278190080
0.83024478 -0.92988402 0.0633265 4278190080
0.81390417 -0.91768968 0.062279783 4278190080
2.0465786 -2.3734956 0.16224146 4278190080
2.0317862 -2.3730392 0.1617181 4278190080
2.036427 -2.3953338 0.16276482 4278190080
2.0248325 -2.3986123 0.16250314 4278190080
2.006825 -2.3941855 0.1617181 4278190080
1.9888731 -2.3896627 0.16093306 4278190080
1.9741578 -2.3888927 0.1604097 4278190080
1.9594724 -2.3880491 0.15988633 4278190080
1.9448171 -2.3871322 0.15936297 4278190080
1.9301921 -2.3861423 0.15883961 4278190080
1.9155978 -2.3850794 0.15831625 4278190080
1.9010345 -2.3839438 0.1577929 4278190080
1.8865025 -2.3827357 0.15726954 4278190080
1.875088 -2.385381 0.15700787 4278190080
1.8579493 -2.3797786 0.15622282 4278190080
1.8465722 -2.3823032 0.15596116 4278190080
1.8177704 -2.3792658 0.15491444 4278190080
1.7822819 -2.4369638 0.15622282 4278190080
1.7185155 -2.3845346 0.15203595 4278190080
1.68694 -2.3580313 0.14994252 4278190080
1.6902627 -2.3801897 0.15098923 4278190080
1.6733135 -2.3738317 0.15020418 4278190080
1.6621546 -2.3755672 0.14994252 4278190080
1.6481557 -2.3731525 0.14941916 4278190080
1.6341941 -2.3706691 0.1488958 4278190080
1.6235033 -2.3719549 0.14863411 4278190080
1.6096021 -2.3693471 0.14811075 4278190080
1.5985304 -2.3708112 0.14784908 4278190080
1.587468 -2.372227 0.14758739 4278190080
1.5736529 -2.3694351 0.14706403 4278190080
1.5626243 -2.3707445 0.14680235 4278190080
1.5516061 -2.3720062 0.14654067 4278190080
1.5378795 -2.3690317 0.14601731 4278190080
1.52731 -2.3699212 0.14575563 4278190080
1.516338 -2.3710318 0.14549395 4278190080
1.5027015 -2.3678787 0.1449706 4278190080
1.4917661 -2.3688843 0.14470892 4278190080
1.4781961 -2.3656082 0.14418556 4278190080
1.4672985 -2.3665102 0.14392388 4278190080
1.4537961 -2.3631122 0.14340052 4278190080
1.4429371 -2.3639104 0.14313884 4278190080
1.4320902 -2.3646619 0.14287716 4278190080
1.4238272 -2.3696463 0.14287716 4278190080
1.4078767 -2.3617353 0.14209212 4278190080
1.3970824 -2.3623376 0.14183044 4278190080
1.3863013 -2.3628931 0.14156877 4278190080
0.55178887 -0.97092938 0.056522828 4278190080
0.51897335 -0.92065358 0.053382676 4278190080
1.267779 -2.3437304 0.13764356 4278190080
1.2548696 -2.3393414 0.1371202 4278190080
1.2560756 -2.3613405 0.13816692 4278190080
1.2431666 -2.3568778 0.13764356 4278190080
1.2326179 -2.3567784 0.13738188 4278190080
1.222085 -2.3566341 0.1371202 4278190080
1.2115682 -2.3564451 0.13685852 4278190080
1.2010676 -2.3562114 0.13659684 4278190080
1.1905837 -2.3559332 0.13633516 4278190080
1.1801161 -2.3556104 0.13607349 4278190080
1.1700764 -2.3550394 0.13581181 4278190080
1.1596426 -2.3546298 0.13555013 4278190080
1.149226 -2.3541763 0.13528845 4278190080
1.1388265 -2.3536789 0.13502677 4278190080
1.1288553 -2.3529408 0.13476509 4278190080
1.1184912 -2.3523571 0.13450341 4278190080
1.1081449 -2.3517303 0.13424173 4278190080
1.0974058 -2.3512516 0.13398005 4278190080
1.0875062 -2.3503461 0.13371836 4278190080
1.0772142 -2.3495891 0.13345669 4278190080
1.0669411 -2.3487887 0.133195 4278190080
1.0566868 -2.3479455 0.13293333 4278190080
1.046451 -2.3470592 0.13267164 4278190080
1.0362346 -2.3461304 0.13240997 4278190080
1.0244445 -2.3404057 0.1318866 4278190080
1.0142825 -2.339386 0.13162492 4278190080
1.0080804 -2.3475006 0.1318866 4278190080
0.987791 -2.3452778 0.13136324 4278190080
0.38551176 -0.9517827 0.051812593 4278190080
0.38218698 -0.95312262 0.051812593 4278190080
0.89331514 -2.3455009 0.12953149 4278190080
0.878079 -2.3299155 0.12848477 4278190080
0.86994058 -2.3329666 0.12848477 4278190080
0.86524826 -2.3453579 0.12900813 4278190080
0.85192078 -2.3342924 0.12822309 4278190080
0.84376717 -2.3372521 0.12822309 4278190080
0.83265239 -2.3306329 0.12769973 4278190080
0.82451171 -2.3335254 0.12769973 4278190080
0.81512094 -2.3315332 0.12743805 4278190080
0.80534613 -2.3296452 0.12717636 4278190080
0.79680216 -2.3325813 0.12717636 4278190080
0.7870577 -2.3306177 0.12691469 4278190080
0.77774274 -2.3284788 0.126653 4278190080
0.76960993 -2.3311796 0.126653 4278190080
0.75991929 -2.3291049 0.12639134 4278190080
0.75178468 -2.3317435 0.12639134 4278190080
0.74212497 -2.3295958 0.12612964 4278190080
0.73398876 -2.3321722 0.12612964 4278190080
0.724361 -2.329952 0.12586798 4278190080
0.71475798 -2.327693 0.12560628 4278190080
0.70517957 -2.3253956 0.12534462 4278190080
0.6956256 -2.3230596 0.12508292 4278190080
0.68650198 -2.3205657 0.12482125 4278190080
0.67839736 -2.322948 0.12482125 4278190080
0.66890174 -2.320504 0.12455957 4278190080
0.65943116 -2.3180223 0.12429789 4278190080
0.6513359 -2.3203099 0.12429789 4278190080
0.6405673 -2.3129454 0.12377454 4278190080
0.63643712 -2.329617 0.12455957 4278190080
0.62830144 -2.3318243 0.12455957 4278190080
0.23605163 -0.92741996 0.048149079 4278190080
0.24269935 -0.96694112 0.050242517 4278190080
0.23932266 -0.96778238 0.050242517 4278190080
0.21703553 -0.89099115 0.046055641 4278190080
0.5217399 -2.3170276 0.12246613 4278190080
0.51472849 -2.3237097 0.12272782 4278190080
0.50661421 -2.3254924 0.12272782 4278190080
0.49744764 -2.3223641 0.12246613 4278190080
0.48933816 -2.3240864 0.12246613 4278190080
0.48021105 -2.3208909 0.12220446 4278190080
0.47310114 -2.327446 0.12246613 4278190080
0.46440229 -2.3241057 0.12220446 4278190080
0.45628664 -2.3257127 0.12220446 4278190080
0.16039839 -0.88261509 0.04500892 4278190080
0.15819208 -0.88808542 0.045270603 4278190080
0.15198825 -0.88916814 0.045270603 4278190080
0.15053181 -0.89954263 0.045793962 4278190080
0.13609418 -0.83107734 0.042130444 4278190080
0.14266877 -0.89071101 0.045270603 4278190080
0.14126106 -0.90104496 0.045793962 4278190080
0.13509037 -0.88179028 0.044747241 4278190080
0.13127267 -0.87731832 0.044485562 4278190080
0.31595421 -2.3337801 0.12141941 4278190080
0.30584821 -2.3200181 0.12063438 4278190080
0.29815295 -2.3210194 0.12063438 4278190080
0.2900494 -2.322046 0.12063438 4278190080
0.28134039 -2.3180876 0.1203727 4278190080
0.27324715 -2.3190553 0.1203727 4278190080
0.26458332 -2.3150342 0.12011101 4278190080
0.25650084 -2.3159437 0.12011101 4278190080
0.2488194 -2.3167815 0.12011101 4278190080
0.24073093 -2.317636 0.12011101 4278190080
0.23263952 -2.3184621 0.12011101 4278190080
0.22454497 -2.3192601 0.12011101 4278190080
0.21644799 -2.3200297 0.12011101 4278190080
0.20790163 -2.315798 0.11984934 4278190080
0.19981684 -2.3165097 0.11984934 4278190080
0.19172962 -2.317193 0.11984934 4278190080
0.18363975 -2.3178482 0.11984934 4278190080
0.17554796 -2.318475 0.11984934 4278190080
0.16749807 -2.3140643 0.11958765 4278190080
0.15941958 -2.3146348 0.11958765 4278190080
0.15133885 -2.3151772 0.11958765 4278190080
0.14325656 -2.3156915 0.11958765 4278190080
0.13557658 -2.3161538 0.11958765 4278190080
0.12749098 -2.316613 0.11958765 4278190080
0.11940353 -2.3170438 0.11958765 4278190080
0.11107538 -2.3124592 0.11932598 4278190080
0.10300284 -2.3128328 0.11932598 4278190080
0.094928734 -2.3131783 0.11932598 4278190080
0.08666645 -2.3085058 0.11906429 4278190080
0.078607552 -2.3087943 0.11906429 4278190080
0.070547998 -2.3090546 0.11906429 4278190080
0.062487587 -2.3092868 0.11906429 4278190080
0.054426108 -2.3094909 0.11906429 4278190080
0.04626406 -2.3046746 0.11880262 4278190080
0.038218778 -2.3048222 0.11880262 4278190080
0.030173337 -2.3049417 0.11880262 4278190080
0.022529611 -2.3050289 0.11880262 4278190080
0.014483545 -2.3050935 0.11880262 4278190080
0.0068394016 -2.3051288 0.11880262 4278190080
-0.0012069189 -2.3051388 0.11880262 4278190080
-0.0096347136 -2.3001256 0.11854094 4278190080
-0.017663775 -2.3000779 0.11854094 4278190080
-0.025636544 -2.2950096 0.11827926 4278190080
-0.033647344 -2.2949061 0.11827926 4278190080
-0.04116768 -2.2897894 0.11801758 4278190080
-0.049160469 -2.2896318 0.11801758 4278190080
-0.057152357 -2.2894461 0.11801758 4278190080
-0.065543175 -2.2892213 0.11801758 4278190080
-0.073533528 -2.2889786 0.11801758 4278190080
-0.081523292 -2.288708 0.11801758 4278190080
-0.089112565 -2.288425 0.11801758 4278190080
-0.097311705 -2.2930889 0.11827926 4278190080
-0.10531536 -2.2927351 0.11827926 4278190080
-0.11356457 -2.2973406 0.11854094 4278190080
-0.12158296 -2.2969301 0.11854094 4278190080
-0.12988153 -2.301477 0.11880262 4278190080
-0.13721471 -2.2960494 0.11854094 4278190080
-0.14617456 -2.3105061 0.11932598 4278190080
-0.15224279 -2.2800894 0.1177559 4278190080
-0.15950066 -2.2695825 0.11723254 4278190080
-0.16852446 -2.2839506 0.11801758 4278190080
-0.072256327 -0.89415663 0.04500892 4278190080
-0.078933731 -0.89860445 0.045270603 4278190080
-0.081615753 -0.89335096 0.04500892 4278190080
-0.083790325 -0.88311899 0.044485562 4278190080
-0.087361522 -0.88779026 0.044747241 4278190080
-0.088940941 -0.87257767 0.043962203 4278190080
-0.09146256 -0.86729628 0.043700524 4278190080
-0.093257904 -0.85706055 0.043177165 4278190080
-0.095691659 -0.85176784 0.042915482 4278190080
-0.098664254 -0.85142863 0.042915482 4278190080
-0.10104357 -0.84612113 0.042653803 4278190080
-0.1038489 -0.84578139 0.042653803 4278190080
-0.10617474 -0.84046 0.042392123 4278190080
-0.10846482 -0.83513266 0.042130444 4278190080
-0.11071889 -0.82979965 0.041868761 4278190080
-0.11361482 -0.82940811 0.041868761 4278190080
-0.11581435 -0.82406193 0.041607082 4278190080
-0.11869011 -0.82365263 0.041607082 4278190080
-0.12156454 -0.82323331 0.041607082 4278190080
-0.12369072 -0.81786692 0.041345403 4278190080
-0.12578104 -0.81249583 0.041083723 4278190080
-0.12769437 -0.80714244 0.040822044 4278190080
-0.12971367 -0.80176276 0.040560365 4278190080
-0.13155782 -0.7964018 0.040298685 4278190080
-0.13350607 -0.79101419 0.040037006 4278190080
-0.13555536 -0.78559917 0.039775327 4278190080
-0.13829674 -0.7851212 0.039775327 4278190080
-0.13750313 -0.76497614 0.03872861 4278190080
-0.14557552 -0.79395914 0.040298685 4278190080
-0.14087336 -0.75420588 0.038205247 4278190080
-0.15191032 -0.79785484 0.040560365 4278190080
-0.15514623 -0.69522405 0.035326771 4278190080
-0.15757203 -0.69467825 0.035326771 4278190080
-0.15539216 -0.67468882 0.034280051 4278190080
-0.15433334 -0.65955687 0.033495013 4278190080
-0.15767345 -0.66389942 0.033756692 4278190080
-0.15881918 -0.65849108 0.033495013 4278190080
-0.16111684 -0.65793264 0.033495013 4278190080
-0.15471284 -0.6132189 0.031139892 4278190080
-0.17384692 -0.65984899 0.033756692 4278190080
-0.17614911 -0.6592381 0.033756692 4278190080
-0.18628399 -0.68753552 0.035326771 4278190080
-0.18195406 -0.66283888 0.034018371 4278190080
-0.18694384 -0.6718204 0.03454173 4278190080
-0.18928777 -0.6711638 0.03454173 4278190080
-0.18751305 -0.65609622 0.033756692 4278190080
-0.1856356 -0.64104939 0.03297165 4278190080
-0.18224974 -0.62123263 0.031924933 4278190080
-0.17872794 -0.60144746 0.030878212 4278190080
-0.17938727 -0.59603864 0.030616533 4278190080
-0.18292239 -0.60018504 0.030878212 4278190080
-1.1782279 -2.2837527 0.13267164 4278190080
-1.1895022 -2.2666287 0.13214828 4278190080
-1.1833929 -2.2359838 0.1305782 4278190080
-1.2005949 -2.2494595 0.13162492 4278190080
-1.2084398 -2.2452548 0.13162492 4278190080
-1.2162697 -2.2410231 0.13162492 4278190080
-1.2288792 -2.2455239 0.13214828 4278190080
-1.2387303 -2.2458088 0.13240997 4278190080
-1.2489891 -2.2458348 0.13267164 4278190080
-1.2592628 -2.2458167 0.13293333 4278190080
-1.2695519 -2.2457538 0.133195 4278190080
-1.2773832 -2.2413087 0.133195 4278190080
-1.2876865 -2.2411656 0.13345669 4278190080
-1.2955019 -2.2366569 0.13345669 4278190080
-1.3058189 -2.236433 0.13371836 4278190080
-1.3182921 -2.2406979 0.13424173 4278190080
-1.3286524 -2.2403772 0.13450341 4278190080
-1.3390268 -2.2400115 0.13476509 4278190080
-1.3494145 -2.2396004 0.13502677 4278190080
-1.3598157 -2.2391446 0.13528845 4278190080
-1.3702303 -2.2386427 0.13555013 4278190080
-1.3806577 -2.2380958 0.13581181 4278190080
-1.3910981 -2.2375031 0.13607349 4278190080
-1.3988999 -2.2326336 0.13607349 4278190080
-1.4120164 -2.2361808 0.13659684 4278190080
-1.4224944 -2.235451 0.13685852 4278190080
-1.432984 -2.2346752 0.1371202 4278190080
-1.4430959 -2.2341051 0.13738188 4278190080
-1.4563333 -2.2374237 0.13790524 4278190080
-1.4664825 -2.2367575 0.13816692 4278190080
-1.4770335 -2.2357912 0.1384286 4278190080
-1.4907535 -2.2386744 0.13895196 4278190080
-1.5069047 -2.2458961 0.139737 4278190080
-1.5203279 -2.2488954 0.14026035 4278190080
-1.5366017 -2.2559552 0.14104539 4278190080
-1.5501175 -2.2588117 0.14156877 4278190080
-1.5636723 -2.261601 0.14209212 4278190080
-1.5768696 -2.2645986 0.14261548 4278190080
-1.5876328 -2.2631683 0.14287716 4278190080
-1.5984045 -2.2616901 0.14313884 4278190080
-1.6062895 -2.2560971 0.14313884 4278190080
-1.6141552 -2.2504761 0.14313884 4278190080
-1.6249251 -2.2488754 0.14340052 4278190080
-1.6327655 -2.2431896 0.14340052 4278190080
-1.643538 -2.241503 0.1436622 4278190080
-1.6572853 -2.2437851 0.14418556 4278190080
-1.6680882 -2.2419925 0.14444724 4278190080
-1.6908764 -2.2561338 0.14575563 4278190080
-1.6806911 -2.2263072 0.14418556 4278190080
-1.7035637 -2.2402999 0.14549395 4278190080
-1.7144094 -2.2383037 0.14575563 4278190080
-1.7173529 -2.2108095 0.14470892 4278190080
-1.1947535 -0.62088978 0.068560101 4278190080
-1.2013522 -0.61900228 0.06882178 4278190080
-1.1946125 -0.61026204 0.068298422 4278190080
-1.1877216 -0.60178369 0.067775063 4278190080
-1.2453444 -0.60927981 0.070653543 4278190080
-1.2429711 -0.60275012 0.070391864 4278190080
-2.17646 -0.57138991 0.11592414 4278190080
-2.2074447 -0.57129484 0.11749422 4278190080
-2.199749 -0.56111777 0.11697086 4278190080
-4.1895146 -1.0220687 0.22399788 4278190080
-4.1882024 -1.0062711 0.22373621 4278190080
-4.176939 -0.98892677 0.22295116 4278190080
-4.180366 -0.9743396 0.22295116 4278190080
-4.1740084 -0.95750892 0.22242782 4278190080
-4.1726189 -0.94110602 0.22216612 4278190080
-4.1710038 -0.92545265 0.22190444 4278190080
-4.1693306 -0.90982324 0.22164278 4278190080
-4.1675992 -0.89421672 0.2213811 4278190080
-4.1658092 -0.87863338 0.2211194 4278190080
-4.1638107 -0.86379975 0.22085772 4278190080
-4.1668005 -0.84926027 0.22085772 4278190080
-4.1648436 -0.8337304 0.22059605 4278190080
-4.1628294 -0.81822348 0.22033438 4278190080
-4.1607575 -0.80274183 0.22007269 4278190080
-4.158628 -0.78728455 0.21981101 4278190080
-4.1564417 -0.77185202 0.21954931 4278190080
-4.1541982 -0.75644439 0.21928766 4278190080
-4.1568136 -0.74193805 0.21928766 4278190080
-4.1544595 -0.72656357 0.21902597 4278190080
-4.156846 -0.71278274 0.21902597 4278190080
-4.1543846 -0.69744182 0.21876429 4278190080
-4.1518664 -0.68212676 0.2185026 4278190080
-4.1492925 -0.66683787 0.21824095 4278190080
-4.1466627 -0.65157408 0.21797925 4278190080
-4.1439762 -0.63633794 0.21771757 4278190080
-4.1412339 -0.62112844 0.21745588 4278190080
-4.1384368 -0.60594594 0.21719423 4278190080
-4.1355839 -0.59079051 0.21693254 4278190080
-4.1326752 -0.57566124 0.21667086 4278190080
-4.1346598 -0.56123221 0.21667086 4278190080
-4.1316433 -0.54614204 0.21640916 4278190080
-4.1335244 -0.53171682 0.21640916 4278190080
-4.1304011 -0.5166654 0.21614751 4278190080
-4.1272225 -0.50164109 0.21588582 4278190080
-4.1289487 -0.48723155 0.21588582 4278190080
-4.1256633 -0.47224823 0.21562414 4278190080
-4.122324 -0.45729381 0.21536244 4278190080
-4.1238952 -0.44290164 0.21536244 4278190080
-4.12045 -0.42798716 0.21510078 4278190080
-4.1219187 -0.41360173 0.21510078 4278190080
-4.1183672 -0.39873004 0.2148391 4278190080
-4.1197338 -0.38435206 0.2148391 4278190080
-4.1160774 -0.3695229 0.21457742 4278190080
-4.1123672 -0.35472286 0.21431573 4278190080
-4.1135802 -0.3403661 0.21431573 4278190080
-4.109766 -0.32561079 0.21405405 4278190080
-4.1108775 -0.31126326 0.21405405 4278190080
-4.1069589 -0.29655236 0.21379238 4278190080
-4.1079693 -0.28221372 0.21379238 4278190080
-4.1039467 -0.26754791 0.2135307 4278190080
-4.1048555 -0.25322104 0.2135307 4278190080
-4.1007295 -0.23860104 0.21326901 4278190080
-4.1015372 -0.2242856 0.21326901 4278190080
-4.1022954 -0.20996632 0.21326901 4278190080
-4.0980158 -0.19540775 0.21300733 4278190080
-4.0986729 -0.18110204 0.21300733 4278190080
-4.0992799 -0.16679411 0.21300733 4278190080
-4.0948477 -0.15229858 0.21274567 4278190080
-4.0953546 -0.1380031 0.21274567 4278190080
-4.0958114 -0.12370702 0.21274567 4278190080
-4.0962181 -0.10940944 0.21274567 4278190080
-4.0965753 -0.095110521 0.21274567 4278190080
-4.0968823 -0.080810443 0.21274567 4278190080
-4.0971394 -0.066508286 0.21274567 4278190080
-4.0973463 -0.052206416 0.21274567 4278190080
-4.0925107 -0.037857719 0.21248397 4278190080
-4.092618 -0.023572179 0.21248397 4278190080
-4.0926738 -0.010000264 0.21248397 4278190080
-4.0926838 0.0042856755 0.21248397 4278190080
-4.0926437 0.018571563 0.21248397 4278190080
-4.0875607 0.032818224 0.21222229 4278190080
-4.0874214 0.04708606 0.21222229 4278190080
-4.0872321 0.061353318 0.21222229 4278190080
-4.0820007 0.075527459 0.21196061 4278190080
-4.0817122 0.089775622 0.21196061 4278190080
-4.0813737 0.10402378 0.21196061 4278190080
-4.080986 0.11826958 0.21196061 4278190080
-4.0755582 0.13235189 0.21169895 4278190080
-4.0750713 0.14657721 0.21169895 4278190080
-4.0745349 0.16080076 0.21169895 4278190080
-4.0739489 0.17502342 0.21169895 4278190080
-4.0733128 0.18924288 0.21169895 4278190080
-4.0725918 0.20417044 0.21169895 4278190080
-4.0768781 0.21794121 0.21196061 4278190080
-4.0760927 0.23217063 0.21196061 4278190080
-4.0752573 0.2463983 0.21196061 4278190080
-4.0743723 0.26062188 0.21196061 4278190080
-4.0734377 0.27484229 0.21196061 4278190080
-4.0724535 0.28905937 0.21196061 4278190080
-4.0714197 0.3032729 0.21196061 4278190080
-4.0703363 0.31748381 0.21196061 4278190080
-4.0692034 0.3316898 0.21196061 4278190080
-4.0680208 0.34589171 0.21196061 4278190080
-4.0717626 0.36052984 0.21222229 4278190080
-4.0704789 0.37474054 0.21222229 4278190080
-4.0741167 0.38942286 0.21248397 4278190080
-4.0727324 0.40364158 0.21248397 4278190080
-4.0712991 0.41785541 0.21248397 4278190080
-4.0698156 0.43206412 0.21248397 4278190080
-4.0682826 0.44626758 0.21248397 4278190080
-4.0667 0.46046668 0.21248397 4278190080
-4.0650678 0.47465909 0.21248397 4278190080
-4.063386 0.48884574 0.21248397 4278190080
-4.0617428 0.50231791 0.21248397 4278190080
-4.0599647 0.51649272 0.21248397 4278190080
-4.0581369 0.53066128 0.21248397 4278190080
-4.0562601 0.54482341 0.21248397 4278190080
-4.0592799 0.55966192 0.21274567 4278190080
-4.0572014 0.57453555 0.21274567 4278190080
-4.055274 0.58798671 0.21274567 4278190080
-4.0581355 0.60287213 0.21300733 4278190080
-4.056006 0.61703378 0.21300733 4278190080
-4.0587611 0.63195717 0.21326901 4278190080
-4.0565305 0.64612085 0.21326901 4278190080
-4.0591788 0.66107929 0.2135307 4278190080
-4.0568466 0.67524421 0.2135307 4278190080
-4.0544648 0.68940091 0.2135307 4278190080
-4.0520334 0.70355028 0.2135307 4278190080
-4.0544696 0.71856141 0.21379238 4278190080
-4.0519366 0.73270953 0.21379238 4278190080
-4.0542645 0.74775434 0.21405405 4278190080
-4.0516295 0.76190162 0.21405405 4278190080
-4.0489454 0.77604061 0.21405405 4278190080
-4.0511127 0.79112619 0.21431573 4278190080
-4.0483265 0.80526215 0.21431573 4278190080
-4.0503845 0.82037956 0.21457742 4278190080
-4.0523868 0.83552116 0.2148391 4278190080
-4.0445585 0.84863704 0.21457742 4278190080
-4.0464549 0.86379218 0.2148391 4278190080
-3.9592366 0.88862222 0.21065223 4278190080
-3.7729611 0.87452567 0.20097007 4278190080
-3.6726811 0.86480159 0.19573648 4278190080
-3.6502151 0.87297064 0.19468977 4278190080
-3.6131809 0.87745839 0.192858 4278190080
-3.5567679 0.87691826 0.18997951 4278190080
-3.5004039 0.87599415 0.18710104 4278190080
-3.4392507 0.87345839 0.18396088 4278190080
-3.3829939 0.87175256 0.18108241 4278190080
-3.3267913 0.86966467 0.17820393 4278190080
-3.2754714 0.86847585 0.17558713 4278190080
-3.229023 0.86823517 0.17323202 4278190080
-3.1777995 0.86636758 0.17061521 4278190080
-3.1314414 0.86548322 0.1682601 4278190080
-3.0851288 0.86428595 0.16590497 4278190080
-3.0388634 0.86277694 0.16354987 4278190080
-2.9974451 0.86233526 0.16145642 4278190080
-2.9512737 0.86021781 0.15910131 4278190080
-2.9099429 0.85920268 0.15700787 4278190080
-2.8686557 0.85790962 0.15491444 4278190080
-2.8321919 0.85778701 0.15308267 4278190080
-2.7909908 0.85595566 0.15098923 4278190080
-2.754606 0.85532796 0.14915746 4278190080
-2.7134969 0.85295945 0.14706403 4278190080
-2.6771963 0.85182846 0.14523228 4278190080
-2.636184 0.84892476 0.14313884 4278190080
-2.599973 0.84729171 0.14130709 4278190080
-2.5685475 0.84697992 0.139737 4278190080
-2.5324199 0.84487903 0.13790524 4278190080
-2.5010698 0.84413314 0.13633516 4278190080
-2.4697556 0.84317946 0.13476509 4278190080
-2.4384789 0.84201676 0.133195 4278190080
-2.4119554 0.84229249 0.1318866 4278190080
-2.3807514 0.84073067 0.13031653 4278190080
-2.3542902 0.84064049 0.12900813 4278190080
-2.3325553 0.84207201 0.12796141 4278190080
-2.306149 0.84164959 0.126653 4278190080
-2.2797747 0.84105325 0.12534462 4278190080
-2.2581112 0.84202772 0.12429789 4278190080
-2.2317963 0.84110034 0.12298949 4278190080
-2.2008495 0.8382231 0.12141941 4278190080
-2.1746104 0.83693296 0.12011101 4278190080
-2.1530612 0.83727974 0.11906429 4278190080
-2.1268892 0.83566046 0.1177559 4278190080
-2.1053956 0.83571088 0.11670918 4278190080
-2.0839276 0.83562207 0.11566246 4278190080
-2.0624864 0.83539313 0.11461575 4278190080
-2.0364509 0.83313406 0.11330734 4278190080
-2.0150714 0.83261037 0.11226062 4278190080
-1.9937208 0.83194762 0.11121391 4278190080
-1.9723991 0.83114666 0.11016719 4278190080
-1.9511079 0.83020645 0.10912047 4278190080
-1.9298475 0.82912791 0.10807376 4278190080
-1.9086183 0.82791102 0.10702702 4278190080
-1.8919955 0.82855928 0.10624199 4278190080
-1.8708246 0.82708317 0.10519527 4278190080
-1.8542471 0.8275038 0.10441023 4278190080
-1.833137 0.82576799 0.10336351 4278190080
-1.8166074 0.82596177 0.10257847 4278190080
-1.8000988 0.82605022 0.10179343 4278190080
-1.7836117 0.82603407 0.10100839 4278190080
-1.7670029 0.82622075 0.10022335 4278190080
-1.750561 0.82599151 0.099438317 4278190080
-1.7296339 0.8235116 0.0983916 4278190080
-1.7132467 0.82305747 0.097606562 4278190080
-1.6968838 0.82249904 0.096821517 4278190080
-1.6805459 0.82183653 0.096036479 4278190080
-1.6642334 0.82107008 0.095251434 4278190080
-1.6479468 0.82020026 0.094466396 4278190080
-1.6316869 0.81922638 0.093681358 4278190080
-1.6199085 0.82040501 0.093157999 4278190080
-1.6036953 0.81923997 0.092372961 4278190080
-1.5919487 0.82025886 0.091849603 4278190080
-1.5757838 0.81890368 0.091064565 4278190080
-1.5640707 0.81976324 0.090541206 4278190080
-1.5479565 0.81821764 0.089756161 4278190080
-1.5318723 0.81656969 0.088971123 4278190080
-1.5202166 0.81718361 0.088447765 4278190080
-1.5041856 0.81534714 0.087662727 4278190080
-1.4925675 0.81580317 0.087139368 4278190080
-1.4765918 0.81377798 0.08635433 4278190080
-1.465013 0.81407666 0.085830964 4278190080
-1.4534504 0.81430441 0.085307606 4278190080
-1.4419038 0.81446183 0.084784247 4278190080
-1.4260354 0.8120774 0.083999209 4278190080
-1.4145314 0.81207812 0.083475843 4278190080
-1.4030449 0.8120085 0.082952484 4278190080
-1.3915764 0.81186873 0.082429126 4278190080
-1.3801258 0.81165916 0.081905767 4278190080
-1.3686939 0.81137925 0.081382409 4278190080
-1.357281 0.81102943 0.08085905 4278190080
-1.3458872 0.81060994 0.080335692 4278190080
-1.3345129 0.81012088 0.079812333 4278190080
-1.3231584 0.80956268 0.079288974 4278190080
-1.3118244 0.80893475 0.078765616 4278190080
-1.3047519 0.81087327 0.078503937 4278190080
-1.2934502 0.81012189 0.077980578 4278190080
-1.2948369 0.81729704 0.078242257 4278190080
-1.2877629 0.81913227 0.077980578 4278190080
-1.3017104 0.83440059 0.079027295 4278190080
-1.2694303 0.81997472 0.07719554 4278190080
-1.254006 0.81622922 0.076410495 4278190080
-1.2386236 0.81238616 0.075625457 4278190080
-1.2232832 0.80844611 0.074840412 4278190080
-1.2121418 0.80717611 0.074317053 4278190080
-1.2010243 0.80583829 0.073793694 4278190080
-1.1940675 0.80722922 0.073532015 4278190080
-1.1829889 0.80577058 0.073008657 4278190080
-1.176052 0.80707002 0.072746977 4278190080
-1.1650134 0.80549097 0.072223619 4278190080
-1.1540005 0.80384475 0.07170026 4278190080
-1.1471004 0.80499977 0.071438581 4278190080
-1.1361293 0.80323398 0.070915222 4278190080
-1.1292514 0.80429846 0.070653543 4278190080
-1.1223801 0.80532449 0.070391864 4278190080
-1.1114687 0.80338722 0.069868498 4278190080
-1.1044806 0.8045159 0.069606818 4278190080
-1.0977807 0.8052206 0.069345139 4278190080
-1.0869315 0.80311346 0.06882178 4278190080
-1.080116 0.80392134 0.068560101 4278190080
-1.0731678 0.80487871 0.068298422 4278190080
-1.0663675 0.8056103 0.068036743 4278190080
-1.0595754 0.80630392 0.067775063 4278190080
-1.0527916 0.80695999 0.067513384 4278190080
-1.0420638 0.80452722 0.066990025 4278190080
-1.0353076 0.8050946 0.066728346 4278190080
-1.024629 0.80254602 0.066204987 4278190080
-1.0139812 0.79993254 0.065681621 4278190080
-1.0072734 0.8003608 0.065419942 4278190080
-0.99667674 0.7976321 0.064896584 4278190080
-0.98999894 0.7979728 0.064634904 4278190080
-0.98333073 0.79827684 0.064373225 4278190080
-0.97667271 0.79854387 0.064111546 4278190080
-0.97002488 0.79877418 0.063849866 4278190080
-0.95954388 0.7957803 0.0633265 4278190080
-0.95676029 0.79912484 0.0633265 4278190080
-0.94250172 0.79281729 0.062541462 4278190080
-0.95115793 0.80578488 0.0633265 4278190080
-0.94074243 0.8026185 0.062803142 4278190080
-0.94172227 0.80915141 0.063064821 4278190080
-0.90593535 0.78946304 0.060971387 4278190080
-0.78498811 0.85636425 0.058877952 4278190080
-0.7819941 0.85909909 0.058877952 4278190080
-0.74900132 0.8283549 0.056522828 4278190080
-0.74944121 0.8346796 0.056784507 4278190080
-0.74320024 0.83356363 0.056522828 4278190080
-0.73683077 0.83254296 0.056261148 4278190080
-0.73392022 0.83510989 0.056261148 4278190080
-0.7275722 0.83403146 0.055999469 4278190080
-0.72153252 0.8326661 0.05573779 4278190080
-0.71536493 0.83139473 0.05547611 4278190080
-0.71245831 0.83388692 0.05547611 4278190080
-0.70631301 0.83256119 0.055214431 4278190080
-0.70018572 0.83120275 0.054952752 4278190080
-0.69407654 0.82981175 0.054691073 4278190080
-0.69117576 0.83222944 0.054691073 4278190080
-0.68508965 0.83078492 0.054429393 4278190080
-0.68218553 0.83317119 0.054429393 4278190080
-0.6759783 0.83179092 0.054167714 4278190080
-0.67321622 0.83402801 0.054167714 4278190080
-0.66717827 0.83247662 0.053906035 4278190080
-0.66115916 0.83089346 0.053644355 4278190080
-0.65810949 0.83331102 0.053644355 4278190080
-0.65211576 0.83167386 0.053382676 4278190080
-0.64920855 0.83394527 0.053382676 4278190080
-0.64018673 0.82830489 0.052859314 4278190080
-0.63121229 0.82261187 0.052335955 4278190080
-0.62228543 0.81686628 0.051812593 4278190080
-0.61039454 0.80708611 0.051027555 4278190080
-0.60157746 0.80122608 0.050504196 4278190080
-0.5926702 0.79541773 0.049980838 4278190080
-0.5869208 0.79346734 0.049719159 4278190080
-0.58400857 0.79561329 0.049719159 4278190080
-0.58150625 0.79744399 0.049719159 4278190080
-0.57871896 0.79946905 0.049719159 4278190080
-0.5730111 0.79742944 0.049457479 4278190080
-0.57022411 0.79942471 0.049457479 4278190080
-0.56454486 0.79733521 0.0491958 4278190080
-0.55888712 0.79521579 0.048934121 4278190080
-0.55325097 0.7930668 0.048672441 4278190080
-0.55047929 0.79499316 0.048672441 4278190080
-0.54487276 0.79279476 0.048410758 4278190080
-0.53915024 0.79066128 0.048149079 4278190080
-0.53358841 0.78840327 0.0478874 4278190080
-0.53083318 0.79026103 0.0478874 4278190080
-0.52530175 0.78795457 0.047625717 4278190080
-0.51979297 0.7856192 0.047364037 4278190080
-0.51430666 0.78325516 0.047102358 4278190080
-0.5115695 0.78504562 0.047102358 4278190080
-0.50882614 0.78682655 0.047102358 4278190080
-0.50337976 0.78439558 0.046840679 4278190080
-0.50063866 0.78614789 0.046840679 4278190080
-0.49522394 0.78366983 0.046579 4278190080
