# .PCD v0.7 - Point Cloud Data file format
VERSION 0.7
FIELDS x y z rgb
SIZE 4 4 4 4
TYPE F F F U
COUNT 1 1 1 1
WIDTH 1152
HEIGHT 1
VIEWPOINT 0 0 0 1 0 0 0
POINTS 1152
DATA ascii
2.7770002 2.2633054 0.085770398 4294967295
2.773 2.2483611 0.09984991 4294967295
2.7722726 2.2723169 0.054930478 4294967295
2.7781668 2.2568333 0.027074873 4294967295
2.7620001 2.2458506 0.024616808 4294967295
2.778286 2.2581623 -0.0050039887 4294967295
2.7620001 2.2458506 0.0053918958 4294967295
2.7770002 2.2838199 -0.042509317 4294967295
2.7717144 2.2730176 -0.032228529 4294967295
2.779 2.2822337 -0.055805266 4294967295
2.7754998 2.2704947 -0.067962527 4294967295
2.7765715 2.2558432 -0.085672438 4294967295
2.7697501 2.2433016 -0.10128254 4294967295
2.7761667 2.2530556 -0.1335758 4294967295
2.774143 2.2446706 -0.11915606 4294967295
2.7728 2.2559032 -0.15165395 4294967295
2.7703748 2.2550635 -0.18498135 4294967295
2.7761667 2.2589695 -0.2167809 4294967295
2.7774284 2.2588401 -0.24557412 4294967295
2.779 2.2822337 -0.28792447 4294967295
2.7759092 2.2706144 -0.27297735 4294967295
2.773 2.2805302 -0.29261392 4294967295
2.7750502 2.2654529 -0.30672985 4294967295
2.773 2.2483611 -0.31834924 4294967295
2.7736666 2.2370863 -0.33355755 4294967295
2.7699003 2.2259018 -0.35596007 4294967295
2.770647 2.2055957 -0.36905652 4294967295
2.7770002 2.1936071 -0.38183582 4294967295
2.7781668 2.1794877 -0.38436061 4294967295
2.809 0.75900555 2.0854487 4294967295
2.809 -0.862508 2.0860977 4294967295
2.806 0.75819492 2.0642526 4294967295
2.8110001 -0.86659986 2.076771 4294967295
2.8038571 -0.88049775 2.0653706 4294967295
2.8009999 0.75466681 2.032203 4294967295
2.8072 -0.89516777 2.0440428 4294967295
2.8044999 -0.90634757 2.0297837 4294967295
2.8150001 0.75409549 2.010417 4294967295
2.8130004 -0.89332831 1.9973958 4294967295
2.8065293 -0.91283435 2.0057344 4294967295
2.8043847 -0.88289881 1.9755157 4294967295
2.7946 -0.91125464 1.9834064 4294967295
2.8016667 -0.87166286 1.9466518 4294967295
2.8150001 0.75409549 1.9124479 4294967295
2.8064284 -0.88069433 1.916113 4294967295
2.8039999 0.75330734 1.8809803 4294967295
2.8056667 -0.89460653 1.8850445 4294967295
2.803 -0.90099245 1.8707432 4294967295
2.8050001 0.75574756 1.8565106 4294967295
2.8150001 -0.89831847 1.856932 4294967295
2.8043334 -0.90430689 1.8533036 4294967295
2.8080003 0.75981456 1.8210253 4294967295
2.8127503 -0.89433479 1.8232331 4294967295
2.800231 -0.90708888 1.8264244 4294967295
2.8042002 0.76420498 1.7951908 4294967295
2.8068182 -0.89510119 1.7944356 4294967295
2.7946 -0.90477073 1.8031536 4294967295
2.7993078 0.78834575 1.7595377 4294967295
2.8094614 0.77366579 1.7685466 4294967295
2.8038573 -0.89428008 1.7656617 4294967295
2.7909999 0.81727886 1.7241161 4294967295
2.8056667 0.79665709 1.7362781 4294967295
2.809 -0.89574093 1.7400064 4294967295
2.8003333 -0.90445864 1.729398 4294967295
2.7955003 1.9909426 1.6920059 4294967295
2.8056669 1.9667165 1.6926475 4294967295
2.8023336 1.9362036 1.6919743 4294967295
2.8010001 1.9103806 1.6921394 4294967295
2.7910001 1.8873712 1.6901193 4294967295
2.7920001 1.7746828 1.6970141 4294967295
2.79479 1.7544403 1.7009177 4294967295
2.7963338 1.725529 1.7020781 4294967295
2.7935719 1.696982 1.6995281 4294967295
2.7909999 1.3239943 1.6901193 4294967295
2.7909997 1.311043 1.6901193 4294967295
2.7969999 1.0218332 1.6926348 4294967295
2.8009133 1.0040373 1.7001938 4294967295
2.8052757 0.97434968 1.7052759 4294967295
2.8038573 0.94533628 1.7063248 4294967295
2.8026667 0.91479021 1.7047441 4294967295
2.8071048 0.88395202 1.7013065 4294967295
2.8036427 0.85512996 1.705152 4294967295
2.802793 0.82391769 1.7044569 4294967295
2.8127499 0.79998553 1.7065725 4294967295
2.8097501 -0.89418685 1.7028769 4294967295
2.8000002 -0.90570301 1.7093226 4294967295
2.8034616 2.1714649 1.6643114 4294967295
2.8012857 2.1473281 1.6674838 4294967295
2.7943337 2.1151013 1.6634171 4294967295
2.8030005 2.0811608 1.6658771 4294967295
2.8057003 2.0548344 1.6783581 4294967295
2.80828 2.0231011 1.676491 4294967295
2.8076952 1.9952407 1.6778475 4294967295
2.8122995 1.9670204 1.6762078 4294967295
2.8139997 1.9361123 1.6730971 4294967295
2.809 1.9042528 1.6766607 4294967295
2.8032861 1.8746172 1.6751223 4294967295
2.7988465 1.8447192 1.6689237 4294967295
2.7975001 1.8127948 1.6663328 4294967295
2.7963691 1.7827498 1.6705033 4294967295
2.7980003 1.7552344 1.6741146 4294967295
2.8000007 1.726315 1.674401 4294967295
2.7950008 1.6973372 1.6737814 4294967295
2.7962003 1.4821548 1.6676393 4294967295
2.7948828 1.4559115 1.6707606 4294967295
2.7910001 1.4265245 1.668534 4294967295
2.7961001 1.3919191 1.6724644 4294967295
2.8055382 1.3644259 1.6749097 4294967295
2.8074348 1.3368881 1.6774502 4294967295
2.8061302 1.3062661 1.6760755 4294967295
2.7994003 1.2753645 1.6741405 4294967295
2.7974002 1.2465444 1.6681284 4294967295
2.7957997 1.2159996 1.6642337 4294967295
2.7935715 1.1872511 1.6624898 4294967295
2.793 1.154289 1.6628736 4294967295
2.7969999 1.1256655 1.6601871 4294967295
2.7981999 1.0936897 1.6606762 4294967295
2.8021429 1.0617838 1.6641358 4294967295
2.8047502 1.0325159 1.6714553 4294967295
2.8116667 1.0097893 1.6777562 4294967295
2.8149998 0.98704457 1.6849416 4294967295
2.8150001 0.85337096 1.6858125 4294967295
2.8150001 0.82443231 1.6815923 4294967295
2.8149996 0.79637688 1.6719936 4294967295
2.8149998 0.77151227 1.6631707 4294967295
2.806 0.65076286 1.673632 4294967295
2.803 0.62081206 1.6886468 4294967295
2.8050001 0.54532123 1.6808048 4294967295
2.809 0.52763921 1.6683307 4294967295
2.809 -0.86706871 1.6618133 4294967295
2.8054001 -0.87832648 1.6779329 4294967295
2.8048625 2.2036984 1.6416109 4294967295
2.8101251 2.1794155 1.6528919 4294967295
2.8121762 2.1450317 1.6456463 4294967295
2.8041255 2.1154225 1.6464187 4294967295
2.8073199 2.0854542 1.6451149 4294967295
2.8150003 2.0146325 1.6544623 4294967295
2.8130004 1.9921701 1.655103 4294967295
2.811667 1.9651309 1.6567397 4294967295
2.8141432 1.9328687 1.6522508 4294967295
2.8095002 1.9031427 1.6522447 4294967295
2.8099999 1.8730518 1.6502686 4294967295
2.8111176 1.8441901 1.6494344 4294967295
2.8114007 1.8146275 1.6525716 4294967295
2.8116999 1.7872083 1.646601 4294967295
2.8075001 1.7554939 1.6435598 4294967295
2.809001 1.7257388 1.6460553 4294967295
2.8051002 1.6931906 1.6455671 4294967295
2.803 1.6648995 1.6366041 4294967295
2.8030002 1.6338971 1.6337228 4294967295
2.8050001 1.6061325 1.6374031 4294967295
2.8005295 1.5757946 1.6382924 4294967295
2.7998002 1.5442622 1.6366321 4294967295
2.8019094 1.5138447 1.6408949 4294967295
2.8051596 1.4871629 1.646317 4294967295
2.7974286 1.4559399 1.6450533 4294967295
2.7909999 1.4340794 1.6577413 4294967295
2.7974999 1.3849424 1.6463176 4294967295
2.8084779 1.3657115 1.6441848 4294967295
2.8067498 1.3355424 1.6458509 4294967295
2.7949998 1.3085958 1.6456904 4294967295
2.8 1.2714026 1.6435354 4294967295
2.809 1.2474557 1.6492928 4294967295
2.8105998 1.2146056 1.6509418 4294967295
2.8084784 1.1843948 1.6464293 4294967295
2.8053081 1.1560328 1.6482738 4294967295
2.8102002 1.1270618 1.6533859 4294967295
2.8123333 1.0941342 1.6562842 4294967295
2.811667 1.0648813 1.6567397 4294967295
2.8134999 1.0425462 1.6554872 4294967295
2.8094287 0.79591179 1.6438426 4294967295
2.8068569 0.76586193 1.6442108 4294967295
2.812 0.74676746 1.636946 4294967295
2.803 0.54926628 1.6412606 4294967295
2.8000002 0.53244519 1.6549032 4294967295
2.809 -0.86163986 1.6400958 4294967295
2.8087599 2.208771 1.6149224 4294967295
2.8150005 2.169517 1.6124755 4294967295
2.8126926 2.1505322 1.6163853 4294967295
2.7966256 2.115448 1.6142056 4294967295
2.8012857 2.0802207 1.6154903 4294967295
2.8150001 2.0668826 1.6218059 4294967295
2.8150003 1.7782003 1.6257247 4294967295
2.8150005 1.7548327 1.6254344 4294967295
2.8150003 1.6619434 1.6283371 4294967295
2.8150001 1.6423496 1.6283371 4294967295
2.8150001 1.6031622 1.6283371 4294967295
2.8142502 1.5733527 1.6247762 4294967295
2.8130002 1.5447346 1.6239212 4294967295
2.8138001 1.5176026 1.6278647 4294967295
2.8150001 1.4855989 1.6270308 4294967295
2.8048465 1.4532089 1.6203213 4294967295
2.8024545 1.424582 1.6151092 4294967295
2.8048751 1.3940127 1.6202679 4294967295
2.8138003 1.36484 1.623946 4294967295
2.8079996 1.3342342 1.6143444 4294967295
2.8009999 1.3070617 1.6076354 4294967295
2.8046668 1.2780392 1.6181104 4294967295
2.8150001 0.812877 1.6218059 4294967295
2.7982001 0.79635012 1.6204219 4294967295
2.8018003 0.74534553 1.6231399 4294967295
2.8150001 0.55815709 1.6283371 4294967295
2.8105001 -0.86590415 1.6200411 4294967295
2.809 -0.87424189 1.6077179 4294967295
2.8080325 2.2063279 1.5858631 4294967295
2.8150001 2.1753018 1.586537 4294967295
2.8132861 2.1462853 1.5922236 4294967295
2.8057275 2.1139233 1.5950834 4294967295
2.8022501 2.0916398 1.5981059 4294967295
2.7909999 0.79947096 1.599461 4294967295
2.8042858 -0.88652384 1.5864638 4294967295
2.8045006 2.2256305 1.5499079 4294967295
2.8104284 2.2100582 1.562252 4294967295
2.8150003 2.18118 1.5695556 4294967295
2.8072858 -0.89677578 1.5620083 4294967295
2.802 -0.90283185 1.5484501 4294967295
2.8082504 2.2372878 1.5244035 4294967295
2.8149998 -0.89831853 1.5238367 4294967295
2.8014998 -0.90375513 1.5255278 4294967295
2.8065004 2.2548928 1.4920439 4294967295
2.8080001 2.2473972 1.5017698 4294967295
2.8066001 -0.89497507 1.4947844 4294967295
2.8042002 2.2547789 1.4666448 4294967295
2.8099232 2.2376604 1.4593433 4294967295
2.8135002 2.2159171 1.4531288 4294967295
2.8039999 0.55054021 1.4700335 4294967295
2.8120003 0.53309077 1.4575238 4294967295
2.8038573 -0.89661276 1.4603891 4294967295
2.7969999 2.2353561 1.4460332 4294967295
2.804765 2.2032738 1.434056 4294967295
2.806 0.51795071 1.4346914 4294967295
2.8059998 -0.89760959 1.4370598 4294967295
2.8030002 -0.90099245 1.4285094 4294967295
2.8056672 2.2053924 1.4033329 4294967295
2.8009999 0.51204807 1.4126956 4294967295
2.8090003 0.50409192 1.4029409 4294967295
2.8149998 -0.89831853 1.412805 4294967295
2.8051817 -0.9058286 1.4025762 4294967295
2.8030005 2.2531657 1.3667266 4294967295
2.8064618 2.2333999 1.3762696 4294967295
2.8150003 2.2171021 1.3866799 4294967295
2.803 0.75088084 1.363475 4294967295
2.8067501 0.50197488 1.3776277 4294967295
2.8051431 -0.91514766 1.3757322 4294967295
2.8014004 2.2523077 1.3456546 4294967295
2.8115716 2.2400239 1.3450847 4294967295
2.809 0.77204025 1.3587631 4294967295
2.809 0.50482851 1.3457117 4294967295
2.8076155 -0.91298479 1.3453139 4294967295
2.8063917 2.2609746 1.3138115 4294967295
2.8150005 2.2478924 1.3176348 4294967295
2.7939999 0.50861526 1.3251091 4294967295
2.8072858 -0.89677578 1.3080063 4294967295
2.799 -0.90618688 1.3222201 4294967295
2.8058424 2.2612629 1.2858632 4294967295
2.8150003 2.2484522 1.2834857 4294967295
2.8067501 -0.89242184 1.2832025 4294967295
2.7970002 2.2537434 1.2643266 4294967295
2.8074999 2.2424402 1.2534449 4294967295
2.8057275 -0.89534551 1.2554071 4294967295
2.8044288 2.2403541 1.2247756 4294967295
2.804714 -0.89315701 1.2240734 4294967295
2.7910001 2.2500043 1.1850228 4294967295
2.8066528 2.2430646 1.1952558 4294967295
2.8064284 -0.88952321 1.1942744 4294967295
2.8056085 2.2419426 1.1650106 4294967295
2.8070002 -0.8957532 1.1642388 4294967295
2.7910001 2.2500043 1.1202669 4294967295
2.8048265 2.24245 1.1351146 4294967295
2.8045001 -0.89820892 1.1426772 4294967295
2.8050001 -0.90163541 1.1297812 4294967295
2.8052502 2.2617502 1.1016262 4294967295
2.8142002 2.2425878 1.1056656 4294967295
2.809 0.53089792 1.0915513 4294967295
2.806 -0.90926969 1.1047764 4294967295
2.8058002 2.2853544 1.073969 4294967295
2.8133333 2.2687206 1.0768313 4294967295
2.8150005 2.2432272 1.0813425 4294967295
2.8022499 0.52716947 1.0698547 4294967295
2.8036668 -0.91131544 1.0760109 4294967295
2.799 2.2824166 1.0570458 4294967295
2.8078568 2.2651222 1.0447855 4294967295
2.8150003 2.2497585 1.0372562 4294967295
2.8050001 0.51928896 1.0462625 4294967295
2.8006001 -0.90995812 1.0443543 4294967295
2.8044999 2.2555826 1.0153867 4294967295
2.8150001 2.2497585 1.0209281 4294967295
2.8050001 0.51277626 1.0191348 4294967295
2.8050001 0.50626814 1.00396 4294967295
2.8065002 -0.91729796 1.0129018 4294967295
2.8058233 2.2604032 0.98444331 4294967295
2.8060002 0.49940133 0.98351598 4294967295
2.8070002 -0.92723119 0.9923628 4294967295
2.8055713 -0.93435419 0.97832787 4294967295
2.8068824 2.2643225 0.95550108 4294967295
2.7981999 0.49639526 0.95299327 4294967295
2.808625 -0.93985069 0.9542197 4294967295
2.8053999 2.2641957 0.92419171 4294967295
2.8060002 0.50265652 0.92492235 4294967295
2.8081431 -0.92404389 0.92105222 4294967295
2.803 -0.9334957 0.93262565 4294967295
2.8062999 2.2694778 0.89567542 4294967295
2.812 0.51189202 0.88664222 4294967295
2.806 0.50753409 0.90216029 4294967295
2.8065002 -0.91078764 0.89623904 4294967295
2.8051431 2.2734778 0.86575639 4294967295
2.803 0.51349145 0.86600363 4294967295
2.8074999 -0.90405792 0.8713932 4294967295
2.8150001 2.2824149 0.83478665 4294967295
2.803 2.2791886 0.83669645 4294967295
2.809 0.51786321 0.84388244 4294967295
2.8054001 -0.91347289 0.8343662 4294967295
2.8150001 2.2824149 0.81845844 4294967295
2.8040001 2.2696803 0.8015604 4294967295
2.8045001 0.52516639 0.80594671 4294967295
2.803 -0.92700624 0.81718612 4294967295
2.8 -0.93900353 0.80062687 4294967295
2.8066001 2.2547569 0.78240466 4294967295
2.8070002 2.2433465 0.76985186 4294967295
2.812 0.53472358 0.77900136 4294967295
2.8069999 -0.95220292 0.77853394 4294967295
2.809 2.2514806 0.7330966 4294967295
2.8061581 2.2402728 0.74658203 4294967295
2.8050001 0.55182004 0.74366009 4294967295
2.8150001 -0.95710003 0.7335518 4294967295
2.8072855 -0.96377569 0.74321008 4294967295
2.8067498 2.2630956 0.71460193 4294967295
2.8150001 2.2497585 0.7270205 4294967295
2.8134999 0.55785966 0.71712375 4294967295
2.8150001 0.045451552 0.70089537 4294967295
2.8149998 0.022592071 0.70089537 4294967295
2.8077998 -0.92205685 0.70433754 4294967295
2.8038573 -0.94587296 0.72063065 4294967295
2.8050001 2.2661567 0.68560612 4294967295
2.7969999 0.54808921 0.69540769 4294967295
2.8055713 0.52280945 0.69192994 4294967295
2.8036668 0.49591675 0.68572116 4294967295
2.8060002 0.46522698 0.68405145 4294967295
2.8045001 0.4348807 0.68477666 4294967295
2.8054001 0.4013409 0.68856668 4294967295
2.8072002 0.37423715 0.69063342 4294967295
2.8072855 0.34354597 0.69017196 4294967295
2.8064287 0.31832114 0.69198102 4294967295
2.809 0.28323832 0.69399244 4294967295
2.809 0.25391018 0.69399244 4294967295
2.8049998 0.22281551 0.69086355 4294967295
2.8077998 0.19712435 0.6887098 4294967295
2.8060002 0.16573888 0.68405008 4294967295
2.806231 0.13320543 0.6818167 4294967295
2.8025 0.10593863 0.68059802 4294967295
2.8043334 0.078168653 0.69010121 4294967295
2.7950001 0.048375707 0.69312525 4294967295
2.7989998 0.0094707059 0.69337302 4294967295
2.8044999 -0.017341418 0.6888448 4294967295
2.8067498 -0.045854211 0.68409443 4294967295
2.803 -0.075065553 0.67737055 4294967295
2.8105001 -0.10460389 0.6777885 4294967295
2.8103333 -0.13393161 0.67741644 4294967295
2.8066001 -0.16631033 0.67757267 4294967295
2.8030002 -0.19536942 0.67845535 4294967295
2.8038573 -0.22655375 0.67881286 4294967295
2.7996669 -0.2553964 0.67682379 4294967295
2.806 -0.28238964 0.67970657 4294967295
2.809 -0.31635875 0.68095773 4294967295
2.809 -0.34568688 0.68095773 4294967295
2.8064287 -0.37374461 0.67709613 4294967295
2.8149998 -0.40194115 0.67477024 4294967295
2.8150001 -0.4443945 0.67477024 4294967295
2.8067501 -0.46831289 0.67676413 4294967295
2.8055713 -0.49915308 0.68262732 4294967295
2.8043337 -0.52548122 0.68431884 4294967295
2.8029997 -0.55351508 0.68155491 4294967295
2.8079998 -0.5822835 0.67656016 4294967295
2.8149998 -0.61094213 0.67477024 4294967295
2.8149998 -0.6501298 0.67477024 4294967295
2.8070002 -0.67576742 0.67723012 4294967295
2.8074999 -0.70702249 0.683321 4294967295
2.809 -0.73672849 0.68095773 4294967295
2.8022499 -0.76664412 0.67814261 4294967295
2.8059998 -0.79534638 0.67672467 4294967295
2.809 -0.82797146 0.67444038 4294967295
2.8059998 -0.85637182 0.67672467 4294967295
2.8018 -0.88434684 0.68120247 4294967295
2.8 -0.90975899 0.69505739 4294967295
2.8051429 2.2609231 0.65470409 4294967295
2.7909999 -0.087685674 0.66697514 4294967295
2.7924998 -0.10393571 0.66705412 4294967295
2.7909999 -0.12977704 0.66697514 4294967295
2.7909999 -0.38556311 0.66697514 4294967295
2.7999997 -0.40824407 0.66226023 4294967295
2.8024545 -0.43325061 0.66286123 4294967295
2.7958 -0.45627955 0.66463768 4294967295
2.793 -0.59320694 0.66492188 4294967295
2.8013635 -0.61743575 0.66280502 4294967295
2.7997692 -0.64460582 0.66095489 4294967295
2.7969999 -0.66543192 0.6672911 4294967295
2.8068826 2.2620194 0.62414205 4294967295
2.7909999 -0.68344051 0.61517036 4294967295
2.8042629 2.2572532 0.59781861 4294967295
2.8150003 2.2486699 0.59421778 4294967295
2.7910001 -0.68159032 0.60591948 4294967295
2.8047998 2.2520106 0.56357443 4294967295
2.8127503 2.2479498 0.56777513 4294967295
2.8062308 2.2567575 0.53354889 4294967295
2.8150001 2.2497585 0.54414463 4294967295
2.8009999 2.2840474 0.4920342 4294967295
2.8070002 2.2684219 0.50547785 4294967295
2.8025999 2.2879505 0.47511113 4294967295
2.8127892 2.2682495 0.47508657 4294967295
2.8150001 2.2497585 0.46576929 4294967295
2.8018 2.2860014 0.44826329 4294967295
2.8119998 2.2676761 0.44575495 4294967295
2.8150001 2.2497585 0.44617543 4294967295
2.8051598 2.2626991 0.41649875 4294967295
2.8150003 2.2486699 0.41134194 4294967295
2.8056252 2.2406192 0.38458297 4294967295
2.8061304 2.2375484 0.35327768 4294967295
2.7934003 2.2830443 0.31841096 4294967295
2.8027146 2.2646873 0.32386339 4294967295
2.8110001 2.2408938 0.32844245 4294967295
2.8086131 2.2681694 0.29667729 4294967295
2.8150001 2.2464929 0.30901855 4294967295
2.8053079 2.2590203 0.27070081 4294967295
2.8103845 2.2372711 0.26072216 4294967295
2.8044999 2.2315757 0.23497766 4294967295
2.8150001 2.2171021 0.23717448 4294967295
2.8065169 2.2326214 0.20501882 4294967295
2.7909999 2.2500043 0.16511646 4294967295
2.8077145 2.2373888 0.17509031 4294967295
2.7992499 2.2509542 0.14865565 4294967295
2.8108001 2.2372494 0.14521241 4294967295
2.8150001 2.2154694 0.13757244 4294967295
2.8059998 2.2366018 0.11457363 4294967295
2.8144548 2.2142961 0.11256647 4294967295
2.8026669 2.2622716 0.080902934 4294967295
2.8114002 2.2390394 0.088807642 4294967295
2.8150001 2.2171021 0.093486279 4294967295
2.7995713 2.2828846 0.056845099 4294967295
2.8099473 2.2731535 0.054112017 4294967295
2.8072 2.2630391 0.026606947 4294967295
2.8081002 2.2624669 -0.0048203468 4294967295
2.80375 2.2862828 -0.044669569 4294967295
2.8079998 2.2745483 -0.030866981 4294967295
2.8065002 2.2858107 -0.058785379 4294967295
2.8080771 2.2697594 -0.07234621 4294967295
2.803 2.256007 -0.09043771 4294967295
2.811625 2.2429731 -0.097618639 4294967295
2.7969999 2.2526736 -0.13525045 4294967295
2.8069129 2.2407191 -0.12303263 4294967295
2.8015718 2.257576 -0.15612048 4294967295
2.8135002 2.2436612 -0.15271235 4294967295
2.8011739 2.2573371 -0.18500936 4294967295
2.8123333 2.2447245 -0.18523425 4294967295
2.7991002 2.2568421 -0.21323323 4294967295
2.8107646 2.2421401 -0.21620351 4294967295
2.7951999 2.2546797 -0.24529696 4294967295
2.8072858 2.2414064 -0.24435109 4294967295
2.8001199 2.2625318 -0.27561432 4294967295
2.8118002 2.2397993 -0.27484822 4294967295
2.7969999 2.2807994 -0.29315746 4294967295
2.8021109 2.2608664 -0.30233842 4294967295
2.8132854 2.2396765 -0.30534589 4294967295
2.809 2.2514806 -0.32271564 4294967295
2.8061304 2.2384052 -0.3362779 4294967295
2.8045001 2.2258949 -0.35551912 4294967295
2.8037503 2.2078159 -0.37113923 4294967295
2.812 2.1919007 -0.38233453 4294967295
2.8045001 2.1795285 -0.38968831 4294967295
2.839 0.76052469 2.0955806 4294967295
2.8324285 -0.85692662 2.0933456 4294967295
2.8345001 0.75931919 2.0667789 4294967295
2.831625 -0.86419392 2.0717676 4294967295
2.8317778 -0.87665182 2.0576115 4294967295
2.8210001 0.75570279 2.0365021 4294967295
2.8320589 -0.88751119 2.0366354 4294967295
2.8210001 -0.90023321 2.0266843 4294967295
2.8210001 0.75570279 1.9972309 4294967295
2.846 -0.8685919 1.9905126 4294967295
2.8300712 -0.88153207 2.0066619 4294967295
2.8210001 -0.90023321 2.0168664 4294967295
2.8257999 0.75698864 1.9735135 4294967295
2.8340001 -0.86773866 1.972086 4294967295
2.8210001 -0.87405241 1.9841405 4294967295
2.8281667 0.75542432 1.9408128 4294967295
2.8313332 -0.86848378 1.9566385 4294967295
2.8299999 -0.87355208 1.9395649 4294967295
2.8345001 0.75274271 1.9155223 4294967295
2.8315001 -0.88304842 1.9132081 4294967295
2.8318 0.75202572 1.884616 4294967295
2.8300998 -0.8913092 1.8864206 4294967295
2.832375 0.75463283 1.8520331 4294967295
2.8297691 -0.89039117 1.8533317 4294967295
2.8349998 0.75756657 1.8279018 4294967295
2.8310001 -0.88735992 1.823655 4294967295
2.8315001 0.76097172 1.7924962 4294967295
2.8316669 -0.88683772 1.7940357 4294967295
2.8315001 0.76452577 1.7651247 4294967295
2.8270001 -0.88574308 1.7642373 4294967295
2.8210001 0.78319263 1.7301866 4294967295
2.8304286 0.76822001 1.7354087 4294967295
2.830231 -0.88852018 1.7338325 4294967295
2.8283336 0.93993944 1.6933601 4294967295
2.8239999 0.91703439 1.6941228 4294967295
2.8210001 0.78515619 1.7059695 4294967295
2.8351431 0.76542354 1.7058045 4294967295
2.846 0.66335177 1.6933683 4294967295
2.8425 0.64604419 1.6985204 4294967295
2.8270001 0.54740423 1.6953666 4294967295
2.8436668 0.53085214 1.6946074 4294967295
2.8338752 -0.88624388 1.7080821 4294967295
2.8210003 2.0712881 1.6634256 4294967295
2.8210003 2.054107 1.6675164 4294967295
2.8210003 2.0385621 1.6666982 4294967295
2.8299334 0.99926901 1.6674657 4294967295
2.8314736 0.97633332 1.6818284 4294967295
2.8345001 0.94935608 1.6872922 4294967295
2.8380003 0.91235954 1.6841352 4294967295
2.8333449 0.88435835 1.6763271 4294967295
2.8269997 0.85471439 1.6720728 4294967295
2.8248179 0.82763273 1.6673481 4294967295
2.8210001 0.78515625 1.683061 4294967295
2.8269999 0.76346856 1.6774323 4294967295
2.8411429 0.7441439 1.6706508 4294967295
2.835 0.66736561 1.6756824 4294967295
2.8305717 0.52465147 1.6710306 4294967295
2.8347499 -0.86679476 1.6706425 4294967295
2.8289998 -0.87651712 1.6863455 4294967295
2.8210003 2.195647 1.6306995 4294967295
2.8210001 2.1777966 1.6378397 4294967295
2.8210003 2.072597 1.647717 4294967295
2.8233478 2.0544927 1.6438661 4294967295
2.8239999 2.0246396 1.6431861 4294967295
2.8270001 1.9959854 1.6392744 4294967295
2.8277223 1.9683225 1.6442642 4294967295
2.8297143 1.9365085 1.6439613 4294967295
2.8338237 1.9054902 1.6388228 4294967295
2.8290005 1.8780615 1.6374854 4294967295
2.821667 1.8455539 1.6353253 4294967295
2.8214998 1.8190757 1.6363508 4294967295
2.8210003 1.7963899 1.6306995 4294967295
2.822 1.7228175 1.6321841 4294967295
2.8234003 1.6983503 1.6329535 4294967295
2.8210003 1.6698493 1.6306995 4294967295
2.8210003 1.6294873 1.6306995 4294967295
2.8234999 1.2449635 1.637138 4294967295
2.8234997 1.2165835 1.6365938 4294967295
2.8210001 1.1844134 1.6306995 4294967295
2.8232498 1.1509585 1.6332217 4294967295
2.8305998 1.1244043 1.6400442 4294967295
2.8315003 1.0954763 1.6411091 4294967295
2.8249998 1.0633789 1.6428241 4294967295
2.8267272 1.0323859 1.643077 4294967295
2.8351336 1.0129509 1.6476423 4294967295
2.8419478 0.8564086 1.6462289 4294967295
2.8307896 0.82713103 1.6452622 4294967295
2.8239999 0.75322688 1.6580894 4294967295
2.8293998 0.74021697 1.6458286 4294967295
2.8306 0.54942709 1.6423531 4294967295
2.83025 0.53655046 1.654027 4294967295
2.8310001 -0.85962731 1.6444939 4294967295
2.8210003 2.1989195 1.6176091 4294967295
2.8210001 2.1819022 1.6156456 4294967295
2.8287146 2.0741272 1.6056004 4294967295
2.8337102 2.0549397 1.6146853 4294967295
2.8383005 2.0253725 1.6200509 4294967295
2.8425002 2.0046315 1.6259744 4294967295
2.8442502 1.8953333 1.6217029 4294967295
2.8399506 1.87402 1.6134349 4294967295
2.8350391 1.8450385 1.6157125 4294967295
2.8335266 1.8147393 1.615536 4294967295
2.8285501 1.7847806 1.6126497 4294967295
2.8302634 1.7542371 1.6132432 4294967295
2.8355005 1.7270262 1.6225084 4294967295
2.8363335 1.6957413 1.6264964 4294967295
2.8343003 1.6647813 1.6240885 4294967295
2.8362226 1.6360731 1.6183927 4294967295
2.8322608 1.605265 1.6156818 4294967295
2.8341579 1.5739087 1.6130149 4294967295
2.8335624 1.5438681 1.615083 4294967295
2.8310666 1.5137646 1.6210706 4294967295
2.8314002 1.4846087 1.6159424 4294967295
2.8304288 1.4557353 1.6090667 4294967295
2.830857 1.4249951 1.6082934 4294967295
2.83125 1.394402 1.6104949 4294967295
2.8302941 1.3669677 1.6080692 4294967295
2.826 1.3351294 1.6020658 4294967295
2.833889 1.3019533 1.6036193 4294967295
2.8323333 1.272613 1.6149967 4294967295
2.8381431 1.2444297 1.6198695 4294967295
2.8360503 1.2167282 1.6165446 4294967295
2.8306 1.1851574 1.6147658 4294967295
2.8373463 1.1553159 1.6163561 4294967295
2.8428891 1.1258042 1.6231928 4294967295
2.8440001 1.0946245 1.6237282 4294967295
2.8388753 1.0638881 1.6216717 4294967295
2.8381767 1.0360954 1.6211817 4294967295
2.84425 1.0176469 1.6217029 4294967295
2.8425004 0.85379893 1.6160845 4294967295
2.8356667 0.8342005 1.618194 4294967295
2.8336668 -0.86317372 1.6154017 4294967295
2.8270001 -0.87262487 1.6035389 4294967295
2.8271253 2.165947 1.5740639 4294967295
2.8319335 2.1467514 1.5824293 4294967295
2.8328669 2.1150348 1.5897843 4294967295
2.8348002 2.0857847 1.5949003 4294967295
2.8460002 1.9278657 1.5811139 4294967295
2.8400776 1.9028171 1.5799226 4294967295
2.8430004 1.8857809 1.5818819 4294967295
2.839 1.356645 1.5982648 4294967295
2.839 1.3335905 1.5982648 4294967295
2.839 1.3138297 1.5982648 4294967295
2.8410001 1.2111785 1.5952557 4294967295
2.8395836 1.1856295 1.5918967 4294967295
2.8410001 1.165028 1.5924305 4294967295
2.8436668 -0.86787975 1.593434 4294967295
2.8309412 -0.87827754 1.5835991 4294967295
2.8210003 2.2218277 1.545612 4294967295
2.8298004 2.2054272 1.5504419 4294967295
2.8300002 2.1796501 1.5638852 4294967295
2.8460002 1.9245641 1.5679073 4294967295
2.8425002 1.9035126 1.5655181 4294967295
2.832 -0.8890413 1.5565627 4294967295
2.8210001 -0.90023321 1.545612 4294967295
2.8315265 2.2307932 1.5241871 4294967295
2.8360002 2.2171884 1.5379053 4294967295
2.8317144 -0.89002985 1.5241622 4294967295
2.8210001 -0.90023321 1.5390667 4294967295
2.8210003 2.2545538 1.4834325 4294967295
2.8310359 2.2381372 1.4936556 4294967295
2.8310001 0.54818809 1.4890434 4294967295
2.8425 0.5339278 1.4841762 4294967295
2.83325 -0.8909806 1.4966588 4294967295
2.8263333 2.2318354 1.4739633 4294967295
2.8353004 2.2064199 1.4629884 4294967295
2.8308182 0.52485555 1.4661828 4294967295
2.836 0.50638741 1.4523654 4294967295
2.8283336 -0.89235801 1.4644222 4294967295
2.8310001 2.196068 1.4337037 4294967295
2.8390002 2.1898959 1.4401777 4294967295
2.8210001 0.51353031 1.4474339 4294967295
2.8340714 0.49945357 1.433883 4294967295
2.8323846 -0.89120865 1.4339746 4294967295
2.8327372 2.205111 1.4038994 4294967295
2.839 0.69904637 1.4050472 4294967295
2.8318 0.49380535 1.4049871 4294967295
2.8343575 -0.89180368 1.4048407 4294967295
2.823 -0.9008714 1.3956881 4294967295
2.8269999 2.2265346 1.3685013 4294967295
2.8347337 2.2146478 1.3791518 4294967295
2.846 0.7888127 1.3698113 4294967295
2.8364999 0.75983292 1.3768573 4294967295
2.8337779 0.49612078 1.3742021 4294967295
2.8373003 -0.8942377 1.3764317 4294967295
2.8251998 -0.90615517 1.3747398 4294967295
2.831182 2.2289286 1.3459725 4294967295
2.8210001 0.78842884 1.3558011 4294967295
2.8395002 0.50262123 1.3491868 4294967295
2.835 -0.8951956 1.3453329 4294967295
2.823 -0.90305316 1.3487554 4294967295
2.8304641 2.237931 1.3149714 4294967295
2.8342729 -0.89070481 1.3154906 4294967295
2.8210001 -0.90023321 1.3296204 4294967295
2.8313076 2.2390079 1.2850678 4294967295
2.8310001 -0.88736147 1.2850507 4294967295
2.8317146 2.2363541 1.2547896 4294967295
2.8330002 -0.88911247 1.2547853 4294967295
2.8286667 2.2330992 1.2237434 4294967295
2.8322308 -0.88155967 1.2256798 4294967295
2.8314548 2.2294397 1.1955584 4294967295
2.8393335 2.2164938 1.1833639 4294967295
2.84075 -0.86698967 1.2001665 4294967295
2.8302665 -0.87691325 1.1943657 4294967295
2.8245294 2.2292228 1.1656401 4294967295
2.8380914 2.2107301 1.1624187 4294967295
2.8332727 -0.89039141 1.1681964 4294967295
2.8267272 2.2281098 1.133611 4294967295
2.8403082 2.214211 1.1379638 4294967295
2.835 -0.89812315 1.1428807 4294967295
2.8317499 -0.90201288 1.129024 4294967295
2.8246 2.2285848 1.1052146 4294967295
2.8372505 2.2136326 1.1038842 4294967295
2.839 0.51680702 1.0910685 4294967295
2.8331113 -0.90701014 1.10448 4294967295
2.8210003 2.2610991 1.0645397 4294967295
2.8209999 2.2326274 1.0720665 4294967295
2.8311429 2.2070336 1.0747123 4294967295
2.8425002 2.1892939 1.0653923 4294967295
2.8355999 0.51749718 1.0732915 4294967295
2.839 -0.89939034 1.0647206 4294967295
2.8303332 -0.90685248 1.0747354 4294967295
2.8210003 2.2545538 1.0514493 4294967295
2.8227141 2.2353339 1.0444372 4294967295
2.8301036 2.2054329 1.0437585 4294967295
2.8392224 2.1871362 1.0464582 4294967295
2.8339999 0.51307148 1.0459195 4294967295
2.8329999 0.50914174 1.0307043 4294967295
2.8371115 -0.89586252 1.0431516 4294967295
2.8262501 -0.90518111 1.0458834 4294967295
2.8210003 2.2545538 1.0056329 4294967295
2.8282006 2.2371058 1.0158336 4294967295
2.8392732 2.2071602 1.0156593 4294967295
2.8210001 0.51353031 1.0285411 4294967295
2.8343334 0.50389105 1.0123044 4294967295
2.8391666 -0.89724475 1.0175411 4294967295
2.8274615 -0.90783876 1.0150665 4294967295
2.8251998 2.2539682 0.98078573 4294967295
2.8328001 2.2348294 0.98575097 4294967295
2.8421822 2.2145269 0.98679638 4294967295
2.8293998 0.49667445 0.98410243 4294967295
2.839 -0.89939034 0.99226409 4294967295
2.8285835 -0.91247535 0.98286456 4294967295
2.8249998 2.2551899 0.95570374 4294967295
2.8384583 2.2325447 0.95567411 4294967295
2.8343999 0.49624076 0.9520179 4294967295
2.839 -0.89939034 0.94944882 4294967295
2.8306248 -0.9144938 0.95529717 4294967295
2.8210001 -0.9329592 0.96308899 4294967295
2.8257997 2.2550993 0.92450345 4294967295
2.8395243 2.2386031 0.9274075 4294967295
2.8310001 0.5022139 0.92523539 4294967295
2.839 -0.89939034 0.92310095 4294967295
2.8309999 -0.91128469 0.92721963 4294967295
2.8316 2.2623448 0.89445168 4294967295
2.8425 2.2486496 0.90711021 4294967295
2.839 0.51022005 0.89016616 4294967295
2.8270001 0.50806344 0.90171278 4294967295
2.839 -0.89939034 0.89345962 4294967295
2.8352001 -0.90343243 0.89623928 4294967295
2.8210001 2.2807345 0.85182059 4294967295
2.8324115 2.2740946 0.86552632 4294967295
2.8299999 0.51516867 0.86271095 4294967295
2.8315001 -0.90358388 0.86947429 4294967295
2.8355558 2.2826149 0.83525586 4294967295
2.84425 2.2698295 0.82155961 4294967295
2.8425 2.2354596 0.82137406 4294967295
2.846 2.2151048 0.82174516 4294967295
2.8293333 0.51941079 0.83532763 4294967295
2.8369999 -0.91981608 0.83000201 4294967295
2.825 2.2817776 0.81514591 4294967295
2.8321002 2.2637415 0.80451214 4294967295
2.8384004 2.2355292 0.80447686 4294967295
2.8416255 2.208396 0.80480075 4294967295
2.832 0.52472711 0.80711937 4294967295
2.8210001 -0.92641401 0.81909454 4294967295
2.8321667 -0.93992674 0.80604351 4294967295
2.8270001 2.2527759 0.78693509 4294967295
2.8279998 2.2338879 0.77500385 4294967295
2.8382401 2.2090511 0.77482712 4294967295
2.8329999 0.54200697 0.76778251 4294967295
2.8329999 0.53543389 0.78092861 4294967295
2.8339999 -0.95697767 0.77334982 4294967295
2.8269999 -0.96117997 0.76069862 4294967295
2.82775 2.2320526 0.74353778 4294967295
2.8376319 2.2110004 0.74600923 4294967295
2.8330002 0.55295742 0.74806339 4294967295
2.8338752 -0.95446473 0.74156368 4294967295
2.8289998 -0.96404177 0.74993241 4294967295
2.8307221 2.2593865 0.70992625 4294967295
2.8390458 2.2384183 0.72009408 4294967295
2.839 2.2129502 0.72878551 4294967295
2.8331668 0.55079591 0.70755231 4294967295
2.8332858 0.52984756 0.70395708 4294967295
2.8406 0.49731097 0.70254046 4294967295
2.846 0.47846207 0.70288748 4294967295
2.8391998 0.40486923 0.70245051 4294967295
2.8345001 0.37459084 0.7021485 4294967295
2.8342001 0.34496728 0.70212919 4294967295
2.8329999 0.31523696 0.70205206 4294967295
2.8269999 0.28505328 0.70166647 4294967295
2.8269999 0.25553721 0.70166647 4294967295
2.8318 0.22639936 0.70197499 4294967295
2.8377998 0.19395818 0.70236051 4294967295
2.84425 0.16470236 0.702775 4294967295
2.8446 0.13503541 0.70279753 4294967295
2.839 0.10512175 0.70243764 4294967295
2.832375 0.072844587 0.70448405 4294967295
2.8314998 0.045723185 0.70852524 4294967295
2.8312857 0.013342655 0.70664096 4294967295
2.837333 -0.014543219 0.70343107 4294967295
2.8338752 -0.91748333 0.70950878 4294967295
2.8295715 -0.93859708 0.72340703 4294967295
2.8343501 2.2635539 0.68668431 4294967295
2.8225 0.49087778 0.69482863 4294967295
2.8329999 0.46641698 0.69547904 4294967295
2.8306 0.43647656 0.69533038 4294967295
2.8210001 0.40880713 0.69473577 4294967295
2.8210001 0.35644552 0.69473577 4294967295
2.8225 0.18963844 0.69482863 4294967295
2.8299999 0.16388324 0.69529319 4294967295
2.8318 0.1344213 0.69540471 4294967295
2.8239999 0.10457329 0.69492155 4294967295
2.8239999 -0.026480393 0.69492155 4294967295
2.8329999 -0.046280421 0.69547904 4294967295
2.8294003 -0.075765505 0.69198346 4294967295
2.83375 -0.10546834 0.69224417 4294967295
2.8360002 -0.13516642 0.69148839 4294967295
2.8355999 -0.1667272 0.69038165 4294967295
2.8346 -0.19427915 0.69230139 4294967295
2.8290002 -0.2252548 0.69159508 4294967295
2.8337779 -0.25485712 0.6926136 4294967295
2.8326669 -0.2846975 0.69181907 4294967295
2.8323333 -0.31130224 0.69106734 4294967295
2.8281999 -0.34477431 0.68861979 4294967295
2.8299999 -0.37890252 0.68654537 4294967295
2.833143 -0.40545645 0.68329042 4294967295
2.829778 -0.4354279 0.6807003 4294967295
2.8339999 -0.46288472 0.68709356 4294967295
2.833143 -0.49186325 0.69268084 4294967295
2.8342001 -0.5230419 0.69555336 4294967295
2.8351667 -0.55720055 0.69342923 4294967295
2.8295715 -0.58877325 0.68589652 4294967295
2.8356001 -0.61803967 0.68512416 4294967295
2.8313639 -0.64435071 0.68344438 4294967295
2.8337998 -0.6748507 0.69093722 4294967295
2.8299999 -0.70065451 0.69311148 4294967295
2.831111 -0.73413581 0.69245309 4294967295
2.8354445 -0.76522219 0.6919865 4294967295
2.8293998 -0.79787308 0.68738228 4294967295
2.8292501 -0.8240869 0.68540978 4294967295
2.8315001 -0.8526637 0.68718028 4294967295
2.8323746 -0.88414091 0.69298589 4294967295
2.8210001 -0.90023321 0.69473577 4294967295
2.8313334 2.2587271 0.65628248 4294967295
2.8420002 2.2468407 0.64893806 4294967295
2.8247499 2.2542624 0.63025236 4294967295
2.8355002 2.2382791 0.62174922 4294967295
2.8300002 2.2336526 0.59520543 4294967295
2.839 2.2162437 0.5970462 4294967295
2.8327713 2.2350068 0.56401461 4294967295
2.8270001 2.2527795 0.53030944 4294967295
2.8374445 2.2345054 0.53531253 4294967295
2.846 2.2151048 0.52460092 4294967295
2.8242304 2.25511 0.50642771 4294967295
2.8360569 2.2340336 0.50372201 4294967295
2.846 2.2151048 0.5113945 4294967295
2.8210001 2.2561901 0.48038039 4294967295
2.8327417 2.235064 0.47560644 4294967295
2.831296 2.2415864 0.4464778 4294967295
2.8314762 2.2435005 0.41540337 4294967295
2.8322728 2.2336719 0.38538769 4294967295
2.8277221 2.2267349 0.35801238 4294967295
2.836143 2.2139988 0.34692007 4294967295
2.8209999 2.2283731 0.32284927 4294967295
2.8331482 2.2060442 0.32470596 4294967295
2.8210001 2.2545538 0.29220587 4294967295
2.8209994 2.2343729 0.29493296 4294967295
2.8317997 2.207314 0.29461795 4294967295
2.8210003 2.227438 0.27023268 4294967295
2.83025 2.2061012 0.26519316 4294967295
2.8210001 2.2218277 0.23657164 4294967295
2.8324645 2.2090003 0.23612151 4294967295
2.8210001 2.2218277 0.20384565 4294967295
2.8337271 2.2129967 0.20421723 4294967295
2.8210001 2.2218277 0.17439222 4294967295
2.8335171 2.2067211 0.1745626 4294967295
2.839 2.1898959 0.16230658 4294967295
2.8210001 2.2218277 0.15475664 4294967295
2.8242495 2.203625 0.14669949 4294967295
2.832679 2.1763117 0.14128843 4294967295
2.8329999 2.1589754 0.13019732 4294967295
2.821461 2.2015436 0.11466241 4294967295
2.8308518 2.1760383 0.11418569 4294967295
2.8369999 2.1576324 0.12526026 4294967295
2.8231814 2.2324703 0.076165974 4294967295
2.8312962 2.2058306 0.08540833 4294967295
2.8391666 2.1823316 0.094216377 4294967295
2.8213997 2.260545 0.052802533 4294967295
2.8328998 2.2344522 0.054617792 4294967295
2.8436668 2.2132835 0.064952791 4294967295
2.8252857 2.2532859 0.023563325 4294967295
2.8328123 2.2362428 0.025266379 4294967295
2.8421113 2.2157373 0.024904162 4294967295
2.8269999 2.2541854 -0.0057806373 4294967295
2.8395004 2.2345903 -0.0063590407 4294967295
2.8432 2.2155604 0.0021390319 4294967295
2.8267498 2.2599506 -0.035360694 4294967295
2.8403928 2.2349701 -0.036277354 4294967295
2.846 2.2134542 -0.044925511 4294967295
2.8210001 2.2807345 -0.054689825 4294967295
2.8219995 2.2611687 -0.060712695 4294967295
2.8301113 2.2362788 -0.06540823 4294967295
2.8385503 2.2060022 -0.065504551 4294967295
2.8436668 2.1857944 -0.071399748 4294967295
2.8273156 2.2302403 -0.093086958 4294967295
2.8395004 2.209758 -0.093047142 4294967295
2.8436668 2.1890934 -0.084600747 4294967295
2.8300455 2.2268403 -0.12518078 4294967295
2.84075 2.2159591 -0.11967713 4294967295
2.8322003 2.2316642 -0.15539932 4294967295
2.8316922 2.2347722 -0.18472314 4294967295
2.8323636 2.2316449 -0.21620899 4294967295
2.8298695 2.2279346 -0.24475622 4294967295
2.8296952 2.2266502 -0.27411622 4294967295
2.839 2.2162437 -0.28560704 4294967295
2.8323183 2.2250402 -0.30550915 4294967295
2.839 2.2162437 -0.29219401 4294967295
2.8325789 2.229537 -0.33531755 4294967295
2.8322856 2.2260027 -0.35503775 4294967295
2.8289998 2.2095199 -0.36973339 4294967295
2.835 2.1955788 -0.38532817 4294967295
2.8301251 2.1805706 -0.39471525 4294967295
2.875 -0.85743117 2.1188905 4294967295
2.8612499 -0.85996896 2.0946336 4294967295
2.8683336 0.76172763 2.0619574 4294967295
2.8645 -0.86759192 2.0764945 4294967295
2.8643334 -0.87751007 2.0597825 4294967295
2.858 0.75898349 2.0331836 4294967295
2.8633335 -0.87940562 2.0315633 4294967295
2.8706667 0.76234734 2.0065725 4294967295
2.8710001 -0.86956066 1.9901075 4294967295
2.8623333 -0.87135178 2.0033534 4294967295
2.8643334 0.76066542 1.9734124 4294967295
2.8710001 -0.86956066 1.9801158 4294967295
2.8770001 -0.87137794 1.9731545 4294967295
2.8686666 0.75737071 1.9467328 4294967295
2.8662858 -0.87858093 1.9449269 4294967295
2.8565001 0.75195754 1.9131055 4294967295
2.8659999 -0.88799506 1.9143615 4294967295
2.8567998 0.75203657 1.8834069 4294967295
2.8627145 -0.8907603 1.8824121 4294967295
2.8668001 0.75466901 1.854918 4294967295
2.8710001 -0.88954425 1.8535527 4294967295
2.8613336 0.7576437 1.8247291 4294967295
2.8707502 -0.88946682 1.8268054 4294967295
2.8628001 0.7602582 1.7932798 4294967295
2.8565001 -0.88505161 1.7938023 4294967295
2.8653333 0.75870824 1.7600561 4294967295
2.8532002 -0.88402915 1.7625303 4294967295
2.8643751 0.75484496 1.7358259 4294967295
2.8710001 0.74911338 1.7236592 4294967295
2.858 -0.88551641 1.7347865 4294967295
2.8535001 0.75116783 1.7063966 4294967295
2.8695459 0.74206388 1.7024686 4294967295
2.8710001 0.66251767 1.7103367 4294967295
2.858 0.55342096 1.7115779 4294967295
2.8686666 0.52442789 1.7027135 4294967295
2.8612502 -0.87988132 1.704633 4294967295
2.8623333 0.99477851 1.6646764 4294967295
2.8652499 0.97695923 1.6746932 4294967295
2.8674998 0.94478911 1.676259 4294967295
2.8589377 0.91760463 1.6725684 4294967295
2.852 0.89634973 1.6627564 4294967295
2.8633847 0.73228544 1.6749765 4294967295
2.8660002 0.52837569 1.6716775 4294967295
2.8642499 -0.86418623 1.6709803 4294967295
2.8645835 1.9936086 1.6340017 4294967295
2.8636253 1.9659557 1.6370831 4294967295
2.8560002 1.9379505 1.636746 4294967295
2.8659413 1.0047591 1.6456393 4294967295
2.8770003 0.93958521 1.646073 4294967295
2.8668332 0.917283 1.6454126 4294967295
2.8538952 0.88753903 1.6443416 4294967295
2.852 0.86988127 1.6362879 4294967295
2.852 0.73092157 1.6561393 4294967295
2.8660002 0.55164707 1.650075 4294967295
2.8594999 -0.85944301 1.6425459 4294967295
2.8594005 2.05037 1.6033516 4294967295
2.8621998 2.0231538 1.6090534 4294967295
2.8717501 1.9991423 1.6168004 4294967295
2.8735626 1.9665403 1.6147329 4294967295
2.8632309 1.9351997 1.6171724 4294967295
2.8545718 1.9086035 1.6145853 4294967295
2.8640003 1.8636417 1.601115 4294967295
2.8635561 1.847837 1.6053693 4294967295
2.8642004 1.8105991 1.6065009 4294967295
2.8671117 1.7843535 1.6059748 4294967295
2.8636668 1.7519324 1.6105773 4294967295
2.8644285 1.7262427 1.6164498 4294967295
2.8655002 1.6950656 1.6182799 4294967295
2.8639235 1.6647458 1.6128204 4294967295
2.858 1.638073 1.6054751 4294967295
2.852 1.6043823 1.6032022 4294967295
2.8629999 1.5729054 1.6051599 4294967295
2.865778 1.5448954 1.6135944 4294967295
2.8644545 1.5153077 1.6133503 4294967295
2.8623333 1.4854863 1.6049033 4294967295
2.8600001 1.4529301 1.602915 4294967295
2.861125 1.4236435 1.6033435 4294967295
2.86025 1.3966609 1.6030132 4294967295
2.8640001 1.378559 1.601115 4294967295
2.8607142 1.3020614 1.6027125 4294967295
2.8589334 1.2748528 1.6071495 4294967295
2.8570001 1.2514588 1.6062018 4294967295
2.8581429 1.1445805 1.6074176 4294967295
2.8660531 1.1257961 1.6141185 4294967295
2.8648465 1.0951874 1.6157327 4294967295
2.8658462 1.0653901 1.6104902 4294967295
2.8595831 1.0347493 1.6060718 4294967295
2.8643198 1.0044001 1.6139901 4294967295
2.875 0.98584473 1.6074923 4294967295
2.8770001 0.93758261 1.6227101 4294967295
2.870786 0.91129762 1.6184145 4294967295
2.858 0.88608551 1.6192888 4294967295
2.852 0.86988127 1.619745 4294967295
2.8665001 -0.86265212 1.6142377 4294967295
2.8654287 2.1713209 1.5750548 4294967295
2.8632729 2.1439784 1.5827125 4294967295
2.8661427 2.1139162 1.5829067 4294967295
2.8627338 2.0855322 1.5891104 4294967295
2.8638003 2.0608323 1.5963784 4294967295
2.8770003 2.0256288 1.5993471 4294967295
2.8747504 1.9881973 1.5901643 4294967295
2.8642311 1.9634767 1.5822752 4294967295
2.8540001 1.9388014 1.5848396 4294967295
2.8608003 1.9026556 1.5879056 4294967295
2.8614709 1.8803322 1.5892208 4294967295
2.8770003 1.6551592 1.5993471 4294967295
2.8701668 1.6312507 1.5923284 4294967295
2.8649092 1.6068028 1.5960075 4294967295
2.8659999 1.5856485 1.5985358 4294967295
2.8756669 1.4827733 1.5958803 4294967295
2.8755002 1.4591478 1.5971155 4294967295
2.8770001 1.4382175 1.5993471 4294967295
2.8770001 1.3981667 1.5993471 4294967295
2.8675001 1.3636 1.5990986 4294967295
2.8650999 1.3358631 1.5981956 4294967295
2.8738334 1.3065943 1.5992644 4294967295
2.8722003 1.2705474 1.5962113 4294967295
2.8624001 1.2436404 1.5931937 4294967295
2.8615456 1.2143964 1.5874969 4294967295
2.8637273 1.183919 1.5816659 4294967295
2.8654585 1.1554164 1.5850233 4294967295
2.8770001 1.1378366 1.5993471 4294967295
2.8770001 1.0510598 1.5993471 4294967295
2.8716252 1.0341092 1.5906643 4294967295
2.8615 1.0072232 1.5902143 4294967295
2.8681998 0.98395902 1.5907321 4294967295
2.8599999 -0.86622906 1.5929648 4294967295
2.8623333 -0.8735671 1.5772346 4294967295
2.870667 2.2276378 1.545908 4294967295
2.8627503 2.2073579 1.5549865 4294967295
2.8580003 2.1846492 1.5656948 4294967295
2.8737504 1.9566649 1.5647824 4294967295
2.8660665 1.9319191 1.5557672 4294967295
2.8621254 1.9016927 1.553902 4294967295
2.8770001 1.1551919 1.5606314 4294967295
2.8651114 -0.88253921 1.5557301 4294967295
2.8645003 2.2366903 1.5259675 4294967295
2.8756158 1.8999404 1.5310794 4294967295
2.8770001 1.1478493 1.539271 4294967295
2.8770001 1.1378366 1.539271 4294967295
2.8770001 0.55710012 1.5192456 4294967295
2.8659999 -0.88704151 1.526819 4294967295
2.8637004 2.2308574 1.4980103 4294967295
2.8643336 2.2138293 1.4838232 4294967295
2.8599999 0.54716331 1.5044904 4294967295
2.867667 0.52756602 1.4927202 4294967295
2.8612502 -0.89149314 1.4955248 4294967295
2.8632002 2.1970301 1.4652922 4294967295
2.852 0.51586491 1.4741683 4294967295
2.8651249 0.50078011 1.4669321 4294967295
2.8621249 -0.89093542 1.4626024 4294967295
2.8649096 2.1989944 1.4358697 4294967295
2.8663332 0.70799887 1.4268653 4294967295
2.8677502 0.49042657 1.4345014 4294967295
2.8640001 -0.88737541 1.4349908 4294967295
2.863143 2.2066031 1.4048178 4294967295
2.8564999 0.70722932 1.4143628 4294967295
2.8770001 0.49034885 1.415781 4294967295
2.8666251 -0.88568556 1.4092236 4294967295
2.8656003 2.222373 1.3650277 4294967295
2.8651879 2.2150557 1.377609 4294967295
2.858 0.7788766 1.3800255 4294967295
2.8660002 0.49512362 1.3724346 4294967295
2.8609998 -0.88938677 1.3757571 4294967295
2.8653848 2.233243 1.344399 4294967295
2.8706667 0.50259024 1.3505249 4294967295
2.8614998 -0.88990933 1.3445523 4294967295
2.862 2.2341838 1.3148212 4294967295
2.8665001 -0.88481474 1.3127474 4294967295
2.8660004 2.2395253 1.2871096 4294967295
2.8621001 -0.88345468 1.2849567 4294967295
2.8770003 2.2525833 1.2555779 4294967295
2.8583336 2.2423794 1.2552167 4294967295
2.8625715 -0.88407838 1.2542561 4294967295
2.8623335 2.239608 1.2248785 4294967295
2.8685 -0.86213332 1.2179073 4294967295
2.862 -0.87346351 1.2298338 4294967295
2.8643336 2.2271419 1.2013837 4294967295
2.8636253 2.2130222 1.187376 4294967295
2.8613751 -0.86248976 1.2001206 4294967295
2.8663332 -0.87701261 1.185232 4294967295
2.8625717 2.2042608 1.1669651 4294967295
2.8661427 -0.89182663 1.1668316 4294967295
2.860667 2.2110169 1.133919 4294967295
2.858 -0.8987785 1.1479387 4294967295
2.8627501 -0.90358776 1.1323828 4294967295
2.8639169 2.2124214 1.1049345 4294967295
2.8645 0.51811492 1.1028365 4294967295
2.8640001 -0.90731031 1.1060648 4294967295
2.8643336 2.1998229 1.0762208 4294967295
2.8604 0.51406598 1.0754716 4294967295
2.8612502 -0.896474 1.0656743 4294967295
2.8630002 -0.90432948 1.0812874 4294967295
2.8665555 2.1948805 1.0426627 4294967295
2.852 2.1866894 1.0539808 4294967295
2.8770001 0.51037425 1.0586615 4294967295
2.8663332 0.50848198 1.0433691 4294967295
2.8645556 -0.89049006 1.0445125 4294967295
2.8628123 2.1999412 1.0144913 4294967295
2.8623333 0.50334162 1.0182793 4294967295
2.8621249 -0.89591825 1.0135384 4294967295
2.8624501 2.2066259 0.98487228 4294967295
2.8725002 0.49624661 0.98118031 4294967295
2.8664999 -0.89811635 0.99018562 4294967295
2.8640001 -0.90066534 0.97648793 4294967295
2.8568001 2.2248287 0.94484866 4294967295
2.8616664 2.2130494 0.95839602 4294967295
2.8770001 0.497024 0.96520972 4294967295
2.8652499 -0.89772612 0.95342219 4294967295
2.8640001 -0.90066534 0.96984291 4294967295
2.862783 2.2295947 0.92257172 4294967295
2.8770001 2.2192075 0.93850917 4294967295
2.8627501 0.50451976 0.92315966 4294967295
2.8665555 -0.89776534 0.92515701 4294967295
2.8662143 2.2645457 0.89656192 4294967295
2.852 0.51255637 0.88193548 4294967295
2.8710001 0.50930983 0.90433031 4294967295
2.858 -0.8987785 0.90259004 4294967295
2.8640001 -0.90066534 0.89010334 4294967295
2.8698752 2.2827895 0.86173797 4294967295
2.8655002 2.2767897 0.86035806 4294967295
2.8770001 2.2192075 0.85173249 4294967295
2.8675001 0.51534206 0.87391877 4294967295
2.8583333 -0.90551507 0.86724049 4294967295
2.8588421 2.2687147 0.83777732 4294967295
2.8617859 2.2344854 0.83718693 4294967295
2.8623881 2.207176 0.83198237 4294967295
2.8612499 0.52085739 0.83330166 4294967295
2.8706667 -0.92052281 0.8376767 4294967295
2.8770001 -0.93145412 0.82503194 4294967295
2.8647857 2.202647 0.80474389 4294967295
2.8726666 0.5273757 0.80680227 4294967295
2.8670001 -0.94682568 0.8040303 4294967295
2.8628004 2.2002614 0.77392471 4294967295
2.8640001 0.54793787 0.7638489 4294967295
2.8603334 0.53616911 0.78344607 4294967295
2.8770001 -0.95815462 0.76495576 4294967295
2.8675001 -0.96164382 0.77412653 4294967295
2.8641 2.2025928 0.7452451 4294967295
2.8623333 0.55868083 0.73936844 4294967295
2.8651114 -0.95048857 0.74473476 4294967295
2.8601251 2.2302134 0.71168637 4294967295
2.8603334 2.21738 0.72592366 4294967295
2.8675001 0.55191547 0.71923304 4294967295
2.8631999 0.52521461 0.71330595 4294967295
2.8720002 0.49614534 0.71122181 4294967295
2.855 0.46340796 0.70346582 4294967295
2.8582001 0.43407491 0.70500648 4294967295
2.8660002 0.40536726 0.71082234 4294967295
2.8616002 0.37484592 0.71052939 4294967295
2.8595002 0.34472904 0.71038955 4294967295
