# .PCD v0.7 - Point Cloud Data file format
VERSION 0.7
FIELDS x y z rgb
SIZE 4 4 4 4
TYPE F F F U
COUNT 1 1 1 1
WIDTH 1060
HEIGHT 1
VIEWPOINT 0 0 0 1 0 0 0
POINTS 1060
DATA ascii
2.6483872 -1.4571673 0.052095432 4278190080
2.6520278 -1.4712534 0.052269954 4278190080
2.6514981 -1.4824795 0.052357219 4278190080
2.6506619 -1.4941808 0.05244448 4278190080
2.6497765 -1.5058944 0.052531742 4278190080
2.6488414 -1.5176197 0.052619003 4278190080
2.647857 -1.5293572 0.052706268 4278190080
2.6468225 -1.541106 0.052793525 4278190080
2.6457386 -1.5528663 0.05288079 4278190080
2.6446044 -1.5646378 0.052968051 4278190080
2.6434205 -1.5764202 0.053055316 4278190080
2.6421862 -1.5882134 0.053142574 4278190080
2.6451776 -1.6026076 0.0533171 4278190080
2.6438341 -1.6144367 0.053404361 4278190080
2.6466978 -1.6288961 0.053578887 4278190080
2.6452441 -1.6407601 0.053666152 4278190080
2.6437397 -1.6526334 0.05375341 4278190080
2.6294951 -1.6565224 0.053578887 4278190080
2.6405787 -1.6764089 0.053927936 4278190080
0.98868525 -0.70288175 0.020506578 4278190080
0.94163525 -0.67414463 0.019546695 4278190080
2.6416881 -1.9906548 0.057069369 4278190080
2.6267593 -1.9938189 0.056894846 4278190080
2.6316979 -2.012085 0.05715663 4278190080
2.63258 -2.0273595 0.057331152 4278190080
2.6294374 -2.0396006 0.057418417 4278190080
2.6301808 -2.0549223 0.05759294 4278190080
2.6308491 -2.0702741 0.057767466 4278190080
2.6314421 -2.0856555 0.057941988 4278190080
2.624146 -2.0948281 0.057941988 4278190080
2.6168177 -2.1039753 0.057941988 4278190080
2.6214361 -2.1379912 0.058378302 4278190080
2.3672013 -2.4164627 0.058378302 4278190080
0.8439464 -0.89213634 0.020768363 4278190080
0.85125381 -0.90585929 0.021030148 4278190080
2.1853666 -2.4092784 0.056109484 4278190080
2.1673257 -2.40537 0.055847697 4278190080
2.1522493 -2.4054694 0.055673175 4278190080
2.1371987 -2.405493 0.055498648 4278190080
0.81913346 -0.94164121 0.02111741 4278190080
0.81584156 -0.94449478 0.02111741 4278190080
2.0033798 -2.4019725 0.053927936 4278190080
1.9886059 -2.4012504 0.05375341 4278190080
1.9738615 -2.4004545 0.053578887 4278190080
1.9528235 -2.3918402 0.053229839 4278190080
1.9413142 -2.3947587 0.053142574 4278190080
1.9266741 -2.3937316 0.052968051 4278190080
1.9151858 -2.3965371 0.05288079 4278190080
1.900594 -2.3953753 0.052706268 4278190080
1.8860337 -2.3941407 0.052531742 4278190080
1.8715053 -2.3928342 0.052357219 4278190080
1.8570092 -2.3914549 0.052182697 4278190080
1.8425454 -2.3900042 0.052008171 4278190080
1.8281145 -2.3884816 0.051833648 4278190080
1.8167413 -2.3908677 0.051746383 4278190080
1.8023632 -2.3892128 0.051571861 4278190080
1.7707256 -2.3816776 0.051135547 4278190080
1.6611948 -2.3865891 0.050088406 4278190080
1.644329 -2.380034 0.049826622 4278190080
1.636011 -2.3857594 0.049826622 4278190080
1.6192347 -2.3790569 0.049564831 4278190080
1.6053234 -2.3764095 0.049390309 4278190080
1.5942346 -2.3778465 0.049303047 4278190080
1.5803856 -2.3750725 0.049128521 4278190080
1.5693305 -2.3764031 0.04904126 4278190080
1.5582855 -2.3776851 0.048953999 4278190080
1.5445249 -2.3747284 0.048779473 4278190080
1.5335151 -2.3759053 0.048692212 4278190080
1.5229307 -2.3767681 0.04860495 4278190080
1.5092602 -2.3736324 0.048430424 4278190080
1.4982978 -2.3746583 0.048343167 4278190080
1.4873466 -2.3756366 0.048255902 4278190080
1.4737688 -2.3723209 0.048081379 4278190080
1.4624416 -2.3734505 0.047994118 4278190080
1.45154 -2.3742754 0.047906853 4278190080
1.4384718 -2.3705282 0.047732331 4278190080
1.4276098 -2.3712521 0.04764507 4278190080
1.4167602 -2.3719289 0.047557805 4278190080
1.4059237 -2.3725591 0.047470547 4278190080
1.3950996 -2.3731425 0.047383282 4278190080
1.3842889 -2.3736794 0.047296021 4278190080
1.3734913 -2.3741696 0.04720876 4278190080
1.3577307 -2.3659418 0.046946973 4278190080
1.3498776 -2.3704312 0.046946973 4278190080
1.328409 -2.3710742 0.046772446 4278190080
1.2654096 -2.3939826 0.046597924 4278190080
1.234834 -2.3761427 0.046074349 4278190080
1.2173729 -2.3626626 0.045725305 4278190080
1.2022957 -2.3535416 0.045463517 4278190080
1.1940728 -2.3577242 0.045463517 4278190080
1.1835923 -2.3574102 0.045376256 4278190080
1.1731287 -2.3570518 0.045288995 4278190080
1.1626821 -2.3566492 0.04520173 4278190080
1.1544487 -2.3606932 0.04520173 4278190080
1.1440209 -2.3602099 0.045114473 4278190080
1.1340221 -2.3594849 0.045027208 4278190080
1.1236293 -2.3589158 0.044939946 4278190080
1.1132541 -2.3583026 0.044852685 4278190080
1.1028972 -2.357646 0.044765424 4278190080
1.0925583 -2.3569458 0.044678159 4278190080
1.0801508 -2.3516593 0.044503637 4278190080
1.0698647 -2.3508651 0.044416372 4278190080
1.0595973 -2.350028 0.044329111 4278190080
1.0493487 -2.3491478 0.044241849 4278190080
1.0391195 -2.3482246 0.044154588 4278190080
1.0269021 -2.3426805 0.043980066 4278190080
1.0167273 -2.3416648 0.043892801 4278190080
1.0065721 -2.3406074 0.04380554 4278190080
0.99684519 -2.3393331 0.043718275 4278190080
0.98478574 -2.3335867 0.043543752 4278190080
0.97470653 -2.3323975 0.043456491 4278190080
0.97229362 -2.3496435 0.043718275 4278190080
0.96598113 -2.3576493 0.04380554 4278190080
0.95774561 -2.3610067 0.04380554 4278190080
0.85972667 -2.3505852 0.043020181 4278190080
0.85151649 -2.3535719 0.043020181 4278190080
0.84329593 -2.3565297 0.043020181 4278190080
0.8367328 -2.364172 0.043107443 4278190080
0.82517231 -2.3576412 0.04293292 4278190080
0.81530237 -2.3557827 0.042845655 4278190080
0.8054558 -2.3538845 0.042758398 4278190080
0.79563242 -2.3519461 0.042671133 4278190080
0.78424662 -2.3452268 0.04249661 4278190080
0.77960497 -2.3573072 0.042671133 4278190080
0.76671201 -2.3457584 0.042409346 4278190080
0.75851923 -2.3484206 0.042409346 4278190080
0.039864339 -0.67697978 0.01116954 4278190080
0.038053844 -0.68709803 0.011344064 4278190080
0.035396203 -0.68223411 0.011256802 4278190080
0.032531299 -0.67236674 0.011082278 4278190080
0.030408302 -0.67747039 0.01116954 4278190080
0.028043339 -0.67757243 0.01116954 4278190080
0.025867239 -0.68266183 0.011256802 4278190080
0.023656039 -0.68774426 0.011344064 4278190080
0.021409577 -0.69281948 0.011431326 4278190080
0.019128062 -0.69788736 0.011518587 4278190080
0.016811427 -0.70294768 0.011605849 4278190080
0.014357523 -0.7030021 0.011605849 4278190080
0.012026269 -0.70304585 0.011605849 4278190080
0.0095720515 -0.70308352 0.011605849 4278190080
0.0070672054 -0.69811368 0.011518587 4278190080
0.0045639235 -0.68813586 0.011344064 4278190080
0.0021147735 -0.67314994 0.011082278 4278190080
-0.00023144584 -0.66315478 0.010907754 4278190080
-0.0025079481 -0.65315151 0.01073323 4278190080
-0.0046778843 -0.63814145 0.010471444 4278190080
-0.0068513402 -0.63312227 0.010384182 4278190080
-0.008989729 -0.62809581 0.010296919 4278190080
-0.010984425 -0.62306404 0.010209657 4278190080
-0.013159225 -0.6230219 0.010209657 4278190080
-0.015333947 -0.62297219 0.010209657 4278190080
-0.017508399 -0.62291485 0.010209657 4278190080
-0.019682638 -0.62284994 0.010209657 4278190080
-0.02185672 -0.62277746 0.010209657 4278190080
-0.024030453 -0.62269735 0.010209657 4278190080
-0.026203975 -0.62260967 0.010209657 4278190080
-0.028377095 -0.62251443 0.010209657 4278190080
-0.030549871 -0.62241161 0.010209657 4278190080
-0.032459844 -0.6173088 0.010122395 4278190080
-0.034614425 -0.61719173 0.010122395 4278190080
-0.036471307 -0.61207676 0.010035134 4278190080
-0.038607597 -0.61194575 0.010035134 4278190080
-0.040636696 -0.61181438 0.010035134 4278190080
-0.042772047 -0.61166877 0.010035134 4278190080
-0.044906877 -0.61151576 0.010035134 4278190080
-0.047424778 -0.61633974 0.010122395 4278190080
-0.049575884 -0.61617047 0.010122395 4278190080
-0.052144792 -0.62097538 0.010209657 4278190080
-0.05431205 -0.62078959 0.010209657 4278190080
-0.057837926 -0.6355322 0.010471444 4278190080
-0.061467458 -0.65025759 0.01073323 4278190080
-0.064712554 -0.65998983 0.010907754 4278190080
-0.068026416 -0.66970718 0.011082278 4278190080
-0.070886239 -0.67443752 0.01116954 4278190080
-0.073779911 -0.67915595 0.011256802 4278190080
-0.076150216 -0.67889428 0.011256802 4278190080
-0.078401029 -0.67863804 0.011256802 4278190080
-0.080769494 -0.67836022 0.011256802 4278190080
-0.083136886 -0.67807418 0.011256802 4278190080
-0.084877647 -0.67281991 0.01116954 4278190080
-0.086466126 -0.66757691 0.011082278 4278190080
-0.087477028 -0.6573599 0.010907754 4278190080
-0.089094326 -0.65209734 0.010820492 4278190080
-0.090676047 -0.64683157 0.01073323 4278190080
-0.09222202 -0.6415627 0.010645968 4278190080
-0.093732312 -0.63629097 0.010558705 4278190080
-0.09584184 -0.63597667 0.010558705 4278190080
-0.097298965 -0.63069749 0.010471444 4278190080
-0.099499971 -0.63035399 0.010471444 4278190080
-0.10090297 -0.62506747 0.010384182 4278190080
-0.1030843 -0.62471145 0.010384182 4278190080
-0.10443316 -0.61941814 0.010296919 4278190080
-0.10659466 -0.61904985 0.010296919 4278190080
-0.10875495 -0.61867398 0.010296919 4278190080
-0.11091383 -0.6182906 0.010296919 4278190080
-0.11307144 -0.61789966 0.010296919 4278190080
-0.11522759 -0.6175012 0.010296919 4278190080
-0.11831653 -0.62200642 0.010384182 4278190080
-0.11847761 -0.61179453 0.010209657 4278190080
-0.12448289 -0.63099605 0.010558705 4278190080
-0.12778035 -0.63543671 0.010645968 4278190080
-0.1310003 -0.63988447 0.01073323 4278190080
-0.19875245 -0.66926086 0.011518587 4278190080
-0.2140467 -0.71164948 0.012303947 4278190080
-0.20924643 -0.68698633 0.011867637 4278190080
-0.19691001 -0.63847965 0.010995016 4278190080
-0.19158049 -0.61396164 0.010558705 4278190080
-0.18468764 -0.58468676 0.010035134 4278190080
-0.18520509 -0.57927674 0.0099478718 4278190080
-1.9441282 -2.2819216 0.051659122 4278190080
-1.9665489 -2.2758586 0.051833648 4278190080
-1.9810447 -2.2765226 0.052008171 4278190080
-1.9955688 -2.2771134 0.052182697 4278190080
-2.006813 -2.2738819 0.052269954 4278190080
-2.0213809 -2.2743359 0.05244448 4278190080
-2.0359755 -2.2747164 0.052619003 4278190080
-2.0505974 -2.2750225 0.052793525 4278190080
-2.0686061 -2.2789562 0.053055316 4278190080
-2.0799215 -2.2754114 0.053142574 4278190080
-2.0912378 -2.2718151 0.053229839 4278190080
-2.0987599 -2.2648675 0.053229839 4278190080
-2.106653 -2.2575278 0.053229839 4278190080
-2.1179435 -2.2538037 0.0533171 4278190080
-2.1257977 -2.246397 0.0533171 4278190080
-2.1370749 -2.2425823 0.053404361 4278190080
-2.1483519 -2.2387154 0.053491622 4278190080
-2.1592369 -2.2351749 0.053578887 4278190080
-2.1739984 -2.2347906 0.05375341 4278190080
-2.1817858 -2.2271883 0.05375341 4278190080
-2.1965685 -2.2266769 0.053927936 4278190080
-2.2078509 -2.2225428 0.054015197 4278190080
-2.219131 -2.2183568 0.054102458 4278190080
-0.65473413 -0.6364789 0.015270855 4278190080
-2.415992 -2.2372334 0.056807581 4278190080
-2.4127469 -2.2186348 0.056545798 4278190080
-2.4311643 -2.2207365 0.056807581 4278190080
-2.4426041 -2.2155955 0.056894846 4278190080
-2.4507084 -2.2066278 0.056894846 4278190080
-2.4776528 -2.1989896 0.05715663 4278190080
-3.0877252 -2.2789633 0.066319145 4278190080
-3.0835633 -2.2593071 0.066057354 4278190080
-3.0995166 -2.2544112 0.066231877 4278190080
-3.078995 -2.223093 0.065621048 4278190080
-3.0948629 -2.2181566 0.065795571 4278190080
-3.1107342 -2.2131355 0.065970093 4278190080
-3.122524 -2.2051475 0.066057354 4278190080
-3.1424832 -2.2028434 0.066319145 4278190080
-3.1706715 -2.2061372 0.066755451 4278190080
-3.1783528 -2.1950562 0.066755451 4278190080
-3.4137642 -2.2025516 0.070245937 4278190080
-3.4130111 -2.1852307 0.070071407 4278190080
-3.4371152 -2.1846273 0.070420459 4278190080
-3.4658625 -2.1859512 0.070856772 4278190080
-3.4900415 -2.1850574 0.071205817 4278190080
-3.5150146 -2.1828001 0.071554862 4278190080
-3.5438936 -2.1836298 0.071991175 4278190080
-3.5685551 -2.1816766 0.072340228 4278190080
-3.5975206 -2.1821706 0.072776534 4278190080
-3.6222498 -2.1799099 0.073125586 4278190080
-3.6470065 -2.1775043 0.073474631 4278190080
-3.6330786 -2.1520214 0.073038317 4278190080
-2.9659197 -1.6474216 0.058552824 4278190080
-2.9059708 -1.6008753 0.057243891 4278190080
-2.8676701 -1.566752 0.056371272 4278190080
-2.8115842 -1.5233902 0.0551496 4278190080
-2.7640393 -1.4851719 0.054102458 4278190080
-2.7250865 -1.4520062 0.053229839 4278190080
-2.6947768 -1.4238018 0.052531742 4278190080
-2.8378041 -1.3505243 0.054189723 4278190080
-2.8379793 -1.3384778 0.054102458 4278190080
-2.833576 -1.3243301 0.053927936 4278190080
-2.8470242 -1.3191296 0.054102458 4278190080
-2.8561547 -1.3112696 0.054189723 4278190080
-2.8607144 -1.3012919 0.054189723 4278190080
-2.892554 -1.2914791 0.054626029 4278190080
-1.5755197 -0.61966097 0.028883733 4278190080
-1.5217686 -0.59239519 0.027836587 4278190080
-3.1972401 -1.1934915 0.058901872 4278190080
-3.1920075 -1.1788601 0.058727346 4278190080
-4.0095334 -1.3868583 0.07338737 4278190080
-3.9670472 -1.3566773 0.072514743 4278190080
-3.9433439 -1.3332137 0.071991175 4278190080
-3.9290078 -1.3131025 0.071642131 4278190080
-4.0088792 -1.2778542 0.072776534 4278190080
-3.9465578 -1.2428302 0.071554862 4278190080
-3.9413245 -1.2260767 0.07138034 4278190080
-3.936023 -1.2093751 0.071205817 4278190080
-4.0005131 -1.168316 0.072078444 4278190080
-3.9421191 -1.1363438 0.070944034 4278190080
-3.9268279 -1.1171049 0.070594989 4278190080
-2.0844634 -0.57728916 0.037086364 4278190080
-4.0251155 -1.0996369 0.072165698 4278190080
-3.922734 -1.0569662 0.070245937 4278190080
-2.2461841 -0.5721274 0.039791487 4278190080
-3.9311063 -0.94304991 0.069896892 4278190080
-3.9147511 -0.92540818 0.069547839 4278190080
-3.9276958 -0.91400385 0.069722362 4278190080
-3.901468 -0.89427239 0.069198787 4278190080
-3.9146271 -0.88148159 0.069373317 4278190080
-3.9079185 -0.86564946 0.069198787 4278190080
-3.9109163 -0.8520022 0.069198787 4278190080
-3.9089782 -0.83729845 0.069111526 4278190080
-3.906985 -0.82261872 0.069024265 4278190080
-3.904937 -0.80796301 0.068937004 4278190080
-3.9077337 -0.79432756 0.068937004 4278190080
-3.9055803 -0.77970266 0.068849742 4278190080
-3.9082782 -0.76606506 0.068849742 4278190080
-3.9058878 -0.75215501 0.068762481 4278190080
-3.9035773 -0.73758841 0.06867522 4278190080
-3.9061282 -0.72395808 0.06867522 4278190080
-3.9037127 -0.70942503 0.068587951 4278190080
-3.9061651 -0.6957944 0.068587951 4278190080
-3.9036458 -0.6812948 0.068500698 4278190080
-3.9059999 -0.66766459 0.068500698 4278190080
-3.9033759 -0.6532011 0.068413429 4278190080
-3.9056323 -0.63957202 0.068413429 4278190080
-3.9029047 -0.62514448 0.068326168 4278190080
-3.9001241 -0.61074269 0.068238907 4278190080
-3.9022322 -0.59712523 0.068238907 4278190080
-3.8993485 -0.58276153 0.068151645 4278190080
-3.8964119 -0.56842524 0.068064384 4278190080
-3.8934231 -0.55411661 0.067977123 4278190080
-3.8903818 -0.53983468 0.067889862 4278190080
-3.8922424 -0.52625161 0.067889862 4278190080
-3.8890994 -0.51200962 0.067802601 4278190080
-3.8908629 -0.49843124 0.067802601 4278190080
-3.8876181 -0.48422885 0.067715332 4278190080
-3.8892846 -0.47065476 0.067715332 4278190080
-3.8909039 -0.45707595 0.067715332 4278190080
-3.8875086 -0.44292566 0.067628078 4278190080
-3.8890312 -0.42935324 0.067628078 4278190080
-3.885535 -0.41524431 0.06754081 4278190080
-3.886961 -0.40167791 0.06754081 4278190080
-3.8832972 -0.38828957 0.067453548 4278190080
-3.884629 -0.37473115 0.067453548 4278190080
-3.8809354 -0.36070651 0.067366287 4278190080
-3.8821709 -0.34715754 0.067366287 4278190080
-3.8784363 -0.33249888 0.067279026 4278190080
-3.8795733 -0.31895879 0.067279026 4278190080
-3.8756793 -0.30502257 0.067191765 4278190080
-3.8767202 -0.29149225 0.067191765 4278190080
-3.8726792 -0.27827653 0.067104504 4278190080
-3.8736272 -0.26475689 0.067104504 4278190080
-3.8695388 -0.25091049 0.067017242 4278190080
-3.8703911 -0.23740093 0.067017242 4278190080
-3.8711963 -0.2238895 0.067017242 4278190080
-3.8719907 -0.20969994 0.067017242 4278190080
-3.8726649 -0.19685863 0.067017242 4278190080
-3.8733284 -0.18333952 0.067017242 4278190080
-3.8739448 -0.16981713 0.067017242 4278190080
-3.8695188 -0.15609221 0.066929974 4278190080
-3.8700399 -0.14258432 0.066929974 4278190080
-3.8705142 -0.12907471 0.066929974 4278190080
-3.8659441 -0.11541433 0.066842712 4278190080
-3.8663235 -0.10191814 0.066842712 4278190080
-3.8666558 -0.08842174 0.066842712 4278190080
-3.8669407 -0.07492426 0.066842712 4278190080
-3.86218 -0.061346464 0.066755451 4278190080
-3.8623707 -0.047864772 0.066755451 4278190080
-3.8575153 -0.034336973 0.06666819 4278190080
-3.8526125 -0.020844677 0.066580929 4278190080
-3.8526616 -0.0073966295 0.066580929 4278190080
-3.8476648 0.0060436567 0.066493668 4278190080
-3.8476205 0.019474272 0.066493668 4278190080
-3.8425298 0.03286292 0.066406406 4278190080
-3.8423917 0.046275448 0.066406406 4278190080
-3.8422067 0.05968741 0.066406406 4278190080
-3.8369768 0.073003545 0.066319145 4278190080
-3.8366985 0.086396448 0.066319145 4278190080
-3.8363736 0.099789314 0.066319145 4278190080
-3.8409989 0.11332738 0.066406406 4278190080
-3.8405797 0.12673408 0.066406406 4278190080
-3.8401141 0.14013922 0.066406406 4278190080
-3.8445969 0.15374242 0.066493668 4278190080
-3.8440368 0.16716245 0.066493668 4278190080
-3.8434298 0.18057942 0.066493668 4278190080
-3.8377831 0.19374213 0.066406406 4278190080
-3.8370833 0.20713711 0.066406406 4278190080
-3.8363371 0.22052957 0.066406406 4278190080
-3.830554 0.23361604 0.066319145 4278190080
-3.8297153 0.24698554 0.066319145 4278190080
-3.8288298 0.26035202 0.066319145 4278190080
-3.8278975 0.27371535 0.066319145 4278190080
-3.8269188 0.28707534 0.066319145 4278190080
-3.8308771 0.3008242 0.066406406 4278190080
-3.8298037 0.31419441 0.066406406 4278190080
-3.8286836 0.32756081 0.066406406 4278190080
-3.827517 0.34092322 0.066406406 4278190080
-3.8263037 0.35428146 0.066406406 4278190080
-3.8250437 0.36763641 0.066406406 4278190080
-3.8237371 0.38098586 0.066406406 4278190080
-3.8223839 0.39433065 0.066406406 4278190080
-3.8209841 0.40767068 0.066406406 4278190080
-3.8195379 0.4210057 0.066406406 4278190080
-3.8230121 0.43490171 0.066493668 4278190080
-3.826436 0.44882604 0.066580929 4278190080
-3.8298092 0.46277958 0.06666819 4278190080
-3.8332145 0.47609347 0.066755451 4278190080
-3.8364882 0.49010432 0.066842712 4278190080
-3.8397107 0.50414371 0.066929974 4278190080
-3.8428822 0.51821166 0.067017242 4278190080
-3.8410497 0.53162348 0.067017242 4278190080
-3.8391707 0.54502779 0.067017242 4278190080
-3.8371472 0.55909485 0.067017242 4278190080
-3.8351722 0.5724864 0.067017242 4278190080
-3.8332529 0.58520031 0.067017242 4278190080
-3.8361261 0.5993498 0.067104504 4278190080
-3.8340106 0.61273652 0.067104504 4278190080
-3.8318484 0.6261158 0.067104504 4278190080
-3.8345704 0.64031076 0.067191765 4278190080
-3.8323119 0.65369183 0.067191765 4278190080
-3.8349319 0.66792375 0.067279026 4278190080
-3.832577 0.68130589 0.067279026 4278190080
-3.8350945 0.69557184 0.067366287 4278190080
-3.832643 0.70895439 0.067366287 4278190080
-3.8300188 0.72299743 0.067366287 4278190080
-3.832381 0.73730659 0.067453548 4278190080
-3.8296528 0.75134844 0.067453548 4278190080
-3.8321762 0.76435328 0.06754081 4278190080
-3.8294847 0.77772522 0.06754081 4278190080
-3.8316426 0.79209977 0.067628078 4278190080
-3.8288541 0.80547071 0.067628078 4278190080
-3.8309076 0.81987697 0.067715332 4278190080
-3.8280225 0.83324414 0.067715332 4278190080
-3.8153284 0.84444046 0.06754081 4278190080
-3.817235 0.85885048 0.067628078 4278190080
-3.7819288 0.87869102 0.067104504 4278190080
-3.6929018 0.88590598 0.065621048 4278190080
-3.5507417 0.87806201 0.063177712 4278190080
-3.4652247 0.86976111 0.061694253 4278190080
-3.4427896 0.87691569 0.061345205 4278190080
-3.410666 0.88142347 0.060821634 4278190080
-3.3447027 0.87684256 0.059687227 4278190080
-3.293308 0.87566602 0.058814608 4278190080
-3.2371359 0.87283999 0.057854723 4278190080
-3.1858466 0.870951 0.056982104 4278190080
-3.1394281 0.87005079 0.056196749 4278190080
-3.0930552 0.86883634 0.055411391 4278190080
-3.051538 0.86867768 0.054713294 4278190080
-3.0100601 0.86823988 0.054015197 4278190080
-2.9686224 0.86752319 0.0533171 4278190080
-2.927227 0.86652881 0.052619003 4278190080
-2.8860266 0.8647511 0.051920906 4278190080
-2.8447196 0.86320764 0.051222812 4278190080
-2.8034592 0.8613857 0.050524715 4278190080
-2.7622466 0.85928637 0.049826622 4278190080
-2.7258518 0.85841155 0.049215786 4278190080
-2.6894968 0.85729325 0.04860495 4278190080
-2.653034 0.8563953 0.047994118 4278190080
-2.6167636 0.85478455 0.047383282 4278190080
-2.5805371 0.85293108 0.046772446 4278190080
-2.5490968 0.85242146 0.046248876 4278190080
-2.5176923 0.85170221 0.045725305 4278190080
-2.4863241 0.85077417 0.04520173 4278190080
-2.4549935 0.84963769 0.044678159 4278190080
-2.4237013 0.84829295 0.044154588 4278190080
-2.3971612 0.84840876 0.043718275 4278190080
-2.3659437 0.84666473 0.043194704 4278190080
-2.339469 0.84641409 0.042758398 4278190080
-2.3177197 0.84770614 0.042409346 4278190080
-2.2959905 0.84885681 0.042060297 4278190080
-2.2742815 0.84986687 0.041711248 4278190080
-2.2525938 0.85073513 0.0413622 4278190080
-2.2262576 0.84967989 0.040925894 4278190080
-2.1999562 0.84845114 0.04048958 4278190080
-2.1736908 0.8470493 0.040053271 4278190080
-2.1521137 0.84730655 0.039704222 4278190080
-2.1259167 0.84557539 0.039267916 4278190080
-2.1043971 0.84553558 0.038918868 4278190080
-2.0829039 0.84535593 0.038569819 4278190080
-2.0614376 0.84503663 0.038220771 4278190080
-2.0399988 0.84457833 0.037871718 4278190080
-2.018589 0.84398025 0.03752267 4278190080
-1.9972085 0.84324312 0.037173625 4278190080
-1.975858 0.84236711 0.036824577 4278190080
-1.954538 0.8413524 0.036475528 4278190080
-1.9378344 0.84219247 0.036213744 4278190080
-1.9165709 0.84091699 0.035864696 4278190080
-1.899911 0.841528 0.035602909 4278190080
-1.8787068 0.83999252 0.03525386 4278190080
-1.8575366 0.83831936 0.034904812 4278190080
-1.8364007 0.83650923 0.034555763 4278190080
-1.8153008 0.83456135 0.034206714 4278190080
-1.798772 0.8345806 0.033944931 4278190080
-1.7775923 0.83268529 0.033595882 4278190080
-1.7656355 0.83461219 0.033421356 4278190080
-1.7490292 0.83461863 0.033159573 4278190080
-1.7373883 0.83577514 0.032985047 4278190080
-1.7209679 0.8352859 0.032723263 4278190080
-1.7045722 0.8346923 0.032461476 4278190080
-1.6882018 0.83399445 0.032199688 4278190080
-1.671857 0.83319306 0.031937901 4278190080
-1.6555388 0.83228731 0.031676117 4278190080
-1.6392474 0.83127797 0.03141433 4278190080
-1.6229835 0.83016503 0.031152545 4278190080
-1.6067474 0.8289488 0.030890759 4278190080
-1.5905395 0.82762986 0.030628974 4278190080
-1.5787874 0.82853055 0.030454449 4278190080
-1.5626301 0.82702088 0.030192664 4278190080
-1.550913 0.82776242 0.030018138 4278190080
-1.5348077 0.8260631 0.029756352 4278190080
-1.5231271 0.82664651 0.029581828 4278190080
-1.511317 0.82742178 0.029407304 4278190080
-1.4952897 0.82544404 0.029145518 4278190080
-1.4836626 0.82579625 0.028970994 4278190080
-1.4720517 0.82607698 0.02879647 4278190080
-1.4561059 0.82382512 0.028534684 4278190080
-1.4445364 0.82394892 0.02836016 4278190080
-1.4286501 0.82151002 0.028098375 4278190080
-1.4171233 0.82147783 0.027923848 4278190080
-1.4056146 0.82137495 0.027749324 4278190080
-1.3984314 0.82373911 0.027662063 4278190080
-1.3869504 0.82351077 0.027487539 4278190080
-1.375488 0.82321244 0.027313014 4278190080
-1.3640445 0.82284451 0.02713849 4278190080
-1.3526208 0.82240641 0.026963968 4278190080
-1.3412168 0.8218987 0.026789444 4278190080
-1.3298329 0.82132143 0.026614919 4278190080
-1.3184694 0.82067478 0.026440395 4278190080
-1.3071266 0.81995916 0.026265871 4278190080
-1.2958052 0.81917417 0.026091348 4278190080
-1.2887216 0.82100618 0.026004085 4278190080
-1.2774341 0.82009804 0.025829561 4278190080
-1.2661687 0.81912106 0.025655037 4278190080
-1.2591136 0.82080603 0.025567774 4278190080
-1.2520624 0.82245135 0.025480513 4278190080
-1.2450151 0.82405758 0.025393249 4278190080
-1.237972 0.82562459 0.025305988 4278190080
-1.2309331 0.82715249 0.025218727 4278190080
-1.2238984 0.82864171 0.025131464 4278190080
-1.2127389 0.82727444 0.02495694 4278190080
-1.2016038 0.8258394 0.024782415 4278190080
-1.1904936 0.82433671 0.024607893 4278190080
-1.1794087 0.82276666 0.024433369 4278190080
-1.1724391 0.82400423 0.024346106 4278190080
-1.1613957 0.82231402 0.024171583 4278190080
-1.1544483 0.82345992 0.02408432 4278190080
-1.1434473 0.82165009 0.023909796 4278190080
-1.1363789 0.82290351 0.023822535 4278190080
-1.1294607 0.82391894 0.023735274 4278190080
-1.1185209 0.82193577 0.023560749 4278190080
-1.1116269 0.82286072 0.023473486 4278190080
-1.1047398 0.82374781 0.023386223 4278190080
-1.093863 0.8215943 0.023211699 4278190080
-1.0870018 0.82239127 0.023124438 4278190080
-1.0801482 0.82315034 0.023037175 4278190080
-1.0693371 0.82082766 0.022862652 4278190080
-1.0625103 0.82149768 0.022775389 4278190080
-1.0517477 0.81905818 0.022600865 4278190080
-1.0449487 0.81963903 0.022513604 4278190080
-1.0381587 0.82018244 0.022426343 4278190080
-1.0313774 0.82068849 0.02233908 4278190080
-1.0246053 0.82115746 0.022251818 4278190080
-1.0178427 0.82158893 0.022164555 4278190080
-1.0110894 0.82198322 0.022077294 4278190080
-1.004346 0.82234043 0.021990033 4278190080
-0.99375552 0.81948 0.021815509 4278190080
-0.98704296 0.81975007 0.021728246 4278190080
-0.98034084 0.81998301 0.021640984 4278190080
-0.97364914 0.82017922 0.021553721 4278190080
-0.95934373 0.81387049 0.021291936 4278190080
-0.95269603 0.81396675 0.021204673 4278190080
-0.9421283 0.81093055 0.021030148 4278190080
-0.9364441 0.81748796 0.021030148 4278190080
-0.80219299 0.87636077 0.020070268 4278190080
-0.77222818 0.8495608 0.019372171 4278190080
-0.76590836 0.84854007 0.01928491 4278190080
-0.76294154 0.85120857 0.01928491 4278190080
-0.75664198 0.85013217 0.019197648 4278190080
-0.75035924 0.84902215 0.019110385 4278190080
-0.74409354 0.84787875 0.019023124 4278190080
-0.73784494 0.84670186 0.018935859 4278190080
-0.731466 0.84561962 0.018848598 4278190080
-0.72850984 0.84816772 0.018848598 4278190080
-0.72215271 0.84702796 0.018761335 4278190080
-0.71933985 0.84941804 0.018761335 4278190080
-0.71315306 0.84809756 0.018674074 4278190080
-0.70698428 0.84674424 0.018586813 4278190080
-0.70083362 0.84535825 0.018499549 4278190080
-0.69470137 0.84393966 0.018412288 4278190080
-0.68542361 0.83861798 0.018237764 4278190080
-0.67619181 0.83324176 0.01806324 4278190080
-0.6670059 0.82781136 0.017888715 4278190080
-0.6578663 0.82232708 0.017714193 4278190080
-0.64877313 0.81678921 0.017539669 4278190080
-0.64282221 0.81512356 0.017452406 4278190080
-0.63674915 0.8135373 0.017365145 4278190080
-0.63390553 0.81575501 0.017365145 4278190080
-0.62800026 0.81400466 0.017277882 4278190080
-0.62515503 0.81619179 0.017277882 4278190080
-0.61927623 0.81438959 0.01719062 4278190080
-0.61642975 0.81654626 0.01719062 4278190080
-0.61057764 0.81469256 0.017103357 4278190080
-0.60474575 0.81280822 0.017016096 4278190080
-0.59893471 0.81089288 0.016928833 4278190080
-0.59610057 0.81297863 0.016928833 4278190080
-0.59031713 0.81101251 0.016841572 4278190080
-0.58748263 0.81306809 0.016841572 4278190080
-0.58172703 0.81105167 0.016754311 4278190080
-0.57889247 0.81307727 0.016754311 4278190080
-0.57316548 0.81101042 0.016667048 4278190080
-0.5703311 0.81300616 0.016667048 4278190080
-0.56463301 0.81088942 0.016579786 4278190080
-0.56179887 0.81285554 0.016579786 4278190080
-0.55598867 0.81078613 0.016492523 4278190080
-0.55315518 0.81272191 0.016492523 4278190080
-0.54751629 0.81050533 0.016405262 4278190080
-0.54468381 0.81241155 0.016405262 4278190080
-0.54184467 0.81430787 0.016405262 4278190080
-0.53624403 0.81202263 0.016318001 4278190080
-0.53340632 0.81388944 0.016318001 4278190080
-0.5278362 0.81155574 0.016230738 4278190080
-0.52500015 0.81339329 0.016230738 4278190080
-0.51946133 0.81101108 0.016143475 4278190080
-0.51662725 0.81281936 0.016143475 4278190080
-0.51111996 0.81038934 0.016056214 4278190080
-0.50828791 0.8121686 0.016056214 4278190080
-0.50544983 0.8139379 0.016056214 4278190080
-0.50260562 0.81569725 0.016056214 4278190080
-0.49975529 0.81744671 0.016056214 4278190080
-0.49430615 0.81491178 0.01596895 4278190080
-0.49145839 0.81663239 0.01596895 4278190080
-0.48604205 0.81405056 0.015881689 4278190080
-0.48050818 0.81152475 0.015794428 4278190080
-0.47767234 0.8131972 0.015794428 4278190080
-0.47231391 0.8105402 0.015707165 4278190080
-0.46948177 0.81218392 0.015707165 4278190080
-0.46415713 0.80948085 0.015619904 4278190080
-0.46132872 0.81109613 0.015619904 4278190080
-0.45603806 0.80834752 0.015532642 4278190080
-0.45321366 0.80993444 0.015532642 4278190080
-0.44795778 0.80714029 0.01544538 4278190080
-0.4449966 0.80877668 0.01544538 4278190080
-0.43977591 0.80593675 0.015358117 4278190080
-0.43696004 0.80746692 0.015358117 4278190080
-0.43413883 0.80898726 0.015358117 4278190080
-0.42910442 0.80600965 0.015270855 4278190080
-0.42628834 0.80750257 0.015270855 4278190080
-0.42346707 0.80898565 0.015270855 4278190080
-0.41833746 0.80602181 0.015183594 4278190080
-0.41538057 0.8075496 0.015183594 4278190080
-0.41255918 0.80899465 0.015183594 4278190080
-0.40973282 0.81042975 0.015183594 4278190080
-0.40690121 0.81185514 0.015183594 4278190080
-0.40169939 0.80886352 0.015096332 4278190080
-0.39887351 0.81026077 0.015096332 4278190080
-0.39370945 0.80722398 0.015009069 4278190080
-0.3910304 0.80852515 0.015009069 4278190080
-0.38820577 0.80988514 0.015009069 4278190080
-0.38323128 0.80671966 0.014921807 4278190080
-0.38041303 0.80805248 0.014921807 4278190080
-0.37547633 0.80484504 0.014834545 4278190080
-0.37266466 0.80615079 0.014834545 4278190080
-0.36776656 0.80290157 0.014747282 4278190080
-0.36482123 0.80424416 0.014747282 4278190080
-0.3620117 0.80551267 0.014747282 4278190080
-0.35933849 0.80670875 0.014747282 4278190080
-0.3545022 0.80338442 0.014660021 4278190080
-0.35169575 0.80461693 0.014660021 4278190080
-0.34888503 0.80583966 0.014660021 4278190080
-0.34409982 0.80245793 0.014572759 4278190080
-0.34129646 0.80365425 0.014572759 4278190080
-0.33848915 0.80484068 0.014572759 4278190080
-0.33567771 0.80601734 0.014572759 4278190080
-0.33272114 0.80724227 0.014572759 4278190080
-0.32990137 0.80839872 0.014572759 4278190080
-0.32707757 0.80954534 0.014572759 4278190080
-0.32424977 0.81068212 0.014572759 4278190080
-0.31957769 0.80716085 0.014485497 4278190080
-0.31675804 0.80827153 0.014485497 4278190080
-0.31212693 0.8047114 0.014398235 4278190080
-0.3093161 0.80579597 0.014398235 4278190080
-0.30636054 0.80692428 0.014398235 4278190080
-0.30178389 0.8033089 0.014310973 4278190080
-0.29897803 0.80435741 0.014310973 4278190080
-0.29616854 0.80539614 0.014310973 4278190080
-0.29349607 0.80637383 0.014310973 4278190080
-0.28898612 0.80268973 0.014223712 4278190080
-0.28604209 0.80374354 0.014223712 4278190080
-0.2832348 0.80473709 0.014223712 4278190080
-0.28042406 0.80572087 0.014223712 4278190080
-0.27598312 0.80196762 0.014136449 4278190080
-0.27318189 0.80292618 0.014136449 4278190080
-0.27037755 0.80387485 0.014136449 4278190080
-0.26756987 0.80481374 0.014136449 4278190080
-0.26475897 0.8057428 0.014136449 4278190080
-0.26194483 0.80666208 0.014136449 4278190080
-0.25912729 0.80757159 0.014136449 4278190080
-0.25465581 0.8037501 0.014049187 4278190080
-0.2518487 0.80463409 0.014049187 4278190080
-0.24756163 0.80073214 0.013961924 4278190080
-0.24476509 0.8015914 0.013961924 4278190080
-0.24196556 0.80244088 0.013961924 4278190080
-0.23916309 0.80328059 0.013961924 4278190080
-0.2363577 0.80411053 0.013961924 4278190080
-0.23354922 0.80493075 0.013961924 4278190080
-0.23073812 0.80574107 0.013961924 4278190080
-0.22792418 0.80654156 0.013961924 4278190080
-0.22376478 0.8025167 0.013874662 4278190080
-0.22096215 0.80329287 0.013874662 4278190080
-0.21801636 0.80409735 0.013874662 4278190080
-0.21520825 0.8048535 0.013874662 4278190080
-0.21239752 0.80559981 0.013874662 4278190080
-0.20958419 0.80633628 0.013874662 4278190080
-0.20676811 0.80706298 0.013874662 4278190080
-0.2027259 0.80293268 0.0137874 4278190080
-0.19978155 0.80367035 0.0137874 4278190080
-0.19697526 0.80436277 0.0137874 4278190080
-0.19430678 0.80501151 0.0137874 4278190080
-0.1914954 0.80568492 0.0137874 4278190080
-0.18854126 0.80638134 0.0137874 4278190080
-0.18572514 0.80703461 0.0137874 4278190080
-0.18290719 0.80767792 0.0137874 4278190080
-0.18008658 0.80831152 0.0137874 4278190080
-0.17619368 0.80405188 0.013700139 4278190080
-0.1733862 0.80466199 0.013700139 4278190080
-0.17057617 0.80526233 0.013700139 4278190080
-0.1667456 0.80095851 0.013612877 4278190080
-0.16394855 0.80153573 0.013612877 4278190080
-0.16114949 0.80210316 0.013612877 4278190080
-0.15820867 0.80268836 0.013612877 4278190080
-0.15540606 0.80323571 0.013612877 4278190080
-0.15260112 0.80377328 0.013612877 4278190080
-0.14979434 0.80430108 0.013612877 4278190080
-0.14698614 0.80481905 0.013612877 4278190080
-0.14417574 0.80532724 0.013612877 4278190080
-0.14136399 0.80582559 0.013612877 4278190080
-0.1385501 0.80631411 0.013612877 4278190080
-0.13490511 0.80186296 0.013525615 4278190080
-0.13210553 0.80232888 0.013525615 4278190080
-0.1293039 0.80278516 0.013525615 4278190080
-0.12572338 0.79829323 0.013438352 4278190080
-0.12279634 0.79874873 0.013438352 4278190080
-0.12000769 0.79917246 0.013438352 4278190080
-0.11721716 0.79958653 0.013438352 4278190080
-0.11442562 0.79999077 0.013438352 4278190080
-0.11163227 0.80038536 0.013438352 4278190080
-0.10883755 0.80077016 0.013438352 4278190080
-0.10590197 0.80116367 0.013438352 4278190080
-0.10310457 0.80152851 0.013438352 4278190080
-0.10030634 0.80188346 0.013438352 4278190080
-0.097506464 0.80222875 0.013438352 4278190080
-0.094705828 0.8025642 0.013438352 4278190080
-0.09176334 0.80290592 0.013438352 4278190080
-0.089100264 0.80320585 0.013438352 4278190080
-0.086296268 0.80351192 0.013438352 4278190080
-0.083490789 0.80380827 0.013438352 4278190080
-0.080684729 0.80409479 0.013438352 4278190080
-0.07725583 0.79940909 0.01335109 4278190080
-0.074465156 0.79967386 0.01335109 4278190080
-0.071673147 0.79992896 0.01335109 4278190080
-0.068880692 0.80017424 0.01335109 4278190080
-0.066086978 0.80040979 0.01335109 4278190080
-0.063292451 0.80063564 0.01335109 4278190080
-0.060497582 0.8008517 0.01335109 4278190080
-0.057701547 0.80105799 0.01335109 4278190080
-0.054765254 0.80126411 0.01335109 4278190080
-0.051967818 0.80145037 0.01335109 4278190080
-0.049170174 0.80162686 0.01335109 4278190080
-0.046371501 0.80179363 0.01335109 4278190080
-0.043301046 0.79695874 0.013263829 4278190080
-0.04077293 0.80209786 0.01335109 4278190080
-0.037972666 0.80223531 0.01335109 4278190080
-0.03495343 0.79736853 0.013263829 4278190080
-0.032169711 0.79748565 0.013263829 4278190080
-0.029385602 0.79759312 0.013263829 4278190080
-0.026601559 0.79769081 0.013263829 4278190080
-0.023816764 0.79777879 0.013263829 4278190080
-0.021032108 0.79785705 0.013263829 4278190080
-0.018246768 0.79792565 0.013263829 4278190080
-0.015461206 0.79798448 0.013263829 4278190080
-0.012675882 0.7980336 0.013263829 4278190080
-0.0097509762 0.79807466 0.013263829 4278190080
-0.0069649466 0.79810387 0.013263829 4278190080
-0.0043182666 0.79812258 0.013263829 4278190080
-0.0015321027 0.79813278 0.013263829 4278190080
0.0013930914 0.79813302 0.013263829 4278190080
0.0041788318 0.7981233 0.013263829 4278190080
0.0069213207 0.79310483 0.013176567 4278190080
0.0096899001 0.7930758 0.013176567 4278190080
0.012457939 0.79303718 0.013176567 4278190080
0.015226248 0.79298884 0.013176567 4278190080
0.017993949 0.79293084 0.013176567 4278190080
0.020761853 0.79286319 0.013176567 4278190080
0.023529505 0.79278588 0.013176567 4278190080
0.026296448 0.79269898 0.013176567 4278190080
0.029201541 0.79259723 0.013176567 4278190080
0.031968214 0.79249048 0.013176567 4278190080
0.034734495 0.79237407 0.013176567 4278190080
0.037499931 0.79224801 0.013176567 4278190080
0.040265333 0.79211229 0.013176567 4278190080
0.043029822 0.79196692 0.013176567 4278190080
0.045794208 0.79181188 0.013176567 4278190080
0.048558038 0.7916472 0.013176567 4278190080
0.051644336 0.79646164 0.013263829 4278190080
0.05442436 0.79627651 0.013263829 4278190080
0.057342377 0.79607165 0.013263829 4278190080
0.060121004 0.79586667 0.013263829 4278190080
0.0625045 0.79066825 0.013176567 4278190080
0.06526424 0.79044527 0.013176567 4278190080
0.068023175 0.79021263 0.013176567 4278190080
0.070780866 0.7899704 0.013176567 4278190080
0.073538117 0.78971851 0.013176567 4278190080
0.07629405 0.78945702 0.013176567 4278190080
0.079049468 0.78918588 0.013176567 4278190080
0.081803925 0.78890508 0.013176567 4278190080
0.084694743 0.78859997 0.013176567 4278190080
0.087446705 0.78829956 0.013176567 4278190080
0.090198018 0.7879895 0.013176567 4278190080
0.092948236 0.78766984 0.013176567 4278190080
0.095696896 0.78734064 0.013176567 4278190080
0.099065319 0.79196233 0.013263829 4278190080
0.10182893 0.79161173 0.013263829 4278190080
0.10459172 0.79125142 0.013263829 4278190080
0.10735323 0.79088151 0.013263829 4278190080
0.11025112 0.79048276 0.013263829 4278190080
0.11300991 0.79009306 0.013263829 4278190080
0.11576691 0.78969377 0.013263829 4278190080
0.11852292 0.78928483 0.013263829 4278190080
0.1220367 0.79380757 0.01335109 4278190080
0.12480704 0.79337668 0.01335109 4278190080
0.12757584 0.79293615 0.01335109 4278190080
0.13034268 0.79248607 0.01335109 4278190080
0.13310835 0.79202622 0.01335109 4278190080
0.13587198 0.79155684 0.01335109 4278190080
0.13863435 0.79107767 0.01335109 4278190080
0.14139506 0.79058892 0.01335109 4278190080
0.14415361 0.79009056 0.01335109 4278190080
0.14704835 0.78955692 0.01335109 4278190080
0.1498037 0.78903878 0.01335109 4278190080
0.15255721 0.78851104 0.01335109 4278190080
0.15530844 0.78797376 0.01335109 4278190080
0.15904208 0.7923283 0.013438352 4278190080
0.16180658 0.79176831 0.013438352 4278190080
0.16470778 0.79116988 0.013438352 4278190080
0.16746822 0.79059023 0.013438352 4278190080
0.169174 0.78511369 0.01335109 4278190080
0.17191327 0.78451848 0.01335109 4278190080
0.17465088 0.78391355 0.01335109 4278190080
0.17738634 0.78329909 0.01335109 4278190080
0.18011923 0.78267521 0.01335109 4278190080
0.18398854 0.78690958 0.013438352 4278190080
0.18673399 0.78626263 0.013438352 4278190080
0.18947759 0.78560597 0.013438352 4278190080
0.19221888 0.78493971 0.013438352 4278190080
0.19495741 0.78426403 0.013438352 4278190080
0.19891694 0.78842604 0.013525615 4278190080
0.20166761 0.78772694 0.013525615 4278190080
0.20455371 0.78698242 0.013525615 4278190080
0.20729929 0.78626364 0.013525615 4278190080
0.21133414 0.7903648 0.013612877 4278190080
0.21409191 0.78962225 0.013612877 4278190080
0.21684664 0.78887016 0.013612877 4278190080
0.21959917 0.78810841 0.013612877 4278190080
0.22234859 0.78733712 0.013612877 4278190080
0.22509572 0.78655612 0.013612877 4278190080
0.22797696 0.78572583 0.013612877 4278190080
0.23071843 0.78492522 0.013612877 4278190080
0.23345669 0.7841152 0.013612877 4278190080
0.23619249 0.78329545 0.013612877 4278190080
0.23892544 0.78246611 0.013612877 4278190080
0.2431317 0.7864036 0.013700139 4278190080
0.24587545 0.78555006 0.013700139 4278190080
0.24861577 0.7846871 0.013700139 4278190080
0.25301784 0.78853071 0.0137874 4278190080
0.25576854 0.78764278 0.0137874 4278190080
0.25851652 0.78674513 0.0137874 4278190080
0.26283854 0.79058182 0.013874662 4278190080
0.26559633 0.78965962 0.013874662 4278190080
0.26835132 0.78872764 0.013874662 4278190080
0.27124023 0.7877388 0.013874662 4278190080
0.27398846 0.78678715 0.013874662 4278190080
0.27673295 0.78582609 0.013874662 4278190080
0.27947447 0.78485525 0.013874662 4278190080
0.28221217 0.78387499 0.013874662 4278190080
0.28494686 0.78288507 0.013874662 4278190080
0.28781423 0.78183544 0.013874662 4278190080
0.29054177 0.78082597 0.013874662 4278190080
0.29502511 0.78448641 0.013961924 4278190080
0.29776183 0.78345174 0.013961924 4278190080
0.30049494 0.78240752 0.013961924 4278190080
0.30322397 0.78135389 0.013961924 4278190080
0.30777466 0.78494495 0.014049187 4278190080
0.31051251 0.78386593 0.014049187 4278190080
0.3152419 0.78736353 0.014136449 4278190080
0.31798816 0.78625846 0.014136449 4278190080
0.3208681 0.78508753 0.014136449 4278190080
0.32346982 0.78401917 0.014136449 4278190080
0.32620433 0.78288537 0.014136449 4278190080
0.3289353 0.78174186 0.014136449 4278190080
0.33166182 0.78058904 0.014136449 4278190080
0.33438474 0.77942646 0.014136449 4278190080
0.33710358 0.77825445 0.014136449 4278190080
0.34182093 0.78165352 0.014223712 4278190080
0.34454748 0.78045547 0.014223712 4278190080
0.34930441 0.78381449 0.014310973 4278190080
0.35203847 0.78259033 0.014310973 4278190080
0.35476822 0.78135663 0.014310973 4278190080
0.35749325 0.78011364 0.014310973 4278190080
0.36021435 0.77886093 0.014310973 4278190080
0.36293066 0.77759892 0.014310973 4278190080
0.36564294 0.77632719 0.014310973 4278190080
0.36848575 0.77498192 0.014310973 4278190080
0.37118885 0.77369082 0.014310973 4278190080
0.37606519 0.77689034 0.014398235 4278190080
0.37877494 0.77557278 0.014398235 4278190080
0.38148004 0.7742458 0.014398235 4278190080
0.38640526 0.77738631 0.014485497 4278190080
0.38925225 0.77596474 0.014485497 4278190080
0.39195824 0.77460134 0.014485497 4278190080
0.39706802 0.77761197 0.014572759 4278190080
0.39964455 0.77629095 0.014572759 4278190080
0.40235204 0.77489114 0.014572759 4278190080
0.40505463 0.77348185 0.014572759 4278190080
0.40775186 0.77206337 0.014572759 4278190080
0.41279462 0.77504766 0.014660021 4278190080
0.41549727 0.77360219 0.014660021 4278190080
0.41819531 0.772147 0.014660021 4278190080
0.42102244 0.77060914 0.014660021 4278190080
0.42612219 0.77351344 0.014747282 4278190080
0.42881939 0.77202141 0.014747282 4278190080
0.43151182 0.77051979 0.014747282 4278190080
0.43665689 0.77336198 0.014834545 4278190080
0.43935353 0.77183318 0.014834545 4278190080
0.44204521 0.77029479 0.014834545 4278190080
0.44473112 0.76874721 0.014834545 4278190080
0.45006526 0.7714299 0.014921807 4278190080
0.45528936 0.7741636 0.015009069 4278190080
0.4579891 0.77256954 0.015009069 4278190080
0.46324718 0.77525783 0.015096332 4278190080
0.46852994 0.77791846 0.015183594 4278190080
0.4712427 0.77627814 0.015183594 4278190080
0.47408462 0.77454579 0.015183594 4278190080
0.47678557 0.7728861 0.015183594 4278190080
0.48225531 0.77537858 0.015270855 4278190080
0.48482394 0.7737751 0.015270855 4278190080
0.48752174 0.77207822 0.015270855 4278190080
0.49289787 0.7745893 0.015358117 4278190080
0.49559885 0.77286398 0.015358117 4278190080
0.5010066 0.77532834 0.01544538 4278190080
0.50384486 0.77348691 0.01544538 4278190080
0.50928515 0.77590269 0.015532642 4278190080
0.51199067 0.77412015 0.015532642 4278190080
0.51746178 0.77648848 0.015619904 4278190080
0.52016926 0.7746774 0.015619904 4278190080
0.52287 0.77285713 0.015619904 4278190080
0.52556473 0.77102715 0.015619904 4278190080
0.52825308 0.76918775 0.015619904 4278190080
0.53377908 0.7714504 0.015707165 4278190080
0.53646886 0.76958233 0.015707165 4278190080
0.54202485 0.77179629 0.015794428 4278190080
0.54760325 0.77398056 0.015881689 4278190080
0.55333859 0.77603883 0.01596895 4278190080
0.55604422 0.77410245 0.01596895 4278190080
0.56167388 0.77620679 0.016056214 4278190080
0.56437963 0.77424163 0.016056214 4278190080
0.56707901 0.77226669 0.016056214 4278190080
0.57274395 0.77430189 0.016143475 4278190080
0.57544345 0.7722978 0.016143475 4278190080
0.57813591 0.7702843 0.016143475 4278190080
0.5838359 0.77224964 0.016230738 4278190080
0.58652812 0.77020681 0.016230738 4278190080
0.59225547 0.77212167 0.016318001 4278190080
0.59494728 0.77004945 0.016318001 4278190080
0.60070205 0.77191323 0.016405262 4278190080
0.6064766 0.77374649 0.016492523 4278190080
0.61227173 0.77554846 0.016579786 4278190080
0.61497492 0.77340674 0.016579786 4278190080
0.62093151 0.77504885 0.016667048 4278190080
0.62363285 0.77287686 0.016667048 4278190080
0.62948 0.77457476 0.016754311 4278190080
0.63217968 0.77237296 0.016754311 4278190080
0.63805199 0.77401894 0.016841572 4278190080
0.64075005 0.77178687 0.016841572 4278190080
0.64664674 0.77338099 0.016928833 4278190080
0.64934254 0.77111888 0.016928833 4278190080
0.65526348 0.77266055 0.017016096 4278190080
0.65795678 0.7703684 0.017016096 4278190080
0.66064203 0.76806688 0.017016096 4278190080
0.66331881 0.76575631 0.017016096 4278190080
0.6694079 0.76708674 0.017103357 4278190080
0.67208159 0.7647453 0.017103357 4278190080
0.67819381 0.76602 0.01719062 4278190080
0.68405664 0.76749879 0.017277882 4278190080
0.69007105 0.76882666 0.017365145 4278190080
0.69275028 0.76641339 0.017365145 4278190080
0.69878668 0.76768744 0.017452406 4278190080
0.70146233 0.76524335 0.017452406 4278190080
0.70765382 0.7663402 0.017539669 4278190080
0.71372908 0.76752615 0.01762693 4278190080
0.71640366 0.76503032 0.01762693 4278190080
0.72249973 0.76616192 0.017714193 4278190080
0.72516948 0.76363546 0.017714193 4278190080
0.73128599 0.76471239 0.017801454 4278190080
0.73395103 0.76215494 0.017801454 4278190080
0.74008697 0.76317745 0.017888715 4278190080
0.74623942 0.76416594 0.017975979 4278190080
0.74890208 0.76155663 0.017975979 4278190080
0.75507367 0.76248991 0.01806324 4278190080
0.76479095 0.76692927 0.018237764 4278190080
0.76746309 0.76425523 0.018237764 4278190080
0.77368104 0.76508665 0.018325025 4278190080
0.78004742 0.76574808 0.018412288 4278190080
0.78629553 0.76651007 0.018499549 4278190080
0.79255807 0.76723808 0.018586813 4278190080
0.79162753 0.76100212 0.018499549 4278190080
0.80512714 0.76859039 0.018761335 4278190080
0.80793905 0.765634 0.018761335 4278190080
0.82056963 0.7668016 0.018935859 4278190080
1.1281967 0.80860347 0.023560749 4278190080
1.1106449 0.7901696 0.023124438 4278190080
1.1053653 0.78032744 0.022949914 4278190080
1.1121767 0.77933288 0.023037175 4278190080
1.0943694 0.76117349 0.022600865 4278190080
1.0887918 0.7516681 0.022426343 4278190080
1.0997883 0.75332284 0.022600865 4278190080
1.1024114 0.74947906 0.022600865 4278190080
1.1092954 0.74822915 0.022688128 4278190080
1.1200781 0.75010997 0.022862652 4278190080
1.1268533 0.74896264 0.022949914 4278190080
1.1336336 0.7477777 0.023037175 4278190080
1.1446025 0.74929202 0.023211699 4278190080
1.1514031 0.74801594 0.023298962 4278190080
1.1624109 0.74940979 0.023473486 4278190080
1.1734421 0.75073576 0.023648011 4278190080
1.1844964 0.75199437 0.023822535 4278190080
1.1913441 0.75051957 0.023909796 4278190080
1.1981956 0.74900675 0.023997059 4278190080
1.2092996 0.7500897 0.024171583 4278190080
1.2161683 0.7484839 0.024258845 4278190080
1.22304 0.74683988 0.024346106 4278190080
1.2300451 0.74494213 0.024433369 4278190080
1.2412084 0.74579328 0.024607893 4278190080
1.2480985 0.74401563 0.024695154 4278190080
1.2592938 0.74474448 0.024869679 4278190080
1.2661979 0.74287373 0.02495694 4278190080
1.2774245 0.74347913 0.025131464 4278190080
1.2843416 0.74151492 0.025218727 4278190080
1.2955985 0.74199593 0.025393249 4278190080
1.306874 0.74240798 0.025567774 4278190080
1.3138132 0.74029547 0.025655037 4278190080
1.325117 0.74058324 0.025829561 4278190080
1.3364391 0.74080026 0.026004085 4278190080
1.3479078 0.74071246 0.02617861 4278190080
1.354875 0.73839492 0.026265871 4278190080
1.3662399 0.73841548 0.026440395 4278190080
1.3776218 0.73836482 0.026614919 4278190080
1.3890198 0.7382437 0.026789444 4278190080
1.3960108 0.73572189 0.026876705 4278190080
1.407432 0.73547482 0.027051229 4278190080
1.4144293 0.73285782 0.02713849 4278190080
1.4258726 0.73248446 0.027313014 4278190080
1.4328756 0.72977132 0.027400278 4278190080
1.4398767 0.72701895 0.027487539 4278190080
1.4513468 0.72646344 0.027662063 4278190080
1.4583519 0.72361535 0.027749324 4278190080
1.4743271 0.72513932 0.028011113 4278190080
1.4858367 0.7243697 0.028185636 4278190080
1.5018599 0.72570431 0.028447423 4278190080
1.5135283 0.72451133 0.028621946 4278190080
