# .PCD v0.7 - Point Cloud Data file format
VERSION 0.7
FIELDS x y z rgb
SIZE 4 4 4 4
TYPE F F F U
COUNT 1 1 1 1
WIDTH 1116
HEIGHT 1
VIEWPOINT 0 0 0 1 0 0 0
POINTS 1116
DATA ascii
1.5565 0.47835544 1.0624142 4294967295
1.5452942 -0.91729289 1.0752603 4294967295
1.5381 0.48446995 1.0535057 4294967295
1.5456522 0.47313672 1.0459325 4294967295
1.5436821 -0.91669619 1.0494721 4294967295
1.5454828 -0.92160505 1.0090419 4294967295
1.5445 -0.91866213 0.98639727 4294967295
1.5457201 -0.9136278 0.95234567 4294967295
1.5427999 0.49060106 0.9155283 4294967295
1.5449818 -0.92100286 0.92559826 4294967295
1.534 0.81376195 0.88583314 4294967295
1.5388235 0.79345244 0.89184397 4294967295
1.5450572 0.77285826 0.89128143 4294967295
1.5461501 0.48395211 0.89486599 4294967295
1.5465332 -0.9276731 0.90571344 4294967295
1.5449166 -0.93193918 0.89213848 4294967295
1.5368478 0.81857204 0.8637861 4294967295
1.5450112 0.79519248 0.86513758 4294967295
1.5542499 0.77576625 0.8756088 4294967295
1.5455384 0.48959869 0.86232919 4294967295
1.5404999 -0.92817801 0.86220717 4294967295
1.5491999 -0.93144786 0.87690455 4294967295
1.5387217 0.82110929 0.83442664 4294967295
1.5456802 0.79557842 0.83589101 4294967295
1.5469667 0.49323797 0.83235532 4294967295
1.5461956 -0.92630559 0.83413517 4294967295
1.5346249 -0.93079388 0.83581471 4294967295
1.5416428 0.82221645 0.80547285 4294967295
1.5474494 0.79905009 0.80541354 4294967295
1.5525417 0.49648932 0.80902326 4294967295
1.5446783 -0.92278033 0.80491436 4294967295
1.5395998 0.81893152 0.77590126 4294967295
1.5482939 0.79679048 0.77438986 4294967295
1.5455501 -0.92044228 0.775783 4294967295
1.5367404 0.81443119 0.74605244 4294967295
1.546367 0.79661995 0.74571133 4294967295
1.5549999 0.4923259 0.73177004 4294967295
1.5445 -0.92326254 0.74419987 4294967295
1.5352174 0.81344873 0.71187669 4294967295
1.547015 0.79607403 0.71510881 4294967295
1.55 0.49034122 0.71351254 4294967295
1.5441313 -0.92082202 0.71624655 4294967295
1.533 -0.93025446 0.71988189 4294967295
1.5401274 0.81973284 0.68484366 4294967295
1.5476285 0.79733014 0.68663365 4294967295
1.5495555 0.48860031 0.69148409 4294967295
1.5439116 -0.91673392 0.68537611 4294967295
1.5409293 0.82196271 0.65457404 4294967295
1.54737 0.80037874 0.65480047 4294967295
1.543568 -0.9149918 0.65321207 4294967295
1.5378095 0.82254237 0.623981 4294967295
1.5458438 0.79829913 0.62388402 4294967295
1.5433799 -0.91819638 0.62529105 4294967295
1.5322001 -0.93118989 0.6277023 4294967295
1.5369999 0.84119678 0.59890056 4294967295
1.5388148 0.82510012 0.59527218 4294967295
1.5450141 0.79696453 0.59600145 4294967295
1.5491998 -0.92496568 0.59554195 4294967295
1.5404375 -0.93163234 0.5921827 4294967295
1.538491 0.81853509 0.56661838 4294967295
1.5483719 0.79807264 0.5669443 4294967295
1.54088 0.4884198 0.56323498 4294967295
1.5443747 -0.91573602 0.56627858 4294967295
1.5365 -0.93059182 0.57952303 4294967295
1.5397878 0.81466269 0.53537041 4294967295
1.5478035 0.7988711 0.53506839 4294967295
1.5468572 0.49212709 0.53872365 4294967295
1.5438215 -0.91633636 0.53605247 4294967295
1.5369427 0.81507766 0.5065968 4294967295
1.5456524 0.79900229 0.50410557 4294967295
1.5447869 -0.9108423 0.50305337 4294967295
1.5357583 0.81539857 0.4732064 4294967295
1.5461793 0.79909039 0.47366506 4294967295
1.5441666 -0.91192269 0.47472584 4294967295
1.5402442 0.81764579 0.44535044 4294967295
1.5465134 0.79504889 0.44521138 4294967295
1.5541251 0.77871144 0.43777487 4294967295
1.5449474 -0.89862174 0.44420648 4294967295
1.5409998 -0.90390158 0.44926608 4294967295
1.5355291 0.81539392 0.4162434 4294967295
1.5457252 0.79572856 0.41534442 4294967295
1.556 0.77784717 0.42865065 4294967295
1.5443808 -0.9144429 0.41534221 4294967295
1.5378999 0.81678057 0.38287473 4294967295
1.5475568 0.79495567 0.38446289 4294967295
1.5449064 -0.91806358 0.38304263 4294967295
1.540463 0.8196429 0.35668743 4294967295
1.5477468 0.79476386 0.35485753 4294967295
1.553 0.77995068 0.34415096 4294967295
1.5402222 0.48604521 0.34421268 4294967295
1.5447179 -0.91724336 0.35598129 4294967295
1.5364996 0.81622475 0.32463562 4294967295
1.5422344 0.79467124 0.3254326 4294967295
1.5466429 0.77803779 0.32258314 4294967295
1.545077 0.48654947 0.32561094 4294967295
1.5457166 -0.92275721 0.32584965 4294967295
1.5341667 -0.93036693 0.31958705 4294967295
1.5362774 0.81610608 0.29436222 4294967295
1.5405004 0.79511046 0.29552856 4294967295
1.5435791 0.7761609 0.29366547 4294967295
1.5465292 0.48761773 0.29528463 4294967295
1.5451967 -0.92480379 0.29463172 4294967295
1.5335 -0.93144596 0.28320509 4294967295
1.5375308 0.81677413 0.26384974 4294967295
1.5406222 0.79495156 0.26517111 4294967295
1.5450556 0.7773546 0.26498914 4294967295
1.5432221 0.48361266 0.26987952 4294967295
1.5414286 0.47882664 0.25529245 4294967295
1.5435673 -0.91582125 0.26673475 4294967295
1.5345 -0.93160349 0.27460003 4294967295
1.5358434 0.81587833 0.23562926 4294967295
1.5360303 0.7936421 0.23601729 4294967295
1.5408521 0.77503568 0.23332322 4294967295
1.5427778 0.48725677 0.23693031 4294967295
1.541 0.47894797 0.24718675 4294967295
1.5406001 -0.91126364 0.24583575 4294967295
1.5464286 0.8453331 0.1983133 4294967295
1.5411764 0.82310033 0.20227855 4294967295
1.539917 0.79481316 0.20628205 4294967295
1.5418001 0.7750411 0.20661539 4294967295
1.5406666 -0.90988445 0.19362816 4294967295
1.535 0.8421399 0.18770412 4294967295
1.5373706 0.81892043 0.17761886 4294967295
1.5432187 0.79494691 0.17498618 4294967295
1.5455002 0.7779761 0.17467242 4294967295
1.5404373 -0.90749496 0.17167991 4294967295
1.5363437 0.81580263 0.14542207 4294967295
1.542743 0.79578269 0.14457387 4294967295
1.5452144 0.77757597 0.14579597 4294967295
1.5419999 -0.9059186 0.14462343 4294967295
1.5342307 0.81351131 0.1143496 4294967295
1.542091 0.79433024 0.11510104 4294967295
1.548 0.77743959 0.12203297 4294967295
1.54325 0.48949674 0.10446855 4294967295
1.545909 -0.89697975 0.10285664 4294967295
1.5429997 -0.90574801 0.11826599 4294967295
1.5370345 0.81582975 0.086429685 4294967295
1.5437025 0.79414374 0.084512562 4294967295
1.55625 0.77887297 0.074780941 4294967295
1.546 0.48301196 0.097806901 4294967295
1.5438669 0.4680078 0.094091177 4294967295
1.54 0.43519327 0.092537493 4294967295
1.5425882 0.40522209 0.090276301 4294967295
1.5464444 0.37599143 0.084366471 4294967295
1.5440714 0.34453711 0.088252217 4294967295
1.545 0.31737369 0.087657541 4294967295
1.544 0.28393704 0.088800192 4294967295
1.5428499 0.25400314 0.09025982 4294967295
1.5423335 0.22668765 0.09070009 4294967295
1.5423572 0.19692324 0.089750737 4294967295
1.5425999 0.16844147 0.081556529 4294967295
1.5430001 0.14127129 0.078571528 4294967295
1.5417058 0.10326786 0.083372802 4294967295
1.5428126 0.07501936 0.087580472 4294967295
1.5434 0.043356702 0.086881459 4294967295
1.5411177 0.015114662 0.085011333 4294967295
1.5406876 -0.014458402 0.0846017 4294967295
1.5425882 -0.044689037 0.085437804 4294967295
1.5423158 -0.075015977 0.083109558 4294967295
1.5423 -0.10696264 0.080394536 4294967295
1.5420833 -0.13491431 0.082725734 4294967295
1.5433333 -0.16426542 0.084451735 4294967295
1.5457331 -0.19632006 0.086403012 4294967295
1.5426191 -0.22689392 0.086702466 4294967295
1.5410833 -0.2552036 0.086281419 4294967295
1.5429231 -0.28488693 0.087145895 4294967295
1.5437 -0.31388587 0.086265624 4294967295
1.544875 -0.34446236 0.080287308 4294967295
1.5415264 -0.37484455 0.079003125 4294967295
1.5424799 -0.40461057 0.084458292 4294967295
1.5402105 -0.43602931 0.087466031 4294967295
1.5441381 -0.46655667 0.083826184 4294967295
1.542879 -0.49462673 0.084482104 4294967295
1.5410768 -0.5245108 0.08711338 4294967295
1.5440001 -0.5543499 0.087721914 4294967295
1.5431002 -0.58658034 0.087506026 4294967295
1.5406251 -0.61554766 0.086861312 4294967295
1.5446472 -0.64416951 0.087291747 4294967295
1.5416332 -0.67508572 0.083392531 4294967295
1.5409117 -0.70528907 0.081076413 4294967295
1.5433587 -0.73452252 0.080882609 4294967295
1.5437665 -0.76520461 0.079204679 4294967295
1.5442269 -0.79569209 0.079794765 4294967295
1.5432142 -0.82398635 0.079981476 4294967295
1.5427141 -0.8554734 0.084929854 4294967295
1.5429032 -0.88323551 0.093853503 4294967295
1.5343333 0.81091899 0.067999214 4294967295
1.5425177 0.79733777 0.055693001 4294967295
1.533 0.97975874 0.02096644 4294967295
1.533 0.8410427 0.010295987 4294967295
1.5367777 0.81788778 0.019994378 4294967295
1.5433252 0.79578686 0.023921072 4294967295
1.553 0.77814674 0.010852695 4294967295
1.5449455 1.3306845 -0.0097437501 4294967295
1.5473409 1.3071851 -0.016236603 4294967295
1.5496877 1.2742412 -0.018389404 4294967295
1.5355 1.2574601 -0.019036174 4294967295
1.5475001 1.2071242 -0.011556447 4294967295
1.5427777 1.1873522 -0.012020707 4294967295
1.5345384 1.1584876 -0.008010745 4294967295
1.5401459 1.1208709 -0.0044316649 4294967295
1.541302 1.097001 -0.0030925274 4294967295
1.538591 1.0639473 0.00017791986 4294967295
1.5447657 1.0372754 -0.004122436 4294967295
1.5471766 1.0046372 -0.0083222985 4294967295
1.540531 0.97877151 -0.0051530004 4294967295
1.533 0.8410427 0.0067391992 4294967295
1.5365151 0.82481658 0.0042725801 4294967295
1.5372093 0.79299265 0.0029352903 4294967295
1.5430882 0.76503104 0.00043576956 4294967295
1.5448215 0.73460394 -0.0089766979 4294967295
1.5549999 0.71646172 -0.015507817 4294967295
1.54 1.2933023 -0.020615935 4294967295
1.5403333 1.2792858 -0.020732939 4294967295
1.5447111 0.72893095 -0.034291625 4294967295
1.5551249 0.71651924 -0.025476277 4294967295
1.5451211 0.73328048 -0.06509465 4294967295
1.5462962 0.72925943 -0.091249943 4294967295
1.5599999 -0.92854124 1.3911939 4294967295
1.5816667 -0.93327373 1.3955441 4294967295
1.5599999 -0.92854124 1.3740014 4294967295
1.5785935 -0.93134665 1.3746645 4294967295
1.579 -0.92885977 1.3321971 4294967295
1.5746895 -0.93348002 1.3470893 4294967295
1.5749165 -0.9242999 1.3156062 4294967295
1.5732219 -0.9142949 1.2866257 4294967295
1.5753332 -0.92202556 1.2543552 4294967295
1.589 -0.93105561 1.2414854 4294967295
1.5669165 -0.92628819 1.2299433 4294967295
1.5800835 -0.93346405 1.221853 4294967295
1.5769999 -0.93682069 1.1934135 4294967295
1.5722499 -0.92761785 1.1631958 4294967295
1.577875 -0.93230468 1.1645498 4294967295
1.5599999 -0.92492175 1.1486895 4294967295
1.5749999 -0.94091171 1.1346211 4294967295
1.5829999 0.49751812 1.0918478 4294967295
1.5755553 -0.92334735 1.0986929 4294967295
1.5744286 -0.93710768 1.1127508 4294967295
1.5784 0.49021164 1.0799365 4294967295
1.5754443 0.47400498 1.0655527 4294967295
1.57504 -0.91730642 1.0756512 4294967295
1.589 -0.93105561 1.0608344 4294967295
1.5704999 0.46805954 1.0545256 4294967295
1.5676 -0.92359817 1.0528301 4294967295
1.5791429 -0.9336428 1.0433545 4294967295
1.57465 -0.92134696 1.0108176 4294967295
1.57675 -0.93209481 1.0264733 4294967295
1.5753332 -0.92104942 0.98550427 4294967295
1.5727026 -0.90934849 0.95290434 4294967295
1.5722222 0.49249482 0.92013127 4294967295
1.5746472 -0.92198515 0.92570293 4294967295
1.562 0.76453578 0.88131171 4294967295
1.5746667 0.48718217 0.89519215 4294967295
1.56875 -0.92734575 0.90652722 4294967295
1.5754738 -0.93638921 0.89712727 4294967295
1.5741 0.78377038 0.85853398 4294967295
1.5736665 0.77295339 0.87289298 4294967295
1.572875 0.49387631 0.86373258 4294967295
1.5784999 -0.93710083 0.86102337 4294967295
1.5753498 0.79189754 0.83576691 4294967295
1.5685713 0.4908976 0.83448255 4294967295
1.5729129 -0.92541713 0.83177722 4294967295
1.579 -0.93068695 0.84677213 4294967295
1.5723102 0.79213977 0.80379999 4294967295
1.5732666 0.49323785 0.80627537 4294967295
1.5742812 -0.91909361 0.80401671 4294967295
1.5743608 0.78649485 0.77467847 4294967295
1.5737096 -0.91795468 0.77612436 4294967295
1.5747427 0.78687817 0.74552149 4294967295
1.5792 0.49778041 0.73725599 4294967295
1.5729543 -0.92495692 0.74465811 4294967295
1.5890001 -0.93105561 0.75114739 4294967295
1.5735667 0.78575438 0.71518314 4294967295
1.57425 0.49384931 0.71429807 4294967295
1.5746365 -0.9197998 0.71550405 4294967295
1.5744287 0.79278237 0.68548161 4294967295
1.5805 0.49306539 0.69307601 4294967295
1.5727601 -0.92122954 0.68454987 4294967295
1.5739999 0.79761851 0.65467656 4294967295
1.5767143 -0.91782558 0.65397906 4294967295
1.5727894 0.79352415 0.62760019 4294967295
1.5735426 -0.91102606 0.62528086 4294967295
1.5752 0.79547954 0.5916189 4294967295
1.5721843 -0.92376947 0.59549558 4294967295
1.5700001 0.79577386 0.56443286 4294967295
1.5672858 0.48894292 0.56252617 4294967295
1.5761764 -0.91621584 0.56385666 4294967295
1.5728334 0.79598176 0.53347415 4294967295
1.5747778 0.49290022 0.5351299 4294967295
1.5756818 -0.92357039 0.53567123 4294967295
1.5702499 0.79406822 0.50615346 4294967295
1.5747391 -0.91442758 0.50651228 4294967295
1.57195 0.79328501 0.47493947 4294967295
1.5735384 -0.91285104 0.47551325 4294967295
1.571 0.78761226 0.45466718 4294967295
1.5599999 0.77984679 0.44651315 4294967295
1.5599999 -0.89958549 0.4447034 4294967295
1.5736153 -0.90602231 0.44475204 4294967295
1.5749999 0.78916538 0.41167682 4294967295
1.5759499 -0.91992188 0.41339841 4294967295
1.5719231 0.78748238 0.3864814 4294967295
1.5739998 -0.91620278 0.38503549 4294967295
1.57375 0.78672045 0.35642081 4294967295
1.5680001 0.48552772 0.34245479 4294967295
1.5737997 -0.91176164 0.35311851 4294967295
1.5712352 0.48501819 0.32482335 4294967295
1.5742904 -0.91935134 0.32412419 4294967295
1.5718235 0.48498508 0.29708922 4294967295
1.5747499 -0.92207241 0.29389071 4294967295
1.5653334 0.78251296 0.25377592 4294967295
1.5739999 0.48554805 0.26687628 4294967295
1.575 -0.91130477 0.26914591 4294967295
1.5599999 0.77984679 0.24744251 4294967295
1.5776666 0.48912811 0.23764825 4294967295
1.5799999 -0.92394578 0.24578461 4294967295
1.5693334 -0.91467142 0.16570252 4294967295
1.5730715 -0.91024369 0.14219019 4294967295
1.5599999 0.78346622 0.10447362 4294967295
1.566 -0.8994121 0.10105872 4294967295
1.5755 -0.90751112 0.11381012 4294967295
1.5725882 0.78591102 0.085341215 4294967295
1.566 0.77921283 0.071991622 4294967295
1.5713999 0.48656711 0.094509721 4294967295
1.5716666 0.46421582 0.089829773 4294967295
1.5700001 0.43150777 0.089060634 4294967295
1.5728749 0.40494093 0.085543811 4294967295
1.581 0.38683301 0.078704923 4294967295
1.5776 0.34351847 0.085521668 4294967295
1.5676666 0.32054621 0.084857345 4294967295
1.5714999 0.28243801 0.087437719 4294967295
1.573625 0.25541773 0.088065594 4294967295
1.5732727 0.22700855 0.089166909 4294967295
1.5743999 0.19380093 0.083468705 4294967295
1.5733334 0.16839932 0.075987995 4294967295
1.5823332 0.099590346 0.079557031 4294967295
1.5717499 0.076419808 0.084933549 4294967295
1.574 0.045471996 0.08431074 4294967295
1.5599999 0.016139405 0.084566534 4294967295
1.5684286 -0.013438763 0.082213879 4294967295
1.562 -0.047259446 0.084008276 4294967295
1.5671427 -0.0783353 0.08153668 4294967295
1.572 -0.10654037 0.078793257 4294967295
1.5787499 -0.13568941 0.079332918 4294967295
1.5780001 -0.15757929 0.079542309 4294967295
1.5803334 -0.19385923 0.082557648 4294967295
1.5706667 -0.22710443 0.085643053 4294967295
1.5743749 -0.25400767 0.086047411 4294967295
1.576077 -0.28468552 0.085717797 4294967295
1.5744443 -0.3161034 0.084605604 4294967295
1.5772002 -0.34596616 0.077572554 4294967295
1.5696 -0.37418148 0.076065183 4294967295
1.5765713 -0.40749618 0.080472022 4294967295
1.568875 -0.43331113 0.085729361 4294967295
1.5807501 -0.46594331 0.082442313 4294967295
1.573 -0.49602845 0.084587544 4294967295
1.5645714 -0.52259499 0.086920619 4294967295
1.5680001 -0.55859542 0.085971564 4294967295
1.5695555 -0.58705068 0.086360276 4294967295
1.5734667 -0.61403984 0.08642 4294967295
1.5816667 -0.64418024 0.085858315 4294967295
1.575111 -0.67478341 0.08482632 4294967295
1.5714445 -0.70522606 0.081780732 4294967295
1.5764999 -0.73901504 0.081804365 4294967295
1.5698999 -0.76432902 0.080354512 4294967295
1.5747141 -0.79400784 0.082030118 4294967295
1.5709167 -0.8265903 0.08365342 4294967295
1.5746666 -0.85444528 0.082917839 4294967295
1.5751249 -0.88591087 0.089946121 4294967295
1.579 -0.90137851 0.09758091 4294967295
1.5720499 0.78749079 0.052953929 4294967295
1.563 0.77952981 0.067413718 4294967295
1.574 0.79143661 0.023673177 4294967295
1.563 0.77952981 0.011200666 4294967295
1.577857 1.3221956 -0.010365546 4294967295
1.5725 1.3076507 -0.015315533 4294967295
1.5660001 1.2857018 -0.017385006 4294967295
1.57725 1.051905 0.0010839701 4294967295
1.5733438 1.0355338 -0.0029834509 4294967295
1.5654286 1.0160497 -0.0020309687 4294967295
1.5829999 0.78399885 0.0083629489 4294967295
1.573375 0.76713198 0.0025839806 4294967295
1.5725453 0.73253489 -0.007154882 4294967295
1.5712858 0.71621251 -0.015967429 4294967295
1.5657499 0.72458321 -0.044186652 4294967295
1.5735406 0.71140337 -0.033573747 4294967295
1.5759704 0.73198456 -0.063662231 4294967295
1.5756251 0.72869229 -0.097525716 4294967295
1.5776666 0.71912038 -0.10826284 4294967295
1.5805453 0.714755 -0.1125167 4294967295
1.615 -0.91818345 1.421909 4294967295
1.6081951 -0.92171788 1.4052775 4294967295
1.5977778 -0.93207389 1.4028183 4294967295
1.6065216 -0.92387986 1.3780994 4294967295
1.5979999 -0.93129963 1.369208 4294967295
1.6114285 -0.92816353 1.3349895 4294967295
1.6024573 -0.93275082 1.3489187 4294967295
1.6054739 -0.92127055 1.3153173 4294967295
1.597 -0.93018168 1.3284838 4294967295
1.6051852 -0.92342138 1.2857802 4294967295
1.6052999 -0.92642415 1.255103 4294967295
1.5983334 -0.93034118 1.2463434 4294967295
1.6105715 -0.92535728 1.2327646 4294967295
1.6041698 -0.93675697 1.2233917 4294967295
1.6053501 -0.93930447 1.1955433 4294967295
1.6114615 -0.92766964 1.1622366 4294967295
1.5989999 -0.93412 1.1635855 4294967295
1.6104445 -0.92506647 1.1330444 4294967295
1.6010873 -0.94052768 1.1369655 4294967295
1.6052001 0.49515802 1.0961297 4294967295
1.6035261 -0.92123371 1.1055214 4294967295
1.5936 -0.93300754 1.116384 4294967295
1.599 0.48770225 1.0852619 4294967295
1.6027502 0.47140676 1.0745808 4294967295
1.6047441 -0.92224789 1.0731876 4294967295
1.6040001 -0.93239385 1.0609732 4294967295
1.6117142 -0.92672616 1.0354447 4294967295
1.606091 -0.93825221 1.0474284 4294967295
1.6030477 -0.92172635 1.0152209 4294967295
1.592 -0.93281347 1.0286121 4294967295
1.6041714 -0.92258465 0.98644722 4294967295
1.608 0.50537533 0.94045299 4294967295
1.6036001 -0.910779 0.95375121 4294967295
1.605154 0.49171707 0.92424053 4294967295
1.6029679 -0.91989052 0.92491186 4294967295
1.6028 0.49257639 0.89446723 4294967295
1.6077335 -0.92361128 0.90630466 4294967295
1.6039525 -0.94289798 0.89551818 4294967295
1.6020001 0.7848947 0.85620892 4294967295
1.601 0.77324623 0.86414862 4294967295
1.6038948 0.49643227 0.86396277 4294967295
1.615 -0.9294247 0.85235351 4294967295
1.6052856 -0.940844 0.86352384 4294967295
1.6049731 0.79475749 0.83528697 4294967295
1.6026956 0.49269825 0.83493561 4294967295
1.6046818 -0.92481047 0.83346987 4294967295
1.5968001 -0.93117315 0.84712601 4294967295
1.6039486 0.79139054 0.80589503 4294967295
1.604353 0.49721733 0.8052665 4294967295
1.6036817 -0.91738743 0.80553675 4294967295
1.6028967 0.78562552 0.77598476 4294967295
1.618 0.50476414 0.76287401 4294967295
1.6027805 -0.9209699 0.77500021 4294967295
1.6 -0.93007642 0.76017207 4294967295
1.598875 0.78407109 0.74353647 4294967295
1.6053334 0.49806589 0.74508798 4294967295
1.6075001 -0.92682534 0.74239975 4294967295
1.5999999 -0.93099684 0.75088906 4294967295
1.5978667 0.78381026 0.71411157 4294967295
1.613111 0.77853084 0.71389401 4294967295
1.6052222 0.49662331 0.71645892 4294967295
1.6044188 -0.92222762 0.71434379 4294967295
1.605306 0.7920534 0.68601668 4294967295
1.6110001 0.49696559 0.69454294 4294967295
1.6028147 -0.92079622 0.68380302 4294967295
1.6046208 0.80097675 0.65572274 4294967295
1.603091 -0.91405231 0.65622234 4294967295
1.6046999 0.80087572 0.62424409 4294967295
1.6033658 -0.91213542 0.6241225 4294967295
1.6042354 0.80348355 0.59593457 4294967295
1.6042553 -0.92254275 0.59592718 4294967295
1.6014442 0.80550665 0.56656516 4294967295
1.5947499 0.49381086 0.56514513 4294967295
1.6055882 -0.92124879 0.56444973 4294967295
1.6030998 0.80435532 0.53672421 4294967295
1.6042221 0.49528039 0.53583181 4294967295
1.6046206 -0.92194182 0.53472567 4294967295
1.6027058 0.80271792 0.50509471 4294967295
1.618 0.50101012 0.51886165 4294967295
1.6037073 -0.91632348 0.50780642 4294967295
1.6020952 0.7998144 0.47692394 4294967295
1.603647 -0.91729093 0.47608972 4294967295
1.607 0.79774129 0.45921317 4294967295
1.604483 -0.91327798 0.44673386 4294967295
1.6048571 -0.92143542 0.41372749 4294967295
1.59 0.79484385 0.39714199 4294967295
1.6032689 -0.91635287 0.38675186 4294967295
1.592 0.48926559 0.34158179 4294967295
1.603892 -0.91431189 0.35413092 4294967295
1.6044 0.48413232 0.31910145 4294967295
1.6039699 -0.91317862 0.32391584 4294967295
1.6043334 0.48663449 0.29657573 4294967295
1.6143333 -0.89907759 0.2978788 4294967295
1.6022888 -0.91237181 0.29537782 4294967295
1.6041429 0.48979488 0.26605636 4294967295
1.6044652 -0.9097017 0.26729017 4294967295
1.6051427 0.49275523 0.23585498 4294967295
1.6059999 -0.92796791 0.24685797 4294967295
1.6095001 -0.93838757 0.23693445 4294967295
1.6043334 -0.9216243 0.14147803 4294967295
1.6051219 -0.91159272 0.11358085 4294967295
1.6023999 0.79260153 0.079677343 4294967295
1.6022222 0.49280572 0.090132058 4294967295
1.6041666 0.46726635 0.084653378 4294967295
1.6073846 0.43402231 0.083972067 4294967295
1.6038333 0.40545505 0.079780877 4294967295
1.6040001 0.38192716 0.075391769 4294967295
1.6065713 0.34728333 0.081693172 4294967295
1.6048572 0.31499666 0.077373624 4294967295
1.6045713 0.28171417 0.085437 4294967295
1.6019999 0.25687402 0.086188972 4294967295
1.6036667 0.22555581 0.086027682 4294967295
1.609 0.19303732 0.077427089 4294967295
1.596 0.17389598 0.07266888 4294967295
1.6011999 0.10422449 0.075307906 4294967295
1.6032501 0.071445554 0.080403268 4294967295
1.6043999 0.045259826 0.080368727 4294967295
1.5996249 0.014691773 0.079083592 4294967295
1.6025456 -0.011478883 0.077769279 4294967295
1.6005001 -0.040969066 0.076975435 4294967295
1.6038332 -0.072704665 0.076996207 4294967295
1.6016001 -0.10358752 0.075442553 4294967295
1.6078571 -0.13284545 0.076546162 4294967295
1.6024001 -0.15816048 0.076449513 4294967295
1.6060001 -0.19434911 0.079179198 4294967295
1.6026154 -0.22480313 0.082404464 4294967295
1.6075292 -0.2547524 0.08425048 4294967295
1.6054444 -0.28407758 0.084309459 4294967295
1.6064284 -0.31535223 0.082533181 4294967295
1.6038182 -0.34436843 0.076062828 4294967295
1.602923 -0.37333402 0.071453393 4294967295
1.6028889 -0.40364257 0.074663281 4294967295
1.6045455 -0.43554026 0.080259323 4294967295
1.6057144 -0.46584094 0.080861539 4294967295
1.6022352 -0.49379516 0.081968814 4294967295
1.6042668 -0.5243358 0.081401289 4294967295
1.602 -0.55609226 0.081880063 4294967295
1.6047271 -0.58688521 0.081230313 4294967295
1.6037501 -0.61410743 0.08351782 4294967295
1.6037779 -0.64326632 0.083927363 4294967295
1.6044 -0.67651737 0.082229495 4294967295
1.6032308 -0.70646375 0.078803837 4294967295
1.6021334 -0.73329955 0.078514606 4294967295
1.6032859 -0.76458704 0.078072071 4294967295
1.6044446 -0.79635793 0.078786612 4294967295
1.6027274 -0.82583135 0.083304942 4294967295
1.6071303 -0.8559019 0.082611918 4294967295
1.6054815 -0.88661599 0.085955173 4294967295
1.6037146 -0.90430492 0.095764399 4294967295
1.6025 0.78868163 0.054742783 4294967295
1.6160001 0.170444 0.068935573 4294967295
1.618 0.11809845 0.068377316 4294967295
1.6042356 0.79613787 0.024281949 4294967295
1.5910001 1.3213658 -0.012679696 4294967295
1.5913334 1.3124102 -0.016483486 4294967295
1.6048571 0.78602779 0.005831182 4294967295
1.6038262 0.76678991 -0.0040223598 4294967295
1.6023158 0.73133439 -0.012935519 4294967295
1.6024001 0.71774757 -0.018714607 4294967295
1.601579 0.71163118 -0.027155519 4294967295
1.5994815 0.72712702 -0.070086658 4294967295
1.5987999 0.71763229 -0.058327556 4294967295
1.6024762 0.72722524 -0.09253943 4294967295
1.6035552 0.71499598 -0.10636461 4294967295
1.5997143 0.70847756 -0.11155164 4294967295
1.6385001 -0.91964769 1.4276552 4294967295
1.6349664 -0.91864204 1.4033152 4294967295
1.6290001 -0.92424852 1.3805866 4294967295
1.6364287 -0.93441921 1.3682365 4294967295
1.6366925 -0.92537969 1.3384832 4294967295
1.6358184 -0.9336229 1.3527839 4294967295
1.6351111 -0.92278749 1.3156543 4294967295
1.649 -0.93177825 1.303162 4294967295
1.6267999 -0.92803425 1.2850649 4294967295
1.6425 -0.93095732 1.2857862 4294967295
1.6351303 -0.92556655 1.2541506 4294967295
1.6302501 -0.92557758 1.2327839 4294967295
1.6367598 -0.93774992 1.2201689 4294967295
1.632 -0.92974532 1.1814926 4294967295
1.6340382 -0.93597949 1.194837 4294967295
1.6339999 -0.92675692 1.1638061 4294967295
1.6365 -0.93037391 1.1794952 4294967295
1.6339613 -0.92471778 1.1351769 4294967295
1.6330001 0.49155587 1.1023177 4294967295
1.648 0.47779748 1.0942974 4294967295
1.6337084 -0.92311954 1.104461 4294967295
1.62 0.4696807 1.0807824 4294967295
1.6340454 -0.92451757 1.0759844 4294967295
1.6356667 -0.93053412 1.0621562 4294967295
1.6352943 -0.92646468 1.0390806 4294967295
1.6312107 -0.93164766 1.0534775 4294967295
1.6326501 -0.92403746 1.0158314 4294967295
1.6445 -0.93113804 1.0053271 4294967295
1.6337335 -0.92211747 0.98203242 4294967295
1.643 -0.93092614 0.99534523 4294967295
1.6423334 0.51234847 0.95069867 4294967295
1.6372499 0.50030267 0.94335002 4294967295
1.6340435 -0.91407853 0.95368016 4294967295
1.6357502 0.4906801 0.927764 4294967295
1.6345357 -0.91816658 0.92435974 4294967295
1.6301112 0.49719012 0.89580739 4294967295
1.6301429 -0.92434359 0.90571505 4294967295
1.6364069 -0.94685924 0.89556396 4294967295
1.625 0.78405988 0.85064113 4294967295
1.6256001 0.77793527 0.85302216 4294967295
1.6352501 0.49875328 0.86598766 4294967295
1.635 -0.92764473 0.85077095 4294967295
1.6362381 -0.94152594 0.86538494 4294967295
1.6347036 0.78878307 0.83560085 4294967295
1.645 0.77564991 0.83943599 4294967295
1.6350998 0.49529982 0.83295035 4294967295
1.6342399 -0.92417383 0.83582497 4294967295
1.6341366 0.79069394 0.80820668 4294967295
1.642 0.51225138 0.79314458 4294967295
1.632643 0.49957815 0.80645704 4294967295
1.6322 -0.91772461 0.80608582 4294967295
1.6335626 0.78959954 0.7753731 4294967295
1.6303333 0.50228697 0.76472843 4294967295
1.6305556 -0.92238438 0.77884626 4294967295
1.6405001 -0.93171656 0.76673752 4294967295
1.6363333 0.7882598 0.74791646 4294967295
1.6332729 0.49642614 0.74623019 4294967295
1.6304445 -0.92632133 0.73657 4294967295
1.6391538 -0.932634 0.75141317 4294967295
1.6381668 0.78407818 0.71331567 4294967295
1.62 0.77977151 0.71619076 4294967295
1.6382501 0.5001483 0.71555555 4294967295
1.6385909 -0.92588115 0.71532905 4294967295
1.6310741 0.79125625 0.6804387 4294967295
1.6331002 -0.92069352 0.6865105 4294967295
1.634762 0.80401742 0.65755409 4294967295
1.6335834 -0.91452962 0.6533922 4294967295
1.6429999 0.81275922 0.61796117 4294967295
1.63 0.80618894 0.6301465 4294967295
1.63445 -0.91596043 0.62312144 4294967295
1.63675 0.81346023 0.59198081 4294967295
1.6235 0.80782378 0.59983754 4294967295
1.6362 -0.9245308 0.59761506 4294967295
1.648 -0.93121314 0.58192945 4294967295
1.6389999 0.81656253 0.56483859 4294967295
1.62 0.80984086 0.56396437 4294967295
1.6341667 0.49652082 0.55676651 4294967295
1.634231 -0.92604762 0.56346625 4294967295
1.6483334 -0.93140149 0.56983459 4294967295
1.63975 0.8135255 0.53594488 4294967295
1.6212 0.80667931 0.53014934 4294967295
1.637091 0.49724478 0.53576922 4294967295
1.6340369 -0.91880864 0.5359785 4294967295
1.6487501 0.81656224 0.50544918 4294967295
1.6202857 0.80622435 0.50758135 4294967295
1.628 0.50410658 0.51507741 4294967295
1.6341479 -0.91746563 0.50537622 4294967295
1.6435 0.81300569 0.47879121 4294967295
1.6265 0.80554271 0.47169474 4294967295
1.63416 -0.92079526 0.47502172 4294967295
1.642 0.80940956 0.45788926 4294967295
1.636565 -0.91928613 0.44456613 4294967295
1.6359999 -0.92351305 0.41401571 4294967295
1.6330436 -0.91582727 0.38492769 4294967295
1.647 0.81187427 0.35834578 4294967295
1.6342915 -0.91728705 0.35406822 4294967295
1.6307499 0.48366714 0.31832963 4294967295
1.6354371 -0.90796584 0.32391995 4294967295
1.6350001 0.48666197 0.29883564 4294967295
1.6323999 -0.89888942 0.29767799 4294967295
1.6359229 -0.90158808 0.29667395 4294967295
1.6415714 0.495792 0.26474366 4294967295
1.634294 -0.9102881 0.26570895 4294967295
1.6383333 0.49968761 0.23253909 4294967295
1.63 -0.92668021 0.24846056 4294967295
1.6344999 -0.94062078 0.24013147 4294967295
1.62 0.50914675 0.21440747 4294967295
1.626 -0.92632717 0.13405108 4294967295
1.6382501 -0.93710172 0.14207116 4294967295
1.6348096 -0.91634351 0.11228275 4294967295
1.63225 0.8008163 0.073895127 4294967295
1.6403333 0.51171827 0.088784546 4294967295
1.6324285 0.49408919 0.084909648 4294967295
1.6215 0.45882735 0.082449019 4294967295
1.635 0.43607274 0.080718547 4294967295
1.6350001 0.40717649 0.074547768 4294967295
1.6324999 0.37766325 0.072856665 4294967295
1.647 0.33803046 0.071746707 4294967295
1.6307144 0.31411305 0.074568927 4294967295
1.638625 0.28495517 0.083068073 4294967295
1.6317501 0.25666922 0.085062474 4294967295
1.6322858 0.22677916 0.082241923 4294967295
1.6334 0.19500667 0.073933512 4294967295
1.623 0.074542552 0.078278631 4294967295
1.6249999 0.043804746 0.077734292 4294967295
1.6368001 0.019963177 0.074522763 4294967295
1.6347499 -0.016248865 0.072243124 4294967295
1.6233333 -0.081138223 0.074421495 4294967295
1.6321429 -0.10753603 0.072549999 4294967295
1.6400001 -0.13520029 0.072816074 4294967295
1.624 -0.16594903 0.074238509 4294967295
1.628 -0.20221367 0.076917797 4294967295
1.6316251 -0.22724591 0.079716831 4294967295
1.63925 -0.25495103 0.081462681 4294967295
1.6344999 -0.28458959 0.082733363 4294967295
1.6348333 -0.31622845 0.080122203 4294967295
1.6317999 -0.34278923 0.074375451 4294967295
1.6286668 -0.41769651 0.072957575 4294967295
1.6445 -0.43130484 0.072427124 4294967295
1.647143 -0.46829799 0.075529486 4294967295
1.63475 -0.49322197 0.078873605 4294967295
1.6417999 -0.5231778 0.076971203 4294967295
1.6486 -0.55363911 0.075136304 4294967295
1.6306667 -0.580208 0.077467382 4294967295
1.6328892 -0.61574608 0.079375774 4294967295
1.62025 -0.64486402 0.082786322 4294967295
1.6299999 -0.67524052 0.080155343 4294967295
1.6307143 -0.70358211 0.077269256 4294967295
1.6369998 -0.73698831 0.074468315 4294967295
1.6359999 -0.76311338 0.074740499 4294967295
1.6345 -0.80029851 0.075148702 4294967295
1.6375 -0.82696801 0.079561085 4294967295
1.6349999 -0.85368806 0.08259961 4294967295
1.6333077 -0.88703191 0.083640814 4294967295
1.637 -0.90599322 0.092514217 4294967295
1.634182 0.79590142 0.05734098 4294967295
1.642 0.3922452 0.06929782 4294967295
1.647 0.18517761 0.067925394 4294967295
1.6376002 0.17042895 0.064426214 4294967295
1.632 0.11154726 0.06825611 4294967295
1.649 -0.028851358 0.067376405 4294967295
1.6482 -0.040309671 0.067595989 4294967295
1.64 -0.089575171 0.069846779 4294967295
1.64 -0.09338025 0.069846779 4294967295
1.64 -0.35593075 0.069846779 4294967295
1.639143 -0.37365544 0.067371398 4294967295
1.6368001 -0.39853066 0.067689389 4294967295
1.6342353 0.79887915 0.024827182 4294967295
1.6335456 0.79041296 0.0020205975 4294967295
1.6350001 0.76421988 -0.013079286 4294967295
1.6255 0.73055959 -0.017628551 4294967295
1.649 0.75164479 -0.020620704 4294967295
1.6443332 0.72789675 -0.026721001 4294967295
1.6300001 0.71555865 -0.029520273 4294967295
1.62 0.72339135 -0.078769267 4294967295
1.62 0.71963269 -0.075010598 4294967295
1.6332667 0.72602332 -0.0965482 4294967295
1.628 0.71940917 -0.10816681 4294967295
1.642 0.72178596 -0.11356872 4294967295
1.6340001 0.71636683 -0.11427307 4294967295
1.6745 -0.9157443 1.4538403 4294967295
1.6673555 -0.91822255 1.4354877 4294967295
1.6676196 -0.92076051 1.403069 4294967295
1.6734651 -0.92166233 1.3761811 4294967295
1.6618887 -0.93465722 1.3769675 4294967295
1.6678911 -0.92214972 1.345274 4294967295
1.6564999 -0.93216932 1.3566887 4294967295
1.6662322 -0.92468148 1.3143924 4294967295
1.6543335 -0.93095356 1.3056934 4294967295
1.6701212 -0.92678833 1.2848814 4294967295
1.6575881 -0.93255323 1.2855217 4294967295
1.6672102 -0.92697966 1.2544858 4294967295
1.653 -0.93020326 1.2667093 4294967295
1.6756665 -0.92740488 1.2289902 4294967295
1.6657058 -0.93626755 1.223706 4294967295
1.6721429 -0.92794478 1.1916735 4294967295
1.6633704 -0.93430597 1.1982148 4294967295
1.6688962 -0.9277823 1.1646612 4294967295
1.6579093 -0.93050838 1.1640155 4294967295
1.6692002 0.50678432 1.1253114 4294967295
1.6655637 -0.92546034 1.1339529 4294967295
1.6673332 0.49113315 1.1113474 4294967295
1.6656667 0.47583061 1.0959496 4294967295
1.6681554 -0.92528409 1.1048801 4294967295
1.6679165 -0.92653805 1.0759581 4294967295
1.659 -0.93116701 1.0654047 4294967295
1.6693141 -0.92675096 1.0440179 4294967295
1.6586666 -0.93146443 1.0537608 4294967295
1.6669999 -0.92806458 1.0251651 4294967295
1.6669999 -0.93331522 1.0103749 4294967295
1.6681577 -0.92506939 0.98184776 4294967295
1.6639999 -0.93251258 0.99611282 4294967295
1.668 0.51704043 0.96278358 4294967295
1.6674707 0.49901921 0.95190704 4294967295
1.6673634 -0.91880429 0.95327532 4294967295
1.6677501 0.49415874 0.9251135 4294967295
1.6674497 -0.92196643 0.92465484 4294967295
1.66675 0.50425124 0.8949033 4294967295
1.6705 -0.92841077 0.90834081 4294967295
1.6682419 -0.94493288 0.89407086 4294967295
1.6604284 -0.96134424 0.88977081 4294967295
1.6660001 0.50091553 0.86593068 4294967295
1.6732 -0.9273271 0.8599391 4294967295
1.6647838 -0.9392066 0.86949337 4294967295
1.6577499 0.78351063 0.82412553 4294967295
1.661353 0.77427369 0.82741046 4294967295
1.6687728 0.49806541 0.83383679 4294967295
1.6663527 -0.92666578 0.83460093 4294967295
1.6675419 0.7910251 0.80560017 4294967295
1.6750001 0.77644956 0.8154732 4294967295
1.6675 0.51246881 0.79158032 4294967295
1.6699201 0.50328058 0.80382961 4294967295
1.6672161 -0.92260164 0.80465412 4294967295
1.6679287 0.79840904 0.77891946 4294967295
1.66925 0.52366894 0.78024626 4294967295
1.6700908 0.50285912 0.7735101 4294967295
1.6701666 -0.92576528 0.77610779 4294967295
1.6615882 -0.93275863 0.76828015 4294967295
1.6669999 0.79742002 0.74427783 4294967295
1.6693684 0.50039107 0.7461307 4294967295
1.6712631 -0.92556685 0.7444461 4294967295
1.6597366 -0.93277037 0.74888122 4294967295
1.665 0.79047596 0.71068192 4294967295
1.670625 0.50373268 0.71457076 4294967295
1.6686842 -0.92698801 0.71465063 4294967295
1.6570001 -0.93052733 0.7149049 4294967295
1.6664375 0.79243672 0.67952782 4294967295
1.6675 0.50278902 0.69679552 4294967295
1.6665184 -0.9267633 0.68723118 4294967295
1.6641001 0.81140924 0.64623702 4294967295
1.6685427 0.80245268 0.65961617 4294967295
1.6664666 -0.92410523 0.65157783 4294967295
1.667478 0.81640315 0.6268189 4294967295
1.6755999 0.49966305 0.62119758 4294967295
1.6669698 -0.92140144 0.62407207 4294967295
1.6670477 0.82192665 0.59470713 4294967295
1.6735001 0.50352246 0.59584749 4294967295
1.6677836 -0.92584682 0.59526843 4294967295
1.6593332 -0.93119264 0.58299226 4294967295
1.6707858 0.82553178 0.56534028 4294967295
1.6689444 0.50020635 0.56442076 4294967295
1.6710269 -0.92439795 0.56326425 4294967295
1.6607143 -0.93205768 0.56975788 4294967295
1.6686472 0.82185125 0.5365805 4294967295
1.6694615 0.49816063 0.53536355 4294967295
1.6660652 -0.91929245 0.53689688 4294967295
1.6702 0.82253236 0.50759065 4294967295
1.673 0.51181531 0.49939433 4294967295
1.6720474 0.50461984 0.5091989 4294967295
1.6673265 -0.91770887 0.50509077 4294967295
1.6679999 0.82060736 0.47303191 4294967295
1.678 0.50790924 0.48378024 4294967295
1.6669447 -0.92011124 0.47334549 4294967295
1.67 0.81933725 0.45683011 4294967295
1.6677618 -0.9202401 0.44586441 4294967295
1.6695 0.8210212 0.40261969 4294967295
1.6680571 -0.92660171 0.41544288 4294967295
1.653 -0.93020326 0.41336787 4294967295
1.6716 0.82166755 0.38850278 4294967295
1.6669755 -0.91936642 0.38506728 4294967295
1.6711428 0.81989801 0.35209283 4294967295
1.6675088 -0.9167493 0.353957 4294967295
1.677 0.82277161 0.33399999 4294967295
1.6635 0.49772334 0.33742827 4294967295
1.6656997 -0.90624815 0.32676682 4294967295
1.6635556 0.49023968 0.29324794 4294967295
1.6636666 -0.89844346 0.30311915 4294967295
1.6586666 -0.90259951 0.29306537 4294967295
1.6679001 0.49904403 0.26534772 4294967295
1.6669563 -0.91500264 0.26659426 4294967295
1.6740001 0.50281453 0.24306071 4294967295
1.6665001 -0.92425847 0.24816805 4294967295
1.6654545 -0.94353962 0.2391969 4294967295
1.67 -0.96301782 0.22822374 4294967295
1.6675 0.51826227 0.2054472 4294967295
1.6702859 -0.97259223 0.17115688 4294967295
1.6664118 -0.94865745 0.14038664 4294967295
1.6706667 -0.96340078 0.1544573 4294967295
1.6659998 -0.92088187 0.10794216 4294967295
1.6678571 -0.93661743 0.12191054 4294967295
1.6684999 0.81278813 0.071708351 4294967295
1.6698 0.52014732 0.085691124 4294967295
1.6656153 0.49582675 0.078873485 4294967295
1.6666667 0.46450564 0.077147216 4294967295
1.6697083 0.43436161 0.078170061 4294967295
1.6711251 0.41470268 0.072460592 4294967295
1.666 0.37151685 0.07046032 4294967295
1.6631666 0.35356382 0.071854442 4294967295
1.66775 0.30601132 0.076268047 4294967295
1.6692352 0.28494149 0.082109451 4294967295
1.6679337 0.25435832 0.081797361 4294967295
1.6688 0.22595325 0.075884461 4294967295
1.6596667 0.20584604 0.072149992 4294967295
1.6679091 0.071777076 0.071340263 4294967295
1.6684 0.045376714 0.071609169 4294967295
1.6700001 0.015344449 0.071304768 4294967295
1.6670001 -0.0044096042 0.07095772 4294967295
1.6678002 -0.1158614 0.070744634 4294967295
1.66925 -0.12505712 0.070537299 4294967295
1.6589999 -0.20033497 0.070412278 4294967295
1.6671112 -0.22707236 0.075524241 4294967295
1.6680555 -0.25644365 0.080215305 4294967295
1.6670476 -0.28351793 0.081406683 4294967295
1.6678334 -0.3129383 0.077375472 4294967295
1.6662 -0.33841386 0.071938783 4294967295
1.6636667 -0.44598383 0.071070641 4294967295
1.6693999 -0.46340755 0.072629273 4294967295
1.6678571 -0.49547192 0.075473815 4294967295
1.6671817 -0.52286249 0.07470125 4294967295
1.6682222 -0.55558258 0.072859585 4294967295
1.6673 -0.58813637 0.072033614 4294967295
1.6675 -0.61627734 0.072942823 4294967295
1.6646875 -0.64539558 0.076356471 4294967295
1.6654001 -0.67519855 0.076534688 4294967295
1.6650909 -0.70623106 0.073860258 4294967295
1.6683332 -0.73444802 0.071883708 4294967295
1.6702667 -0.76474565 0.071104884 4294967295
1.66625 -0.79654962 0.070373535 4294967295
1.6666316 -0.8244915 0.074349344 4294967295
1.6655788 -0.85528243 0.080120772 4294967295
1.6671481 -0.88613707 0.082898706 4294967295
1.6661335 -0.90754616 0.091293275 4294967295
1.671 0.81077772 0.067802519 4294967295
1.6663913 0.80376768 0.054377586 4294967295
1.6658571 0.40153402 0.067724854 4294967295
1.669 0.38319224 0.067703396 4294967295
1.6652501 0.33598611 0.067750692 4294967295
1.6670001 0.32047182 0.067856103 4294967295
1.6688 0.18956229 0.066982657 4294967295
1.6670909 0.16846615 0.05925864 4294967295
1.6655713 0.13590702 0.056208044 4294967295
1.6669999 0.10099838 0.066326618 4294967295
1.6678333 -0.016296189 0.066723943 4294967295
1.675 -0.054565962 0.064126104 4294967295
1.6627501 -0.07345476 0.06746012 4294967295
1.6670001 -0.10226072 0.067856044 4294967295
1.6694 -0.14152357 0.068754643 4294967295
1.6658572 -0.1644434 0.066614449 4294967295
1.6684999 -0.19114546 0.067189068 4294967295
1.6680001 -0.35426345 0.067973256 4294967295
1.6671999 -0.37536776 0.064320207 4294967295
1.6685833 -0.40341026 0.06362173 4294967295
1.669 -0.4302716 0.067423642 4294967295
1.6661501 0.80448425 0.024796605 4294967295
1.6656666 0.79722732 -0.0041800141 4294967295
1.66275 0.77623522 -0.018372834 4294967295
1.6684999 0.76294994 -0.023136377 4294967295
1.6653333 0.73847252 -0.029838324 4294967295
1.6585 0.73192012 -0.099742293 4294967295
1.6643333 0.72773856 -0.11573344 4294967295
1.6995 -0.91593683 1.4582393 4294967295
1.6934816 -0.91497922 1.4358857 4294967295
1.6927645 -0.91315985 1.4058158 4294967295
1.6928214 -0.91570443 1.3754275 4294967295
1.6944783 -0.92053843 1.3449142 4294967295
1.6945 -0.92583925 1.31385 4294967295
1.695143 -0.92693418 1.285733 4294967295
1.6945418 -0.92521739 1.254337 4294967295
1.6913 -0.92347163 1.2248375 4294967295
1.6902915 -0.92698383 1.1979231 4294967295
1.7032501 -0.9308179 1.1886384 4294967295
1.691125 -0.927113 1.1639738 4294967295
1.702 -0.93013489 1.1703761 4294967295
1.696 0.51729262 1.1405382 4294967295
1.702 0.50530142 1.1328613 4294967295
1.6931539 -0.92300427 1.1337311 4294967295
1.693 0.48493624 1.1119273 4294967295
1.693 0.47709712 1.1040882 4294967295
1.6928332 -0.92051995 1.1051965 4294967295
1.6926428 -0.92387658 1.0761838 4294967295
1.691391 -0.92432129 1.0446582 4294967295
1.6915454 -0.9279632 1.0247324 4294967295
1.6955261 -0.93402803 1.0115762 4294967295
1.6995 0.51769423 0.97686827 4294967295
1.6930002 -0.92549664 0.98109025 4294967295
1.6964 -0.93177235 0.99502712 4294967295
1.687 0.51258814 0.96893787 4294967295
1.690091 0.49658871 0.95728314 4294967295
1.695739 -0.91950756 0.95551193 4294967295
1.6966152 0.49748582 0.92455995 4294967295
1.6946429 -0.92174083 0.92490625 4294967295
1.6942354 0.50471699 0.89639139 4294967295
1.6954999 -0.92852575 0.88852632 4294967295
1.6932777 -0.93417621 0.89531076 4294967295
1.6951429 0.49809143 0.86283791 4294967295
1.6937667 -0.92613357 0.86502016 4294967295
1.682 -0.93091249 0.8778491 4294967295
1.6952904 0.49256423 0.83499014 4294967295
1.6933478 -0.92589593 0.83447361 4294967295
1.702 -0.93013483 0.84656382 4294967295
1.6916839 0.78698665 0.79705578 4294967295
1.6927276 0.77494454 0.80942547 4294967295
1.693244 0.49400124 0.80396545 4294967295
1.6934333 -0.92045158 0.80470186 4294967295
1.709 0.81071526 0.77653372 4294967295
1.6936251 0.80119312 0.78061306 4294967295
1.689 0.54258895 0.78528798 4294967295
1.6799999 0.53969771 0.77997649 4294967295
1.6929375 0.49595398 0.77730405 4294967295
1.6934814 -0.92341715 0.77535576 4294967295
1.709 0.81071526 0.74877763 4294967295
1.68775 0.80357492 0.74888998 4294967295
1.690485 0.49455374 0.74308836 4294967295
1.6936561 -0.92014688 0.74401546 4294967295
1.6835001 0.79471254 0.71216464 4294967295
1.69225 0.49624562 0.71659243 4294967295
1.6940417 -0.92543942 0.71581352 4294967295
1.6900001 0.79385984 0.68546075 4294967295
1.688 0.49523321 0.69896901 4294967295
1.6892222 -0.92661792 0.6930089 4294967295
1.700375 -0.93367743 0.68302917 4294967295
1.6921213 0.79947323 0.65144944 4294967295
1.6897144 -0.92620367 0.6464895 4294967295
1.7006 -0.93409956 0.65846896 4294967295
1.6928999 0.81601596 0.62235516 4294967295
1.6989331 0.8067022 0.63363242 4294967295
1.6868263 0.48980513 0.62056541 4294967295
1.6936666 -0.92219514 0.62509221 4294967295
1.7008083 0.82175404 0.59437108 4294967295
1.7079999 0.8082583 0.58220398 4294967295
1.6946381 0.49400541 0.5950141 4294967295
1.6928236 -0.92208755 0.5941298 4294967295
1.6991272 0.82200444 0.56403077 4294967295
1.7020589 0.80579394 0.56456095 4294967295
1.6959445 0.49429324 0.56634986 4294967295
1.6942649 -0.91813266 0.56551456 4294967295
1.6972092 0.81921881 0.53483224 4294967295
1.705357 0.80700499 0.53462607 4294967295
1.6954119 0.4944239 0.53593576 4294967295
1.6933043 -0.91630834 0.53401077 4294967295
1.7024378 0.82197797 0.50587547 4294967295
1.7076923 0.80765522 0.5072127 4294967295
1.691355 0.49825403 0.50336796 4294967295
1.6936295 -0.91346115 0.50513184 4294967295
1.6995714 0.82762402 0.47570097 4294967295
1.709 0.80675012 0.48311108 4294967295
1.691206 0.50102651 0.47679767 4294967295
1.6935769 -0.91508061 0.47589096 4294967295
1.7036756 0.82056606 0.44636771 4294967295
1.7079999 0.8072682 0.43458948 4294967295
1.7017694 0.50082219 0.4455983 4294967295
1.6939614 -0.91634846 0.44458854 4294967295
1.6993104 0.81590247 0.41222382 4294967295
1.7025315 0.8013466 0.413259 4294967295
1.6932665 -0.92442214 0.41378975 4294967295
1.6994443 0.81965685 0.38482583 4294967295
1.7073572 0.80285996 0.39344829 4294967295
1.7079999 0.50113845 0.39000335 4294967295
1.6944444 -0.9178279 0.38441759 4294967295
1.6973542 0.81894737 0.35537314 4294967295
1.6949189 -0.90816861 0.35375565 4294967295
1.7011285 0.81889969 0.32620353 4294967295
1.6813334 -0.89933568 0.31856936 4294967295
1.6953847 -0.90320706 0.32969171 4294967295
1.7076191 0.82439846 0.29352605 4294967295
1.6824999 0.49170187 0.29045349 4294967295
1.698 -0.90431094 0.30803645 4294967295
1.7042439 0.81993139 0.2636323 4294967295
1.7078001 0.80855995 0.25648785 4294967295
1.6924 0.50205272 0.26201701 4294967295
1.6945 -0.91791022 0.2644873 4294967295
1.7038482 0.82330221 0.23356205 4294967295
1.7076111 0.80741358 0.23551762 4294967295
1.7005 0.50682884 0.23667783 4294967295
1.682 -0.92701 0.2495423 4294967295
1.6935713 -0.94175762 0.23929393 4294967295
1.6956002 -0.96595573 0.22611478 4294967295
1.6981951 0.81942391 0.20670506 4294967295
1.704 0.80791634 0.20295244 4294967295
1.70175 0.52294779 0.20098463 4294967295
1.7 -0.98426193 0.21509364 4294967295
1.7053334 -0.99525613 0.20491591 4294967295
1.6971251 0.8181172 0.17498067 4294967295
1.7051362 0.8067137 0.17567641 4294967295
1.6956667 -0.98305768 0.16472113 4294967295
1.7045 -0.99279648 0.1747334 4294967295
1.708846 0.81674182 0.14976421 4294967295
1.708111 0.8028056 0.14303559 4294967295
1.6937498 -0.95246285 0.13664398 4294967295
1.6952499 -0.96739483 0.14875281 4294967295
1.7051222 0.81996453 0.11142668 4294967295
1.7082591 0.80228949 0.11481816 4294967295
1.6906667 -0.92131013 0.10497773 4294967295
1.6952943 -0.94078845 0.11922285 4294967295
1.6988969 0.81638563 0.085230768 4294967295
1.7065502 0.80152845 0.085539281 4294967295
1.6975001 0.52399617 0.082632393 4294967295
1.6960834 0.4930228 0.076767266 4294967295
1.6936539 0.46442756 0.082043827 4294967295
1.6942142 0.43419266 0.084472328 4294967295
1.6940907 0.41038743 0.075919002 4294967295
1.6799999 0.35649705 0.070561081 4294967295
1.6935713 0.31222194 0.077051312 4294967295
1.698 0.28544167 0.081071138 4294967295
1.6969999 0.25380325 0.079801083 4294967295
1.6948999 0.22515018 0.073266804 4294967295
1.7053748 0.19764662 0.070711702 4294967295
1.6894 0.06997665 0.07040599 4294967295
1.6945 0.050945427 0.070613533 4294967295
1.6963638 0.011465229 0.071560323 4294967295
1.6950001 -0.0034336164 0.071802676 4294967295
1.681 -0.10936432 0.070293546 4294967295
1.6799999 -0.1268409 0.070561081 4294967295
1.6799999 -0.20869653 0.070561081 4294967295
1.6946113 -0.22624181 0.076498568 4294967295
1.6932856 -0.25383469 0.081046551 4294967295
1.6967502 -0.28728226 0.083073735 4294967295
1.6949166 -0.3134433 0.078052282 4294967295
1.6950001 -0.33504939 0.070503354 4294967295
1.689 -0.46458319 0.070120871 4294967295
1.6920909 -0.49212661 0.074111521 4294967295
1.6908889 -0.52607316 0.073757559 4294967295
1.6900001 -0.54519528 0.071806937 4294967295
1.6799999 -0.59848517 0.070561081 4294967295
1.6799999 -0.60628092 0.070561051 4294967295
1.6921002 -0.64518517 0.074002415 4294967295
1.6895556 -0.67505246 0.076726019 4294967295
1.694375 -0.70778823 0.073599964 4294967295
1.6952499 -0.73517859 0.070910245 4294967295
1.696 -0.75765038 0.070215732 4294967295
1.681 -0.79580188 0.070293576 4294967295
1.6926249 -0.83172715 0.073569 4294967295
1.6922725 -0.85517317 0.078702152 4294967295
1.6947999 -0.88945007 0.084165901 4294967295
1.6948332 -0.90653801 0.093467951 4294967295
1.6925 0.81072438 0.069189161 4294967295
1.6951389 0.80378467 0.056800216 4294967295
1.6912726 0.39775535 0.06684339 4294967295
1.6980999 0.37882313 0.067702889 4294967295
1.6892856 0.34279543 0.065841258 4294967295
1.6956667 0.32571423 0.066390753 4294967295
1.7 0.21480232 0.069154888 4294967295
1.6958233 0.19251412 0.067726582 4294967295
1.6971875 0.168671 0.05785802 4294967295
1.6991668 0.137172 0.050322264 4294967295
1.698 0.1012812 0.062797308 4294967295
1.6995001 0.07869304 0.068307787 4294967295
1.7000002 0.037309267 0.069154859 4294967295
1.7 0.029420687 0.069154888 4294967295
1.6916665 -0.015847372 0.06549257 4294967295
1.6872 -0.04125328 0.060805708 4294967295
1.6900001 -0.074617133 0.063964754 4294967295
