# .PCD v0.7 - Point Cloud Data file format
VERSION 0.7
FIELDS x y z rgb
SIZE 4 4 4 4
TYPE F F F U
COUNT 1 1 1 1
WIDTH 1057
HEIGHT 1
VIEWPOINT 0 0 0 1 0 0 0
POINTS 1057
DATA ascii
0.060267169 -0.66868913 -0.1230718 4278190080
0.062167641 -0.71779376 -0.13261224 4278190080
0.057223126 -0.68865871 -0.12688798 4278190080
0.052597839 -0.6594891 -0.12116371 4278190080
0.044076059 -0.60599297 -0.11066921 4278190080
0.1459191 -2.3454473 -0.44935519 4278190080
0.12995091 -2.3463862 -0.44935519 4278190080
0.12150551 -2.341924 -0.44840112 4278190080
0.11309256 -2.3374314 -0.44744709 4278190080
0.10534095 -2.3377936 -0.44744709 4278190080
0.096771836 -2.3381641 -0.44744709 4278190080
0.088609345 -2.3384876 -0.44744709 4278190080
0.080614805 -2.3436878 -0.44840112 4278190080
0.072842315 -2.3439422 -0.44840112 4278190080
0.064250879 -2.3441935 -0.44840112 4278190080
0.056067854 -2.3444035 -0.44840112 4278190080
0.047883831 -2.3445849 -0.44840112 4278190080
0.040108856 -2.3447309 -0.44840112 4278190080
0.031923786 -2.3448565 -0.44840112 4278190080
0.024097146 -2.3400416 -0.44744709 4278190080
0.015928855 -2.3401115 -0.44744709 4278190080
0.0077603692 -2.340153 -0.44744709 4278190080
-0.00041023685 -2.349982 -0.44935519 4278190080
-0.0085591096 -2.3352418 -0.44649303 4278190080
-0.01650656 -0.93629336 -0.17459023 4278190080
-0.019981973 -0.94604409 -0.17649831 4278190080
-0.0216801 -0.88709265 -0.16504978 4278190080
-0.025069198 -0.89191341 -0.16600382 4278190080
-0.027872305 -0.88200903 -0.16409573 4278190080
-0.030778846 -0.87700129 -0.16314168 4278190080
-0.033461381 -0.86707956 -0.16123359 4278190080
-0.03628153 -0.86205363 -0.16027956 4278190080
-0.038917277 -0.8570255 -0.15932551 4278190080
-0.041908689 -0.85688442 -0.15932551 4278190080
-0.045156341 -0.86163437 -0.16027956 4278190080
-0.048163686 -0.86147147 -0.16027956 4278190080
-0.051170558 -0.86129808 -0.16027956 4278190080
-0.054176692 -0.86111426 -0.16027956 4278190080
-0.056707561 -0.85603243 -0.15932551 4278190080
-0.059695281 -0.8558293 -0.15932551 4278190080
-0.06268239 -0.85561568 -0.15932551 4278190080
-0.066044308 -0.8602854 -0.16027956 4278190080
-0.069046818 -0.86004966 -0.16027956 4278190080
-0.072458446 -0.86469436 -0.16123359 4278190080
-0.075476311 -0.86443615 -0.16123359 4278190080
-0.078937344 -0.86905545 -0.16218764 4278190080
-0.081970386 -0.86877459 -0.16218764 4278190080
-0.08500243 -0.86848319 -0.16218764 4278190080
-0.088033557 -0.86818117 -0.16218764 4278190080
-0.090551302 -0.86298728 -0.16123359 4278190080
-0.093563206 -0.86266595 -0.16123359 4278190080
-0.095481351 -0.85257882 -0.15932551 4278190080
-0.097745694 -0.84738165 -0.15837146 4278190080
-0.10186978 -0.83206338 -0.15550934 4278190080
-0.15042622 -0.87451434 -0.16504978 4278190080
-0.15262896 -0.86914968 -0.16409573 4278190080
-0.15393044 -0.8589493 -0.16218764 4278190080
-0.15869303 -0.86806297 -0.16409573 4278190080
-0.16082263 -0.86267877 -0.16314168 4278190080
-0.16383302 -0.8621121 -0.16314168 4278190080
-0.16684131 -0.86153501 -0.16314168 4278190080
-0.16984768 -0.86094731 -0.16314168 4278190080
-0.17270169 -0.8603794 -0.16314168 4278190080
-0.1766867 -0.86458004 -0.16409573 4278190080
-0.17970353 -0.863958 -0.16409573 4278190080
-0.18271816 -0.86332548 -0.16409573 4278190080
-0.18573068 -0.8626824 -0.16409573 4278190080
-0.18874083 -0.86202884 -0.16409573 4278190080
-0.1917488 -0.86136472 -0.16409573 4278190080
-0.1947543 -0.86069018 -0.16409573 4278190080
-0.19775744 -0.86000514 -0.16409573 4278190080
-0.2018749 -0.86408907 -0.16504978 4278190080
-0.20473914 -0.86341488 -0.16504978 4278190080
-0.20775184 -0.86269492 -0.16504978 4278190080
-0.21076189 -0.86196452 -0.16504978 4278190080
-0.21258709 -0.85645992 -0.16409573 4278190080
-0.21542597 -0.85575026 -0.16409573 4278190080
-0.21719705 -0.85023761 -0.16314168 4278190080
-0.22016357 -0.84947431 -0.16314168 4278190080
-0.22312751 -0.84870058 -0.16314168 4278190080
-0.22735316 -0.85265899 -0.16409573 4278190080
-0.23032805 -0.85186023 -0.16409573 4278190080
-0.23459788 -0.85578454 -0.16504978 4278190080
-0.23758365 -0.85496044 -0.16504978 4278190080
-0.24189726 -0.85885024 -0.16600382 4278190080
-0.24489368 -0.85800064 -0.16600382 4278190080
-0.24788713 -0.8571406 -0.16600382 4278190080
-0.25087768 -0.85627007 -0.16600382 4278190080
-0.25386503 -0.85538912 -0.16600382 4278190080
-0.25543657 -0.84979737 -0.16504978 4278190080
-0.2582531 -0.84894562 -0.16504978 4278190080
-0.26121497 -0.84803897 -0.16504978 4278190080
-0.26563475 -0.85180759 -0.16600382 4278190080
-0.26860642 -0.8508752 -0.16600382 4278190080
-0.27456272 -0.85928291 -0.16791192 4278190080
-0.27302992 -0.84430921 -0.16504978 4278190080
-0.28040525 -0.8573941 -0.16791192 4278190080
-0.27414477 -0.82845223 -0.16218764 4278190080
-0.79021978 -2.3067288 -0.46652797 4278190080
-0.7902326 -2.2807682 -0.46175775 4278190080
-0.79332006 -2.2640998 -0.45889562 4278190080
-0.8028577 -2.2659431 -0.45984966 4278190080
-0.81076229 -2.2631269 -0.45984966 4278190080
-0.82032883 -2.2648978 -0.46080372 4278190080
-0.82446134 -2.2529466 -0.45889562 4278190080
-0.83913195 -2.2684681 -0.46271181 4278190080
-0.84188849 -2.2517331 -0.45984966 4278190080
-0.84800839 -2.2441895 -0.45889562 4278190080
-1.0911884 -2.2897804 -0.48560888 4278190080
-1.1050049 -2.2776911 -0.48465484 4278190080
-1.1017671 -2.2519703 -0.47988459 4278190080
-1.109621 -2.2481108 -0.47988459 4278190080
-1.1174619 -2.2442236 -0.47988459 4278190080
-1.1274918 -2.2446954 -0.48083866 4278190080
-1.1375389 -2.2451241 -0.48179269 4278190080
-1.1476024 -2.2455103 -0.48274675 4278190080
-1.1554335 -2.2414908 -0.48274675 4278190080
-1.1655149 -2.2417984 -0.48370078 4278190080
-1.1752212 -2.2422683 -0.48465484 4278190080
-1.1853346 -2.2424917 -0.48560888 4278190080
-1.1931549 -2.2383404 -0.48560888 4278190080
-1.2032851 -2.2384851 -0.48656294 4278190080
-1.2134303 -2.2385862 -0.48751694 4278190080
-1.2235912 -2.2386436 -0.48847103 4278190080
-1.233767 -2.2386575 -0.48942509 4278190080
-1.2439578 -2.2386274 -0.4903791 4278190080
-1.2541636 -2.2385535 -0.49133319 4278190080
-1.2643837 -2.2384355 -0.49228719 4278190080
-1.2746186 -2.2382734 -0.49324125 4278190080
-1.2824237 -2.2338107 -0.49324125 4278190080
-1.2922821 -2.233794 -0.49419528 4278190080
-1.3025441 -2.2335093 -0.49514934 4278190080
-1.3103325 -2.2289491 -0.49514934 4278190080
-1.3206073 -2.2285838 -0.49610338 4278190080
-1.3308952 -2.2281744 -0.49705744 4278190080
-1.3411965 -2.2277198 -0.49801147 4278190080
-1.3511219 -2.2274566 -0.49896553 4278190080
-1.3640094 -2.2311018 -0.50087363 4278190080
-1.3743635 -2.2305055 -0.50182766 4278190080
-1.3847303 -2.2298641 -0.50278169 4278190080
-1.3977134 -2.2333379 -0.50468981 4278190080
-1.4081188 -2.2325969 -0.50564378 4278190080
-1.4185365 -2.2318101 -0.50659788 4278190080
-1.4289654 -2.230978 -0.50755191 4278190080
-1.4394058 -2.2301002 -0.50850594 4278190080
-1.4471817 -2.2250621 -0.50850594 4278190080
-1.45763 -2.224102 -0.50945997 4278190080
-1.4707943 -2.2271914 -0.5113681 4278190080
-1.4808899 -2.2263889 -0.51232213 4278190080
-1.4913852 -2.2252831 -0.51327622 4278190080
-1.5073838 -2.2322664 -0.51613832 4278190080
-1.5151669 -2.2269909 -0.51613832 4278190080
-1.5284812 -2.2297852 -0.51804638 4278190080
-1.5362552 -2.2244363 -0.51804638 4278190080
-1.7172709 -2.244473 -0.54189754 4278190080
-1.7220993 -2.2345772 -0.5409435 4278190080
-1.7238696 -2.2207983 -0.53903544 4278190080
-1.7493589 -2.2382724 -0.54475969 4278190080
-1.7541257 -2.2282953 -0.5438056 4278190080
-1.7679919 -2.2298508 -0.54571372 4278190080
-1.7788274 -2.2275012 -0.54666775 4278190080
-1.789668 -2.2251029 -0.54762179 4278190080
-1.8036029 -2.2264698 -0.54952991 4278190080
-1.8144671 -2.2239633 -0.55048394 4278190080
-1.8284509 -2.2252004 -0.55239207 4278190080
-1.8393363 -2.2225857 -0.55334604 4278190080
-1.8533679 -2.2236922 -0.55525416 4278190080
-1.8642743 -2.2209687 -0.55620819 4278190080
-1.8783534 -2.2219439 -0.55811632 4278190080
-1.8920729 -2.2231786 -0.56002438 4278190080
-1.9062103 -2.2240133 -0.5619325 4278190080
-1.917169 -2.2210615 -0.56288654 4278190080
-1.9313502 -2.2217643 -0.56479466 4278190080
-1.9455596 -2.2223949 -0.56670272 4278190080
-1.9597968 -2.2229536 -0.56861079 4278190080
-1.9736737 -2.2237842 -0.57051891 4278190080
-1.9846947 -2.2205408 -0.57147294 4278190080
-1.9990014 -2.2208948 -0.57338101 4278190080
-2.013334 -2.2211766 -0.57528907 4278190080
-2.0276928 -2.2213855 -0.57719719 4278190080
-2.0420775 -2.2215209 -0.57910526 4278190080
-2.0531538 -2.2179813 -0.58005935 4278190080
-2.0642304 -2.2143905 -0.58101338 4278190080
-2.0719476 -2.2071717 -0.58101338 4278190080
-2.2470381 -2.2493923 -0.61058873 4278190080
-2.2557008 -2.2267544 -0.60868067 4278190080
-2.2564504 -2.2119946 -0.6067726 4278190080
-2.2711918 -2.210952 -0.60868067 4278190080
-2.2824244 -2.2064223 -0.60963476 4278190080
-2.3007345 -2.2086387 -0.61249685 4278190080
-2.31515 -2.2077715 -0.61440498 4278190080
-2.3335335 -2.2098012 -0.61726707 4278190080
-2.3483839 -2.2083669 -0.6191752 4278190080
-2.3632531 -2.2068553 -0.62108326 4278190080
-2.374541 -2.20193 -0.62203735 4278190080
-2.393044 -2.2036021 -0.62489945 4278190080
-2.4079657 -2.2018597 -0.62680751 4278190080
-2.4156368 -2.1934412 -0.62680751 4278190080
-2.7592123 -2.0536587 -0.66115314 4278190080
-2.757652 -2.0227337 -0.65733695 4278190080
-2.7524421 -2.0049093 -0.65447479 4278190080
-2.7634017 -1.9981645 -0.65542889 4278190080
-2.7544103 -1.9770584 -0.6516127 4278190080
-2.7413082 -1.9531914 -0.64684248 4278190080
-2.7400949 -1.9379425 -0.64493436 4278190080
-2.7092619 -1.8878988 -0.63443989 4278190080
-2.7425468 -1.7857987 -0.62871563 4278190080
-2.7322745 -1.7655587 -0.62489945 4278190080
-2.7342894 -1.7533613 -0.62394542 4278190080
-2.7359481 -1.7416486 -0.62299132 4278190080
-2.7295623 -1.7242243 -0.62012923 4278190080
-2.7272468 -1.7094725 -0.61822116 4278190080
-2.7248619 -1.6947581 -0.61631304 4278190080
-2.7224078 -1.6800803 -0.61440498 4278190080
-2.7240698 -1.6680042 -0.61345088 4278190080
-2.7256811 -1.6559371 -0.61249685 4278190080
-2.7314446 -1.6464127 -0.61249685 4278190080
-2.72875 -1.6318301 -0.61058873 4278190080
-2.7259874 -1.6172857 -0.60868067 4278190080
-2.7231565 -1.6027814 -0.6067726 4278190080
-2.7635455 -1.5117429 -0.60486448 4278190080
-2.7429206 -1.4880446 -0.59914023 4278190080
-2.7524204 -1.4807866 -0.60009426 4278190080
-2.7573159 -1.471651 -0.60009426 4278190080
-2.7450838 -1.4528337 -0.59627813 4278190080
-2.7588303 -1.4478043 -0.59818619 4278190080
-2.7595131 -1.4358999 -0.5972321 4278190080
-2.7601471 -1.4240078 -0.59627813 4278190080
-1.7490836 -0.83389562 -0.3692154 4278190080
-1.7252153 -0.81550562 -0.36349112 4278190080
-1.6924942 -0.79282242 -0.35585877 4278190080
-2.7870691 -1.1436285 -0.57815123 4278190080
-2.7637608 -1.1228089 -0.57242697 4278190080
-2.0328133 -0.80936599 -0.41787171 4278190080
-2.8301628 -1.1154011 -0.58387554 4278190080
-2.7837408 -1.0858948 -0.57338101 4278190080
-2.7463057 -1.060262 -0.56479466 4278190080
-2.1927466 -0.80329919 -0.44649303 4278190080
-2.1586215 -0.78226238 -0.43886068 4278190080
-2.8266604 -1.0132043 -0.57624316 4278190080
-2.7977974 -0.99185151 -0.56956482 4278190080
-2.7873476 -0.97720808 -0.56670272 4278190080
-2.7350931 -0.94818002 -0.55525416 4278190080
-1.7911153 -0.6142835 -0.36062899 4278190080
-1.714229 -0.58123493 -0.34441024 4278190080
-2.3705192 -0.78535151 -0.4779765 4278190080
-2.3779106 -0.7785995 -0.47893056 4278190080
-2.8274143 -0.90397424 -0.56956482 4278190080
-2.8024712 -0.88522923 -0.56384057 4278190080
-2.7233882 -0.80825555 -0.54475969 4278190080
-2.8205395 -0.82585269 -0.56384057 4278190080
-2.7903991 -0.80646235 -0.55716223 4278190080
-2.7695978 -0.7899859 -0.55239207 4278190080
-2.1034009 -0.58451092 -0.41691765 4278190080
-2.8438544 -0.77959138 -0.56574863 4278190080
-2.8039165 -0.75813019 -0.55716223 4278190080
-2.8018034 -0.74707299 -0.55620819 4278190080
-2.2652164 -0.58751202 -0.44744709 4278190080
-2.2339668 -0.57109207 -0.44076878 4278190080
-2.2930598 -0.57767892 -0.45221731 4278190080
-2.3093531 -0.57321846 -0.45507947 4278190080
-2.3065722 -0.56398815 -0.45412537 4278190080
-2.3132987 -0.55708194 -0.45507947 4278190080
-2.8572295 -0.66700119 -0.56288654 4278190080
-2.7973547 -0.6427356 -0.55048394 4278190080
-2.7229843 -0.61564916 -0.53521919 4278190080
-2.6340871 -0.58589238 -0.51709241 4278190080
-2.5977581 -0.56830275 -0.50945997 4278190080
-2.5757341 -0.55407065 -0.50468981 4278190080
-2.6256721 -0.55523074 -0.51423025 4278190080
-2.7977965 -0.57125217 -0.54762179 4278190080
-2.7948632 -0.56100589 -0.54666775 4278190080
-2.7871737 -0.54934776 -0.54475969 4278190080
-2.7890742 -0.53961551 -0.54475969 4278190080
-2.7909408 -0.52987665 -0.54475969 4278190080
-2.7927735 -0.52013141 -0.54475969 4278190080
-2.7897437 -0.50949794 -0.5438056 4278190080
-2.7915051 -0.49975622 -0.5438056 4278190080
-2.7883985 -0.4891611 -0.54285163 4278190080
-2.7852516 -0.47859374 -0.54189754 4278190080
-2.7869051 -0.46886864 -0.54189754 4278190080
-2.783602 -0.45882601 -0.5409435 4278190080
-2.7851865 -0.44910678 -0.5409435 4278190080
-2.7867372 -0.43938208 -0.5409435 4278190080
-2.788254 -0.42965126 -0.5409435 4278190080
-2.7898102 -0.41942933 -0.5409435 4278190080
-2.7912571 -0.40968868 -0.5409435 4278190080
-2.7877419 -0.39973348 -0.53998947 4278190080
-2.7891202 -0.39000016 -0.53998947 4278190080
-2.7856016 -0.37959865 -0.53903544 4278190080
-2.786974 -0.36938679 -0.53903544 4278190080
-2.7833786 -0.3590284 -0.53808135 4278190080
-2.7846148 -0.34930983 -0.53808135 4278190080
-2.7857578 -0.34007442 -0.53808135 4278190080
-2.7869282 -0.33034763 -0.53808135 4278190080
-2.7880642 -0.32061759 -0.53808135 4278190080
-2.7891665 -0.31088361 -0.53808135 4278190080
-2.7902346 -0.30114585 -0.53808135 4278190080
-2.786387 -0.29089481 -0.53712732 4278190080
-2.7825022 -0.28067353 -0.53617328 4278190080
-2.7834649 -0.27095923 -0.53617328 4278190080
-2.7795072 -0.26078314 -0.53521919 4278190080
-2.7804005 -0.25107941 -0.53521919 4278190080
-2.78126 -0.24137262 -0.53521919 4278190080
-2.7820857 -0.23166214 -0.53521919 4278190080
-2.7828772 -0.22194959 -0.53521919 4278190080
-2.7836351 -0.21223433 -0.53521919 4278190080
-2.784359 -0.20251648 -0.53521919 4278190080
-2.7801526 -0.19245723 -0.53426516 4278190080
-2.7808075 -0.18275091 -0.53426516 4278190080
-2.7814283 -0.17304312 -0.53426516 4278190080
-2.7771156 -0.16304556 -0.53331113 4278190080
-2.777668 -0.15335076 -0.53331113 4278190080
-2.7781863 -0.14365411 -0.53331113 4278190080
-2.7737684 -0.13371862 -0.5323571 4278190080
-2.7742183 -0.1240357 -0.5323571 4278190080
-2.7746344 -0.11435126 -0.5323571 4278190080
-2.7750168 -0.10466543 -0.5323571 4278190080
-2.7753651 -0.094978325 -0.5323571 4278190080
-2.7756798 -0.085289322 -0.5323571 4278190080
-2.7759604 -0.075600021 -0.5323571 4278190080
-2.7762074 -0.065909795 -0.5323571 4278190080
-2.7764206 -0.056218769 -0.5323571 4278190080
-2.7766001 -0.046527058 -0.5323571 4278190080
-2.7767456 -0.036834043 -0.5323571 4278190080
-2.7719443 -0.027577611 -0.53140301 4278190080
-2.7720237 -0.017900961 -0.53140301 4278190080
-2.7720695 -0.008224831 -0.53140301 4278190080
-2.7720811 0.0014513994 -0.53140301 4278190080
-2.7720592 0.011127612 -0.53140301 4278190080
-2.7720034 0.020803688 -0.53140301 4278190080
-2.771914 0.030480251 -0.53140301 4278190080
-2.7668831 0.040084608 -0.53044897 4278190080
-2.7667265 0.049742438 -0.53044897 4278190080
-2.766536 0.059399668 -0.53044897 4278190080
-2.7663116 0.069056168 -0.53044897 4278190080
-2.7660539 0.078712568 -0.53044897 4278190080
-2.7657623 0.088367268 -0.53044897 4278190080
-2.7654369 0.098020896 -0.53044897 4278190080
-2.7650778 0.10767333 -0.53044897 4278190080
-2.7646852 0.11732445 -0.53044897 4278190080
-2.7642589 0.12697488 -0.53044897 4278190080
-2.7637987 0.13662302 -0.53044897 4278190080
-2.7633049 0.1462695 -0.53044897 4278190080
-2.7627776 0.15591419 -0.53044897 4278190080
-2.7622166 0.165557 -0.53044897 4278190080
-2.7567234 0.17488775 -0.52949494 4278190080
-2.7560961 0.18450929 -0.52949494 4278190080
-2.7554352 0.1941286 -0.52949494 4278190080
-2.7596357 0.20410757 -0.53044897 4278190080
-2.7589066 0.2137391 -0.53044897 4278190080
-2.7581434 0.22336876 -0.53044897 4278190080
-2.7573471 0.23299497 -0.53044897 4278190080
-2.7614062 0.24304867 -0.53140301 4278190080
-2.760541 0.25268614 -0.53140301 4278190080
-2.7596421 0.26232055 -0.53140301 4278190080
-2.7587094 0.27195248 -0.53140301 4278190080
-2.7577434 0.28158039 -0.53140301 4278190080
-2.7567437 0.29120484 -0.53140301 4278190080
-2.7557104 0.30082574 -0.53140301 4278190080
-2.7546437 0.31044298 -0.53140301 4278190080
-2.7535431 0.32005718 -0.53140301 4278190080
-2.7524092 0.32966673 -0.53140301 4278190080
-2.7513008 0.33879238 -0.53140301 4278190080
-2.7501013 0.34839398 -0.53140301 4278190080
-2.7488685 0.35799137 -0.53140301 4278190080
-2.7524672 0.36823523 -0.5323571 4278190080
-2.7511649 0.37784147 -0.5323571 4278190080
-2.7498293 0.38744238 -0.5323571 4278190080
-2.7484601 0.39703858 -0.5323571 4278190080
-2.7519126 0.4073486 -0.53331113 4278190080
-2.750474 0.41695192 -0.53331113 4278190080
-2.7538519 0.42730352 -0.53426516 4278190080
-2.7523434 0.43691349 -0.53426516 4278190080
-2.7556462 0.44730455 -0.53521919 4278190080
-2.7540681 0.45692068 -0.53521919 4278190080
-2.7524564 0.46653125 -0.53521919 4278190080
-2.7508111 0.47613686 -0.53521919 4278190080
-2.7491322 0.48573592 -0.53521919 4278190080
-2.7474201 0.49532908 -0.53521919 4278190080
-2.7456744 0.50491619 -0.53521919 4278190080
-2.7390711 0.51359266 -0.53426516 4278190080
-2.7372615 0.52315128 -0.53426516 4278190080
-2.7354188 0.53270274 -0.53426516 4278190080
-2.7335427 0.54224777 -0.53426516 4278190080
-2.7316332 0.55178612 -0.53426516 4278190080
-2.7296906 0.5613178 -0.53426516 4278190080
-2.7326183 0.57137132 -0.53521919 4278190080
-2.730607 0.58090633 -0.53521919 4278190080
-2.7285626 0.59043497 -0.53521919 4278190080
-2.7263803 0.60043126 -0.53521919 4278190080
-2.7290576 0.61101669 -0.53617328 4278190080
-2.726908 0.62053972 -0.53617328 4278190080
-2.7247252 0.63005447 -0.53617328 4278190080
-2.7272873 0.64068401 -0.53712732 4278190080
-2.7250345 0.65019995 -0.53712732 4278190080
-2.7227483 0.65970796 -0.53712732 4278190080
-2.7251947 0.67038119 -0.53808135 4278190080
-2.7228382 0.67988962 -0.53808135 4278190080
-2.7204483 0.68938982 -0.53808135 4278190080
-2.7180254 0.69888163 -0.53808135 4278190080
-2.7203186 0.70960379 -0.53903544 4278190080
-2.7178249 0.71909571 -0.53903544 4278190080
-2.7152984 0.72857815 -0.53903544 4278190080
-2.7174745 0.73934025 -0.53998947 4278190080
-2.7148771 0.74882132 -0.53998947 4278190080
-2.7122469 0.75829333 -0.53998947 4278190080
-2.7143054 0.76909482 -0.5409435 4278190080
-2.7116044 0.77856469 -0.5409435 4278190080
-2.7088702 0.78802508 -0.5409435 4278190080
-2.7108109 0.79886323 -0.54189754 4278190080
-2.7080059 0.80832076 -0.54189754 4278190080
-2.7051675 0.81776911 -0.54189754 4278190080
-2.7022965 0.82720679 -0.54189754 4278190080
-2.6993928 0.83663434 -0.54189754 4278190080
-2.6919203 0.84411287 -0.5409435 4278190080
-2.6841304 0.85248744 -0.53998947 4278190080
-2.6764657 0.86035019 -0.53903544 4278190080
-2.6687787 0.86816907 -0.53808135 4278190080
-2.6610699 0.87594473 -0.53712732 4278190080
-2.662653 0.88677907 -0.53808135 4278190080
-2.6409364 0.88979942 -0.53426516 4278190080
-2.6006484 0.8863464 -0.52663285 4278190080
-2.5789778 0.88902062 -0.52281666 4278190080
-2.552686 0.88993865 -0.51804638 4278190080
-2.5497208 0.89839888 -0.51804638 4278190080
-2.5094256 0.89455324 -0.51041406 4278190080
-2.4508791 0.88333762 -0.49896553 4278190080
-2.4061236 0.87718439 -0.4903791 4278190080
-2.3571451 0.86819488 -0.48083866 4278190080
-2.3173025 0.86271787 -0.47320631 4278190080
-2.2867148 0.86043048 -0.46748206 4278190080
-2.2515836 0.85619622 -0.46080372 4278190080
-2.2348366 0.85876876 -0.45794156 4278190080
-2.2135241 0.85945845 -0.45412537 4278190080
-2.192234 0.86000991 -0.45030922 4278190080
-2.1709673 0.86042333 -0.44649303 4278190080
-2.1497245 0.86069936 -0.44267684 4278190080
-2.1285067 0.8608371 -0.43886068 4278190080
-2.1073143 0.86083734 -0.4350445 4278190080
-2.086148 0.86070013 -0.43122834 4278190080
-2.0650086 0.86042583 -0.42741215 4278190080
-2.0438967 0.86001498 -0.42359596 4278190080
-2.0228131 0.85946685 -0.41977981 4278190080
-1.9972478 0.85684693 -0.41500956 4278190080
-1.9762295 0.85600996 -0.41119337 4278190080
-1.9507447 0.85307026 -0.40642312 4278190080
-1.9299436 0.85160881 -0.40260696 4278190080
-1.9043938 0.84868753 -0.39783677 4278190080
-1.8835154 0.84727579 -0.39402059 4278190080
-1.8626699 0.84572858 -0.39020437 4278190080
-1.8418587 0.84404641 -0.38638818 4278190080
-1.8255368 0.84429014 -0.38352609 4278190080
-1.8090887 0.84474534 -0.38066396 4278190080
-1.7928091 0.84477866 -0.37780181 4278190080
-1.7765517 0.84470868 -0.37493965 4278190080
-1.7603165 0.84453607 -0.37207752 4278190080
-1.7486699 0.84609354 -0.37016943 4278190080
-1.732474 0.84573287 -0.36730731 4278190080
-1.7163019 0.84526962 -0.36444518 4278190080
-1.7001544 0.84470379 -0.36158305 4278190080
-1.684032 0.84403563 -0.3587209 4278190080
-1.6679349 0.84326571 -0.35585877 4278190080
-1.6474916 0.84016353 -0.35204259 4278190080
-1.6314551 0.83917409 -0.34918046 4278190080
-1.6154457 0.83808297 -0.3463183 4278190080
-1.6038128 0.83916587 -0.34441024 4278190080
-1.5878512 0.83788764 -0.34154809 4278190080
-1.5762511 0.8388136 -0.33963999 4278190080
-1.5603393 0.83734804 -0.33677787 4278190080
-1.5444571 0.83578163 -0.33391574 4278190080
-1.528605 0.83411467 -0.33105361 4278190080
-1.5169377 0.83497828 -0.32914549 4278190080
-1.5011394 0.83312297 -0.32628337 4278190080
-1.4896559 0.83356428 -0.32437527 4278190080
-1.4781877 0.83393568 -0.32246718 4278190080
-1.4667348 0.83423764 -0.32055911 4278190080
-1.4552982 0.83446944 -0.31865102 4278190080
-1.4438781 0.83463162 -0.31674293 4278190080
-1.4324745 0.83472437 -0.31483483 4278190080
-1.4168559 0.83226174 -0.31197271 4278190080
-1.4054954 0.83220142 -0.31006461 4278190080
-1.3941528 0.8320716 -0.30815652 4278190080
-1.3828284 0.83187282 -0.30624843 4278190080
-1.3715223 0.83160514 -0.30434033 4278190080
-1.3602351 0.83126873 -0.30243224 4278190080
-1.348967 0.83086407 -0.30052415 4278190080
-1.3377184 0.83039063 -0.29861605 4278190080
-1.3306507 0.83245194 -0.29766202 4278190080
-1.3194332 0.83185643 -0.29575393 4278190080
-1.308236 0.83119279 -0.29384583 4278190080
-1.301193 0.83310807 -0.2928918 4278190080
-1.2900286 0.83232307 -0.29098371 4278190080
-1.2830006 0.83414567 -0.29002967 4278190080
-1.2759755 0.83592939 -0.28907561 4278190080
-1.2689537 0.8376742 -0.28812158 4278190080
-1.2619351 0.83938062 -0.28716755 4278190080
-1.2549204 0.84104788 -0.28621349 4278190080
-1.2438418 0.83992976 -0.28430539 4278190080
-1.2327864 0.83874458 -0.28239733 4278190080
-1.2258028 0.84026754 -0.28144327 4278190080
-1.2147849 0.83896315 -0.27953517 4278190080
-1.2078201 0.84039515 -0.27858111 4278190080
-1.1968412 0.83897144 -0.27667302 4278190080
-1.1898962 0.84031272 -0.27571899 4278190080
-1.1789572 0.83877045 -0.27381089 4278190080
-1.1680434 0.83716249 -0.2719028 4278190080
-1.1571555 0.83548832 -0.26999474 4278190080
-1.1461481 0.83394831 -0.26808664 4278190080
-1.1392713 0.83504272 -0.26713258 4278190080
-1.1324011 0.83609903 -0.26617855 4278190080
-1.1256834 0.83692127 -0.26522449 4278190080
-1.1186805 0.83809847 -0.26427045 4278190080
-1.1118305 0.83904171 -0.26331642 4278190080
-1.1010798 0.83697748 -0.26140833 4278190080
-1.0942546 0.83783203 -0.26045427 4278190080
-1.0874368 0.83864915 -0.25950024 4278190080
-1.0806267 0.8394289 -0.2585462 4278190080
-1.0738245 0.8401714 -0.25759214 4278190080
-1.0670301 0.84087688 -0.25663811 4278190080
-1.0563996 0.83849359 -0.25472999 4278190080
-1.0496327 0.83911115 -0.25377595 4278190080
-1.0390514 0.83661366 -0.25186786 4278190080
-1.0323126 0.83714402 -0.25091383 4278190080
-1.0255826 0.83763784 -0.24995977 4278190080
-1.0150715 0.83497667 -0.24805169 4278190080
-1.0083711 0.83538359 -0.24709764 4278190080
-0.99791169 0.83260953 -0.24518955 4278190080
-0.99124169 0.83293027 -0.24423552 4278190080
-0.98083478 0.83004427 -0.24232742 4278190080
-0.96672493 0.82391191 -0.23946528 4278190080
-0.96011877 0.8240847 -0.23851125 4278190080
-0.97951549 0.84668905 -0.24423552 4278190080
-0.9765541 0.85010296 -0.24423552 4278190080
-0.79875529 0.86439103 -0.22133842 4278190080
-0.812325 0.88525581 -0.22610866 4278190080
-0.79270113 0.86994642 -0.22133842 4278190080
-0.77978045 0.86178988 -0.2184763 4278190080
-0.78004789 0.86815739 -0.21943034 4278190080
-0.77062815 0.8634159 -0.21752225 4278190080
-0.76420349 0.86256099 -0.2165682 4278190080
-0.75470412 0.85785317 -0.21466012 4278190080
-0.74832654 0.85691655 -0.21370608 4278190080
-0.73904848 0.85197824 -0.21179798 4278190080
-0.73286688 0.85083395 -0.21084395 4278190080
-0.72670209 0.84965718 -0.2098899 4278190080
-0.72055471 0.84844756 -0.20893586 4278190080
-0.71442467 0.84720546 -0.20798181 4278190080
-0.70831203 0.84593081 -0.20702775 4278190080
-0.70535493 0.84839809 -0.20702775 4278190080
-0.69911659 0.84719211 -0.2060737 4278190080
-0.69304442 0.84583086 -0.20511965 4278190080
-0.6900878 0.84824479 -0.20511965 4278190080
-0.68418628 0.84671104 -0.20416561 4278190080
-0.67815512 0.84526581 -0.20321156 4278190080
-0.67520028 0.847628 -0.20321156 4278190080
-0.66904521 0.84624672 -0.20225753 4278190080
-0.66608721 0.84857696 -0.20225753 4278190080
-0.66010386 0.84702563 -0.20130348 4278190080
-0.65714324 0.84932464 -0.20130348 4278190080
-0.65118462 0.84772098 -0.20034944 4278190080
-0.64822161 0.84998882 -0.20034944 4278190080
-0.64228803 0.84833324 -0.19939539 4278190080
-0.6363737 0.84664679 -0.19844134 4278190080
-0.63047922 0.84492928 -0.19748731 4278190080
-0.62460458 0.84318095 -0.19653326 4278190080
-0.6187498 0.84140199 -0.19557922 4278190080
-0.61580902 0.8435567 -0.19557922 4278190080
-0.61286056 0.84570122 -0.19557922 4278190080
-0.60703862 0.84385103 -0.19462517 4278190080
-0.60408938 0.84596479 -0.19462517 4278190080
-0.60113275 0.8480683 -0.19462517 4278190080
-0.59534454 0.84614736 -0.19367112 4278190080
-0.59238714 0.84822047 -0.19367112 4278190080
-0.58647889 0.84635162 -0.19271709 4278190080
-0.58073962 0.84434968 -0.19176304 4278190080
-0.57778883 0.84637171 -0.19176304 4278190080
-0.57207763 0.84432024 -0.190809 4278190080
-0.56638801 0.84223914 -0.18985495 4278190080
-0.56071997 0.8401286 -0.1889009 4278190080
-0.55507356 0.83798885 -0.18794686 4278190080
-0.55214512 0.8399213 -0.18794686 4278190080
-0.54652792 0.83773297 -0.18699281 4278190080
-0.54360038 0.83963555 -0.18699281 4278190080
-0.54066628 0.84152794 -0.18699281 4278190080
-0.53508693 0.83927149 -0.18603876 4278190080
-0.53215414 0.84113413 -0.18603876 4278190080
-0.52660495 0.83882982 -0.18508472 4278190080
-0.52367377 0.8406629 -0.18508472 4278190080
-0.52073616 0.84248573 -0.18508472 4278190080
-0.51522624 0.8401143 -0.18413067 4278190080
-0.5122906 0.84190762 -0.18413067 4278190080
-0.50666535 0.83957744 -0.18317664 4278190080
-0.50373167 0.8413409 -0.18317664 4278190080
-0.49828526 0.83887422 -0.18222259 4278190080
-0.49535382 0.8406086 -0.18222259 4278190080
-0.48993954 0.83809531 -0.18126854 4278190080
-0.4870111 0.83980036 -0.18126854 4278190080
-0.48407674 0.84149522 -0.18126854 4278190080
-0.47870395 0.8389169 -0.1803145 4278190080
-0.4757725 0.84058285 -0.1803145 4278190080
-0.47043276 0.83795863 -0.17936045 4278190080
-0.46735844 0.83967721 -0.17936045 4278190080
-0.4644244 0.84130353 -0.17936045 4278190080
-0.46148491 0.84291953 -0.17936045 4278190080
-0.45619786 0.84021193 -0.17840642 4278190080
-0.45326224 0.8417992 -0.17840642 4278190080
-0.44800931 0.83904666 -0.17745237 4278190080
-0.44507757 0.8406055 -0.17745237 4278190080
-0.44000548 0.83773142 -0.17649831 4278190080
-0.43693197 0.83933854 -0.17649831 4278190080
-0.43174842 0.83649713 -0.17554426 4278190080
-0.42882591 0.83799911 -0.17554426 4278190080
-0.42589796 0.83949095 -0.17554426 4278190080
-0.42075971 0.83658767 -0.17459023 4278190080
-0.41783696 0.83805132 -0.17459023 4278190080
-0.41273445 0.83510458 -0.17363618 4278190080
-0.40981692 0.83654022 -0.17363618 4278190080
-0.406748 0.83803672 -0.17363618 4278190080
-0.40382028 0.83945137 -0.17363618 4278190080
-0.40088764 0.84085584 -0.17363618 4278190080
-0.39794987 0.84225017 -0.17363618 4278190080
-0.39292625 0.83918911 -0.17268214 4278190080
-0.38999459 0.84055555 -0.17268214 4278190080
-0.38500801 0.83745229 -0.17172809 4278190080
-0.38208243 0.83879113 -0.17172809 4278190080
-0.379152 0.84011978 -0.17172809 4278190080
-0.37621719 0.84143811 -0.17172809 4278190080
-0.37129006 0.83825862 -0.17077404 4278190080
-0.36836177 0.83954954 -0.17077404 4278190080
-0.36347267 0.8363288 -0.16982 4278190080
-0.36055094 0.83759254 -0.16982 4278190080
-0.35570019 0.83433104 -0.16886596 4278190080
-0.35278571 0.83556759 -0.16886596 4278190080
-0.34986693 0.8367939 -0.16886596 4278190080
-0.34694389 0.83801007 -0.16886596 4278190080
-0.34200916 0.83473438 -0.16791192 4278190080
-0.33909336 0.83592314 -0.16791192 4278190080
-0.33602718 0.83716041 -0.16791192 4278190080
-0.33324915 0.83827013 -0.16791192 4278190080
-0.33032107 0.83942825 -0.16791192 4278190080
-0.32738894 0.84057617 -0.16791192 4278190080
-0.32445285 0.84171379 -0.16791192 4278190080
-0.32151279 0.84284121 -0.16791192 4278190080
-0.31683528 0.83936656 -0.16695787 4278190080
-0.31390345 0.84046739 -0.16695787 4278190080
-0.3109678 0.84155798 -0.16695787 4278190080
-0.30802837 0.84263831 -0.16695787 4278190080
-0.30341616 0.83909273 -0.16600382 4278190080
-0.30048516 0.84014678 -0.16600382 4278190080
-0.29591396 0.83656341 -0.16504978 4278190080
-0.29137143 0.83295828 -0.16409573 4278190080
-0.28846216 0.83397025 -0.16409573 4278190080
-0.28396112 0.83032805 -0.16314168 4278190080
-0.28106084 0.83131427 -0.16314168 4278190080
-0.27815735 0.83229023 -0.16314168 4278190080
-0.27525046 0.83325613 -0.16314168 4278190080
-0.27081701 0.82954603 -0.16218764 4278190080
-0.26777464 0.83053309 -0.16218764 4278190080
-0.26487395 0.83146274 -0.16218764 4278190080
-0.26197004 0.8323822 -0.16218764 4278190080
-0.25760582 0.82860476 -0.16123359 4278190080
-0.25471193 0.82949889 -0.16123359 4278190080
-0.25181472 0.830383 -0.16123359 4278190080
-0.25032258 0.83595878 -0.16218764 4278190080
-0.24740307 0.83682746 -0.16218764 4278190080
-0.24448054 0.83768594 -0.16218764 4278190080
-0.24019639 0.8338179 -0.16123359 4278190080
-0.23728418 0.83465129 -0.16123359 4278190080
-0.23436931 0.83547449 -0.16123359 4278190080
-0.23130569 0.83632785 -0.16123359 4278190080
-0.22838478 0.83713019 -0.16123359 4278190080
-0.22418602 0.83318275 -0.16027956 4278190080
-0.22127634 0.83396018 -0.16027956 4278190080
-0.21836397 0.83472753 -0.16027956 4278190080
-0.21544895 0.83548462 -0.16027956 4278190080
-0.21117705 0.83151162 -0.15932551 4278190080
-0.20827329 0.83224368 -0.15932551 4278190080
-0.20536698 0.83296561 -0.15932551 4278190080
-0.20245796 0.83367741 -0.15932551 4278190080
-0.19954692 0.83437902 -0.15932551 4278190080
-0.19663301 0.83507049 -0.15932551 4278190080
-0.19371669 0.83575183 -0.15932551 4278190080
-0.19079846 0.83642286 -0.15932551 4278190080
-0.18787746 0.83708382 -0.15932551 4278190080
-0.18389648 0.83294177 -0.15837146 4278190080
-0.18098767 0.83357865 -0.15837146 4278190080
-0.17807665 0.83420539 -0.15837146 4278190080
-0.17516392 0.83482188 -0.15837146 4278190080
-0.1722486 0.83542824 -0.15837146 4278190080
-0.16918558 0.83605391 -0.15837146 4278190080
-0.16626599 0.83663946 -0.15837146 4278190080
-0.16334483 0.83721465 -0.15837146 4278190080
-0.16042122 0.83777976 -0.15837146 4278190080
-0.15749612 0.83833462 -0.15837146 4278190080
-0.15367927 0.83405238 -0.15741742 4278190080
-0.15076678 0.83458382 -0.15741742 4278190080
-0.14785288 0.83510494 -0.15741742 4278190080
-0.14493674 0.83561599 -0.15741742 4278190080
-0.14201927 0.83611679 -0.15741742 4278190080
-0.13909964 0.83660746 -0.15741742 4278190080
-0.13539021 0.8322435 -0.15646337 4278190080
-0.13233911 0.83273411 -0.15646337 4278190080
-0.12943134 0.83319104 -0.15646337 4278190080
-0.12578595 0.82878512 -0.15550934 4278190080
-0.12289201 0.82921916 -0.15550934 4278190080
-0.11999701 0.82964307 -0.15550934 4278190080
-0.1171001 0.83005691 -0.15550934 4278190080
-0.11405713 0.83048052 -0.15550934 4278190080
-0.11115734 0.83087361 -0.15550934 4278190080
-0.10811142 0.8312754 -0.15550934 4278190080
-0.10535417 0.8316294 -0.15550934 4278190080
-0.10245043 0.83199209 -0.15550934 4278190080
-0.099545881 0.83234459 -0.15550934 4278190080
-0.096073844 0.8278116 -0.15455529 4278190080
-0.09318392 0.82814193 -0.15455529 4278190080
-0.090292424 0.82846212 -0.15455529 4278190080
-0.087399818 0.82877231 -0.15455529 4278190080
-0.084506601 0.8290723 -0.15455529 4278190080
-0.08113125 0.82447773 -0.15360124 4278190080
-0.078253053 0.82475585 -0.15360124 4278190080
-0.075373471 0.82502401 -0.15360124 4278190080
-0.072349221 0.82529473 -0.15360124 4278190080
-0.06946779 0.82554227 -0.15360124 4278190080
-0.066585511 0.82577974 -0.15360124 4278190080
-0.063702859 0.82600713 -0.15360124 4278190080
-0.060818989 0.82622445 -0.15360124 4278190080
-0.057934821 0.82643169 -0.15360124 4278190080
-0.05490509 0.82663852 -0.15360124 4278190080
-0.052019514 0.82682508 -0.15360124 4278190080
-0.049132865 0.82700169 -0.15360124 4278190080
-0.046246056 0.82716811 -0.15360124 4278190080
-0.043101367 0.82242304 -0.15264718 4278190080
-0.040230136 0.82256848 -0.15264718 4278190080
-0.037358854 0.8227039 -0.15264718 4278190080
-0.034486677 0.82282931 -0.15264718 4278190080
-0.03161452 0.82294464 -0.15264718 4278190080
-0.02874154 0.82305002 -0.15264718 4278190080
-0.025868209 0.82314533 -0.15264718 4278190080
-0.022995001 0.82323062 -0.15264718 4278190080
-0.02024099 0.82821256 -0.15360124 4278190080
-0.017350132 0.82827818 -0.15360124 4278190080
-0.014458619 0.82833374 -0.15360124 4278190080
-0.01156693 0.82837915 -0.15360124 4278190080
-0.008624143 0.82350653 -0.15264718 4278190080
-0.0057493411 0.82353163 -0.15264718 4278190080
-0.0028577738 0.81863856 -0.15169315 4278190080
-1.5038239e-16 0.81864357 -0.15169315 4278190080
0.0030003565 0.81863809 -0.15169315 4278190080
0.005858093 0.81862259 -0.15169315 4278190080
0.0087153213 0.8185972 -0.15169315 4278190080
0.011572881 0.81856179 -0.15169315 4278190080
0.014430298 0.81851637 -0.15169315 4278190080
0.017287103 0.818461 -0.15169315 4278190080
0.020144135 0.81839567 -0.15169315 4278190080
0.023000484 0.81832039 -0.15169315 4278190080
0.02585699 0.8182351 -0.15169315 4278190080
0.028713182 0.81813985 -0.15169315 4278190080
0.031379316 0.8131302 -0.1507391 4278190080
0.03435969 0.81300968 -0.1507391 4278190080
0.037421513 0.81778783 -0.15169315 4278190080
0.040276073 0.81765223 -0.15169315 4278190080
0.043129705 0.81750667 -0.15169315 4278190080
0.045983244 0.8173511 -0.15169315 4278190080
0.048978556 0.81717712 -0.15169315 4278190080
0.051830914 0.8170011 -0.15169315 4278190080
0.054682203 0.81681526 -0.15169315 4278190080
0.05753326 0.8166194 -0.15169315 4278190080
0.060383618 0.81641358 -0.15169315 4278190080
0.063232802 0.81619781 -0.15169315 4278190080
0.066081651 0.81597215 -0.15169315 4278190080
0.069342524 0.82062721 -0.15264718 4278190080
0.072206803 0.82038015 -0.15264718 4278190080
0.075070195 0.82012308 -0.15264718 4278190080
0.077932246 0.81985605 -0.15264718 4278190080
0.080793776 0.81957901 -0.15264718 4278190080
0.083797015 0.81927741 -0.15264718 4278190080
0.086656496 0.81897986 -0.15264718 4278190080
0.089514479 0.81867242 -0.15264718 4278190080
0.092371807 0.81835496 -0.15264718 4278190080
0.095228009 0.8180275 -0.15264718 4278190080
0.098082617 0.81769013 -0.15264718 4278190080
0.10093646 0.81734276 -0.15264718 4278190080
0.10378864 0.81698549 -0.15264718 4278190080
0.10678267 0.81659955 -0.15264718 4278190080
0.1102856 0.82108641 -0.15360124 4278190080
0.11315123 0.82069641 -0.15360124 4278190080
0.11601505 0.82029647 -0.15360124 4278190080
0.11887788 0.81988651 -0.15360124 4278190080
0.12173927 0.81946647 -0.15360124 4278190080
0.12459874 0.8190366 -0.15360124 4278190080
0.12745713 0.81859666 -0.15360124 4278190080
0.13031352 0.81814677 -0.15360124 4278190080
0.13316877 0.81768692 -0.15360124 4278190080
0.13602239 0.81721705 -0.15360124 4278190080
0.13887392 0.81673729 -0.15360124 4278190080
0.1417242 0.81624752 -0.15360124 4278190080
0.14542881 0.82058072 -0.15455529 4278190080
0.14843573 0.82004213 -0.15455529 4278190080
0.15129705 0.81951904 -0.15455529 4278190080
0.15415695 0.81898588 -0.15455529 4278190080
0.15701455 0.81844282 -0.15455529 4278190080
0.15987065 0.81788975 -0.15455529 4278190080
0.16272482 0.81732666 -0.15455529 4278190080
0.16571927 0.81672478 -0.15455529 4278190080
0.16856933 0.81614131 -0.15455529 4278190080
0.17155938 0.81551802 -0.15455529 4278190080
0.17426284 0.81494462 -0.15455529 4278190080
0.1771062 0.81433141 -0.15455529 4278190080
0.17994784 0.81370819 -0.15455529 4278190080
0.18278728 0.81307507 -0.15455529 4278190080
0.18562408 0.81243211 -0.15455529 4278190080
0.18845904 0.8117792 -0.15455529 4278190080
0.19129126 0.81111646 -0.15455529 4278190080
0.19526488 0.81521684 -0.15550934 4278190080
0.19810951 0.81453025 -0.15550934 4278190080
0.20227087 0.81856352 -0.15646337 4278190080
0.20512669 0.81785256 -0.15646337 4278190080
0.20798045 0.81713146 -0.15646337 4278190080
0.21083167 0.81640047 -0.15646337 4278190080
0.21367989 0.81565964 -0.15646337 4278190080
0.21652596 0.81490874 -0.15646337 4278190080
0.21936893 0.81414801 -0.15646337 4278190080
0.22220968 0.81337726 -0.15646337 4278190080
0.22504772 0.81259662 -0.15646337 4278190080
0.22788258 0.8118062 -0.15646337 4278190080
0.23085678 0.81096542 -0.15646337 4278190080
0.23368591 0.81015468 -0.15646337 4278190080
0.23788935 0.81404507 -0.15741742 4278190080
0.2407292 0.81320983 -0.15741742 4278190080
0.24356653 0.81236452 -0.15741742 4278190080
0.24782689 0.81620574 -0.15837146 4278190080
0.25067422 0.81533575 -0.15837146 4278190080
0.25351891 0.81445569 -0.15837146 4278190080
0.25636008 0.81356585 -0.15837146 4278190080
0.25919858 0.812666 -0.15837146 4278190080
0.26217526 0.8117106 -0.15837146 4278190080
0.26500726 0.81079042 -0.15837146 4278190080
0.26937667 0.81452042 -0.15932551 4278190080
0.27221841 0.81357509 -0.15932551 4278190080
0.27663046 0.81726891 -0.16027956 4278190080
0.27948129 0.81629837 -0.16027956 4278190080
0.28247118 0.81526858 -0.16027956 4278190080
0.28531545 0.81427753 -0.16027956 4278190080
0.28979543 0.81790292 -0.16123359 4278190080
0.2926484 0.81688643 -0.16123359 4278190080
0.29549828 0.81585985 -0.16123359 4278190080
0.29834411 0.81482351 -0.16123359 4278190080
0.30303329 0.81832713 -0.16218764 4278190080
0.30588767 0.81726444 -0.16218764 4278190080
0.30873877 0.81619167 -0.16218764 4278190080
0.31158611 0.81510895 -0.16218764 4278190080
0.31442922 0.8140164 -0.16218764 4278190080
0.31726891 0.81291384 -0.16218764 4278190080
0.32010433 0.81180149 -0.16218764 4278190080
0.32293627 0.81067914 -0.16218764 4278190080
0.32759655 0.81410015 -0.16314168 4278190080
0.33043602 0.8129518 -0.16314168 4278190080
0.33327192 0.81179333 -0.16314168 4278190080
0.33610332 0.81062514 -0.16314168 4278190080
0.33893105 0.80944693 -0.16314168 4278190080
0.34175465 0.80825883 -0.16314168 4278190080
0.34664264 0.81151444 -0.16409573 4278190080
0.349473 0.81029963 -0.16409573 4278190080
0.35425901 0.81357479 -0.16504978 4278190080
0.35907209 0.81682634 -0.16600382 4278190080
0.36192089 0.81556803 -0.16600382 4278190080
0.3667722 0.81877893 -0.16695787 4278190080
0.3696278 0.8174938 -0.16695787 4278190080
0.37233672 0.81626356 -0.16695787 4278190080
0.37532628 0.81489325 -0.16695787 4278190080
0.37816823 0.81357825 -0.16695787 4278190080
0.38309038 0.8166967 -0.16791192 4278190080
0.38593858 0.81535465 -0.16791192 4278190080
0.38878253 0.81400239 -0.16791192 4278190080
0.39162174 0.81264025 -0.16791192 4278190080
0.39459744 0.81119949 -0.16791192 4278190080
0.39742684 0.80981708 -0.16791192 4278190080
0.40039217 0.80835503 -0.16791192 4278190080
0.4030706 0.80702287 -0.16791192 4278190080
0.40588492 0.80561107 -0.16791192 4278190080
0.41091838 0.80856478 -0.16886596 4278190080
0.41373849 0.80712539 -0.16886596 4278190080
0.41655311 0.8056764 -0.16886596 4278190080
0.41936308 0.80421734 -0.16886596 4278190080
0.42216751 0.80274874 -0.16886596 4278190080
0.42740765 0.8055315 -0.16982 4278190080
0.43021661 0.80403483 -0.16982 4278190080
0.43535143 0.80684751 -0.17077404 4278190080
0.43816492 0.80532312 -0.17077404 4278190080
0.44333428 0.8080917 -0.17172809 4278190080
0.44615254 0.80653918 -0.17172809 4278190080
0.44896489 0.80497706 -0.17172809 4278190080
0.45417792 0.80768299 -0.17268214 4278190080
0.45699424 0.80609286 -0.17268214 4278190080
0.4622409 0.80875385 -0.17363618 4278190080
0.46765301 0.8113066 -0.17459023 4278190080
0.47048232 0.80966914 -0.17459023 4278190080
0.47578621 0.81225711 -0.17554426 4278190080
0.47861877 0.81059128 -0.17554426 4278190080
0.48144552 0.8089155 -0.17554426 4278190080
0.48426598 0.80723017 -0.17554426 4278190080
0.48708096 0.80553478 -0.17554426 4278190080
0.49258497 0.80793488 -0.17649831 4278190080
0.49540237 0.8062104 -0.17649831 4278190080
0.50079751 0.80864912 -0.17745237 4278190080
0.50361735 0.80689603 -0.17745237 4278190080
0.50904429 0.80928761 -0.17840642 4278190080
0.51186585 0.80750597 -0.17840642 4278190080
0.51732385 0.80985045 -0.17936045 4278190080
0.52028853 0.80794901 -0.17936045 4278190080
0.52310574 0.80612779 -0.17936045 4278190080
0.52591622 0.80429709 -0.17936045 4278190080
0.53142112 0.80655479 -0.1803145 4278190080
0.53423303 0.80469501 -0.1803145 4278190080
0.53703886 0.80282521 -0.1803145 4278190080
0.54258132 0.80501556 -0.18126854 4278190080
0.5453878 0.80311686 -0.18126854 4278190080
0.55095953 0.80525881 -0.18222259 4278190080
0.55376679 0.8033309 -0.18222259 4278190080
0.5595082 0.8053264 -0.18317664 4278190080
0.56231564 0.80336863 -0.18317664 4278190080
0.56794518 0.80541193 -0.18413067 4278190080
0.57075328 0.80342442 -0.18413067 4278190080
0.57641047 0.80541867 -0.18508472 4278190080
0.57921857 0.80340159 -0.18508472 4278190080
0.58490342 0.80534631 -0.18603876 4278190080
0.58771122 0.80329961 -0.18603876 4278190080
0.59342372 0.80519408 -0.18699281 4278190080
0.59623051 0.80311793 -0.18699281 4278190080
0.60196984 0.80496234 -0.18794686 4278190080
0.60477579 0.80285633 -0.18794686 4278190080
0.60771459 0.80063409 -0.18794686 4278190080
0.6105054 0.79850811 -0.18794686 4278190080
0.61628383 0.80026072 -0.1889009 4278190080
0.61893421 0.79821259 -0.1889009 4278190080
0.62185556 0.79593885 -0.1889009 4278190080
0.62766558 0.7976203 -0.18985495 4278190080
0.63044566 0.7954247 -0.18985495 4278190080
0.63628066 0.79705483 -0.190809 4278190080
0.64213419 0.79865426 -0.19176304 4278190080
0.64800709 0.8002221 -0.19271709 4278190080
0.65389866 0.80175865 -0.19367112 4278190080
0.6566931 0.79947144 -0.19367112 4278190080
0.66274798 0.8008405 -0.19462517 4278190080
0.66553956 0.79852206 -0.19462517 4278190080
0.67147863 0.79995316 -0.19557922 4278190080
0.67743528 0.80135286 -0.19653326 4278190080
0.68022853 0.79898316 -0.19653326 4278190080
0.68620789 0.8003301 -0.19748731 4278190080
0.68899751 0.79792976 -0.19748731 4278190080
0.69499946 0.79922336 -0.19844134 4278190080
0.70101833 0.80048513 -0.19939539 4278190080
0.70705491 0.80171418 -0.20034944 4278190080
0.70998847 0.79911739 -0.20034944 4278190080
0.71604645 0.80029184 -0.20130348 4278190080
0.71883541 0.79778767 -0.20130348 4278190080
0.72161597 0.79527348 -0.20130348 4278190080
0.72769862 0.79637283 -0.20225753 4278190080
0.73047376 0.79382807 -0.20225753 4278190080
0.7365765 0.79487336 -0.20321156 4278190080
0.74269497 0.79588604 -0.20416561 4278190080
0.7488299 0.79686522 -0.20511965 4278190080
0.75160706 0.79424632 -0.20511965 4278190080
0.7577607 0.79517126 -0.2060737 4278190080
0.7605319 0.79252118 -0.2060737 4278190080
0.76670414 0.79339123 -0.20702775 4278190080
0.76946908 0.79070997 -0.20702775 4278190080
0.77579784 0.79138952 -0.20798181 4278190080
0.78200382 0.79216939 -0.20893586 4278190080
0.78822428 0.792916 -0.2098899 4278190080
0.79445982 0.79362833 -0.21084395 4278190080
0.79722542 0.79085016 -0.21084395 4278190080
0.80347741 0.79150718 -0.21179798 4278190080
0.80623555 0.78869754 -0.21179798 4278190080
0.81264186 0.78915668 -0.21275203 4278190080
0.81539172 0.78631502 -0.21275203 4278190080
0.82167614 0.78685892 -0.21370608 4278190080
0.82797462 0.787368 -0.21466012 4278190080
0.82714969 0.78110307 -0.21370608 4278190080
0.84777206 0.79499799 -0.2184763 4278190080
0.85054213 0.79203373 -0.2184763 4278190080
1.102513 0.81046915 -0.2585462 4278190080
1.108144 0.80275255 -0.2585462 4278190080
1.1149244 0.80174482 -0.25950024 4278190080
1.1297008 0.80640256 -0.26236236 4278190080
1.1044754 0.78259134 -0.25568405 4278190080
1.119382 0.78700632 -0.2585462 4278190080
1.122122 0.78309453 -0.2585462 4278190080
1.1290199 0.78177077 -0.25950024 4278190080
1.1316061 0.77802241 -0.25950024 4278190080
1.1383693 0.77683395 -0.26045427 4278190080
1.1410742 0.77285534 -0.26045427 4278190080
1.1478381 0.77160609 -0.26140833 4278190080
1.1505246 0.76759446 -0.26140833 4278190080
1.1572891 0.76628375 -0.26236236 4278190080
1.1640588 0.76493454 -0.26331642 4278190080
1.1708332 0.76354736 -0.26427045 4278190080
1.1776116 0.76212281 -0.26522449 4278190080
1.1843947 0.76065958 -0.26617855 4278190080
1.1870425 0.75652099 -0.26617855 4278190080
1.1898075 0.75216472 -0.26617855 4278190080
1.1965834 0.75061554 -0.26713258 4278190080
1.2033633 0.74902749 -0.26808664 4278190080
1.2101462 0.74740183 -0.26904067 4278190080
1.2169328 0.74573737 -0.26999474 4278190080
1.2237223 0.74403453 -0.27094877 4278190080
1.2347172 0.74482924 -0.27285686 4278190080
1.2415212 0.74303496 -0.27381089 4278190080
1.2525477 0.74370873 -0.27571899 4278190080
1.2593652 0.74182284 -0.27667302 4278190080
1.2704225 0.7423746 -0.27858111 4278190080
1.2772522 0.74039733 -0.27953517 4278190080
1.2883388 0.7408275 -0.28144327 4278190080
1.2994434 0.74118978 -0.28335136 4278190080
1.310696 0.74125385 -0.28525946 4278190080
1.3218366 0.74147701 -0.28716755 4278190080
1.3329949 0.74163061 -0.28907561 4278190080
1.34417 0.74171609 -0.29098371 4278190080
1.3510566 0.73937547 -0.29193777 4278190080
1.3622569 0.73933703 -0.29384583 4278190080
1.369151 0.73690391 -0.29479989 4278190080
1.3760451 0.73443097 -0.29575393 4278190080
1.3829381 0.73191953 -0.29670799 4278190080
1.3941768 0.73164892 -0.29861605 4278190080
1.4054303 0.7313087 -0.30052415 4278190080
1.416698 0.73089951 -0.30243224 4278190080
1.4279802 0.73041981 -0.30434033 4278190080
1.4436533 0.73209083 -0.30720249 4278190080
1.4549705 0.73145586 -0.30911058 4278190080
1.4663007 0.73075074 -0.31101868 4278190080
1.4777708 0.72971803 -0.31292674 4278190080
1.4891258 0.72887039 -0.31483483 4278190080
1.5004926 0.72795308 -0.31674293 4278190080
1.5118713 0.72696441 -0.31865102 4278190080
1.523261 0.72590601 -0.32055911 4278190080
1.5346619 0.72477603 -0.32246718 4278190080
1.5460734 0.72357523 -0.32437527 4278190080
1.5574948 0.72230446 -0.32628337 4278190080
1.5733861 0.7230112 -0.32914549 4278190080
1.584834 0.72158283 -0.33105361 4278190080
1.6007652 0.72210062 -0.33391574 4278190080
1.6167192 0.72251588 -0.33677787 4278190080
1.6328214 0.72254407 -0.33963999 4278190080
1.6488191 0.72275198 -0.34250215 4278190080
1.6603363 0.72090131 -0.34441024 4278190080
1.6763693 0.720918 -0.34727237 4278190080
1.6924222 0.72083235 -0.35013449 4278190080
1.708495 0.72064245 -0.35299662 4278190080
1.7245868 0.72035003 -0.35585877 4278190080
1.7406975 0.719953 -0.3587209 4278190080
1.7568262 0.71945214 -0.36158305 4278190080
1.7775205 0.72069257 -0.36539921 4278190080
1.7982452 0.72179627 -0.3692154 4278190080
1.8144373 0.72095251 -0.37207752 4278190080
1.8353393 0.72147936 -0.37589371 4278190080
1.8469945 0.71862841 -0.37780181 4278190080
