# .PCD v0.7 - Point Cloud Data file format
VERSION 0.7
FIELDS x y z rgb
SIZE 4 4 4 4
TYPE F F F U
COUNT 1 1 1 1
WIDTH 1082
HEIGHT 1
VIEWPOINT 0 0 0 1 0 0 0
POINTS 1082
DATA ascii
1.0942581 0.16422239 -0.010711789 4294967295
1.0933547 0.13450393 -0.0079430938 4294967295
1.0932461 0.10527341 -0.0097037554 4294967295
1.0945088 0.075310804 -0.011533976 4294967295
1.0949677 0.044847012 -0.011427164 4294967295
1.0933629 0.015690066 -0.010235608 4294967295
1.094213 -0.015109343 -0.0089346766 4294967295
1.0947587 -0.045342408 -0.0092059374 4294967295
1.0949465 -0.075034522 -0.0094346404 4294967295
1.0936273 -0.10488993 -0.0084815025 4294967295
1.0948793 -0.13473268 -0.0091317296 4294967295
1.0936924 -0.16544022 -0.009139657 4294967295
1.0928309 -0.19513473 -0.0094551444 4294967295
1.0935594 -0.22467984 -0.0095689893 4294967295
1.0935234 -0.25565267 -0.0091730356 4294967295
1.0942297 -0.28487453 -0.010854125 4294967295
1.0943078 -0.31568709 -0.010804772 4294967295
1.0938405 -0.34448111 -0.0096135139 4294967295
1.0928459 -0.37469354 -0.009355545 4294967295
1.0932716 -0.40474418 -0.0097248554 4294967295
1.0946192 -0.43503115 -0.010322213 4294967295
1.0945642 -0.46449536 -0.0091823936 4294967295
1.0943664 -0.49520963 -0.0088832378 4294967295
1.094322 -0.52550322 -0.0090750456 4294967295
1.0938413 -0.55452788 -0.0089504719 4294967295
1.0944403 -0.58530253 -0.008834362 4294967295
1.0936518 -0.61499649 -0.0077667832 4294967295
1.0933899 -0.64528513 -0.0084991455 4294967295
1.093707 -0.67521501 -0.008697629 4294967295
1.0939367 -0.70543981 -0.010198712 4294967295
1.0939447 -0.73524201 -0.0098577738 4294967295
1.0942743 -0.76464695 -0.0091635585 4294967295
1.0933028 -0.79435062 -0.0092478991 4294967295
1.0944604 -0.82559884 -0.0096060634 4294967295
1.0942854 -0.85470349 -0.010032892 4294967295
1.0943769 -0.88692373 -0.009896636 4294967295
1.0921682 -0.90740234 -0.00074148178 4294967295
1.1373334 -0.9285267 1.1516335 4294967295
1.137 -0.93001497 1.1549662 4294967295
1.1246666 -0.92605251 1.1323938 4294967295
1.1152999 -0.9303757 1.1260259 4294967295
1.1252607 -0.92793232 1.1101382 4294967295
1.1232268 -0.93196225 1.1045642 4294967295
1.1213969 -0.92758989 1.0743227 4294967295
1.1350001 -0.93087924 1.0767689 4294967295
1.1255233 -0.92694569 1.0454659 4294967295
1.1173999 -0.93057364 1.0364279 4294967295
1.1253045 -0.92600548 1.015586 4294967295
1.1169599 -0.93082845 1.0143018 4294967295
1.123746 -0.92817426 0.98508465 4294967295
1.1239744 -0.93078768 0.98668331 4294967295
1.1230001 -0.92915606 0.95469403 4294967295
1.124123 -0.93163139 0.95424139 4294967295
1.1254406 -0.9265123 0.92280889 4294967295
1.1183823 -0.93062115 0.92766643 4294967295
1.1255829 -0.92342627 0.89590311 4294967295
1.1165862 -0.93081129 0.89707923 4294967295
1.1244348 -0.92873847 0.86707962 4294967295
1.1227639 -0.93201309 0.8634131 4294967295
1.1244125 -0.92848194 0.8342129 4294967295
1.1242273 -0.93040061 0.83728188 4294967295
1.1239206 -0.92777628 0.80459929 4294967295
1.12155 -0.93077725 0.80623293 4294967295
1.1233481 -0.92600137 0.77567279 4294967295
1.1194285 -0.93007344 0.77944314 4294967295
1.1233288 -0.92661887 0.7431348 4294967295
1.1373333 -0.93028766 0.7527343 4294967295
1.1219541 -0.92673659 0.71659929 4294967295
1.136111 -0.93104172 0.70694476 4294967295
1.1249454 -0.92727244 0.68372667 4294967295
1.1186047 -0.93127662 0.68437243 4294967295
1.1287125 -0.92676347 0.65665853 4294967295
1.1189409 -0.93666822 0.65248632 4294967295
1.124566 -0.92770678 0.62424922 4294967295
1.1210716 -0.93501407 0.63176876 4294967295
1.1236191 -0.92626792 0.59474134 4294967295
1.1173999 -0.9300558 0.59802818 4294967295
1.1218572 -0.92574167 0.56565565 4294967295
1.127 -0.9304834 0.55429173 4294967295
1.1251884 -0.92768329 0.53514475 4294967295
1.1296 -0.93019038 0.54171228 4294967295
1.1228 -0.92650855 0.50403035 4294967295
1.1375 -0.93042403 0.5126031 4294967295
1.1233963 -0.92591733 0.47470284 4294967295
1.1247706 -0.92831761 0.44728366 4294967295
1.1235869 -0.93128443 0.44147545 4294967295
1.1270965 -0.92764246 0.41362357 4294967295
1.1178528 -0.93234563 0.42043009 4294967295
1.1230625 -0.92624819 0.38430196 4294967295
1.118 -0.93003762 0.37914008 4294967295
1.1211729 -0.92104429 0.35498536 4294967295
1.1241984 -0.92410636 0.32527167 4294967295
1.1160713 -0.93027991 0.32851467 4294967295
1.1238073 -0.92343575 0.29543227 4294967295
1.1242557 -0.92519534 0.26429537 4294967295
1.1235204 -0.92471945 0.23463994 4294967295
1.124778 -0.92449516 0.20503041 4294967295
1.1149048 -0.93090451 0.20264307 4294967295
1.1227087 -0.92417264 0.17565885 4294967295
1.1239676 -0.92024142 0.14485466 4294967295
1.1243949 -0.91266024 0.1145741 4294967295
1.1241477 -0.91400719 0.08346194 4294967295
1.1189998 -0.9308694 0.071355969 4294967295
1.1232928 -0.91322654 0.056724101 4294967295
1.1189998 -0.9308694 0.06616345 4294967295
1.1255596 -0.91564536 0.024368525 4294967295
1.137 0.99047375 -0.013682783 4294967295
1.125613 0.96992433 -0.0099160075 4294967295
1.1223062 0.94517553 -0.0078085661 4294967295
1.1241635 0.91540825 -0.0087767839 4294967295
1.1240001 0.88491809 -0.012434006 4294967295
1.123076 0.85504532 -0.012520015 4294967295
1.1228243 0.82590139 -0.0078710914 4294967295
1.1227117 0.79441321 -0.0087659955 4294967295
1.1244844 0.76522738 -0.0098596215 4294967295
1.1236501 0.73478568 -0.011473656 4294967295
1.1234311 0.70551461 -0.010299563 4294967295
1.1241111 0.67639351 -0.011381209 4294967295
1.1210732 0.64406186 -0.013164878 4294967295
1.1242456 0.61328387 -0.012473941 4294967295
1.1245176 0.58542645 -0.013108969 4294967295
1.1234262 0.55409944 -0.011511743 4294967295
1.1230145 0.52477056 -0.010256529 4294967295
1.1233681 0.49479413 -0.0075793862 4294967295
1.123638 0.46420223 -0.0083646178 4294967295
1.1247869 0.43525556 -0.010629058 4294967295
1.1252817 0.40571225 -0.0098764896 4294967295
1.1236721 0.37508833 -0.0087153912 4294967295
1.1229426 0.34509382 -0.0083575845 4294967295
1.1222464 0.3147746 -0.0081238151 4294967295
1.1234225 0.28503421 -0.0085281134 4294967295
1.1235303 0.25456101 -0.010846257 4294967295
1.1223334 0.22558506 -0.011341929 4294967295
1.1229844 0.1945612 -0.01151067 4294967295
1.124028 0.16533414 -0.010131061 4294967295
1.1239679 0.13599971 -0.0087997317 4294967295
1.1233847 0.10404457 -0.009951055 4294967295
1.123903 0.075396143 -0.011308134 4294967295
1.1240746 0.045416962 -0.010700762 4294967295
1.1238061 0.014695153 -0.0092126727 4294967295
1.1231319 -0.014893805 -0.008600235 4294967295
1.1241077 -0.044183724 -0.0092492104 4294967295
1.1241288 -0.075527668 -0.010602891 4294967295
1.1246027 -0.10489064 -0.009062171 4294967295
1.1246856 -0.13493758 -0.0092522502 4294967295
1.1240832 -0.16413976 -0.0095053911 4294967295
1.1233962 -0.19504337 -0.0098368526 4294967295
1.1231402 -0.2250071 -0.0098083019 4294967295
1.1227334 -0.25529295 -0.0094829798 4294967295
1.1236668 -0.28503561 -0.010075569 4294967295
1.123841 -0.31426013 -0.010996163 4294967295
1.1245002 -0.34452939 -0.010446846 4294967295
1.1230471 -0.37530389 -0.009264648 4294967295
1.1237333 -0.40482178 -0.0095587373 4294967295
1.1240331 -0.43525815 -0.0097510815 4294967295
1.1230688 -0.46502879 -0.0098175406 4294967295
1.1241403 -0.49530178 -0.01014173 4294967295
1.1236423 -0.52485007 -0.010231316 4294967295
1.1241926 -0.55529958 -0.010529995 4294967295
1.124127 -0.58509165 -0.01022464 4294967295
1.1241453 -0.61374247 -0.0097593665 4294967295
1.1231849 -0.64467502 -0.0096832514 4294967295
1.1240999 -0.67504579 -0.010209143 4294967295
1.1235894 -0.7053408 -0.010295391 4294967295
1.1243181 -0.73506165 -0.011452079 4294967295
1.1250163 -0.76471812 -0.010729671 4294967295
1.1237457 -0.79492164 -0.0099582076 4294967295
1.1246907 -0.82546151 -0.010494113 4294967295
1.1246891 -0.85587329 -0.009287715 4294967295
1.1247143 -0.88642889 -0.0067084432 4294967295
1.1234318 -0.90690553 0.0019946098 4294967295
1.15484 -0.9282853 1.1553743 4294967295
1.1553571 -0.93099844 1.1627131 4294967295
1.1520449 -0.92597789 1.1347573 4294967295
1.1670001 -0.93018496 1.1243362 4294967295
1.1574386 -0.92805606 1.1055413 4294967295
1.1480668 -0.93152899 1.1046686 4294967295
1.1550001 -0.92494941 1.0734339 4294967295
1.1462221 -0.93193787 1.0798442 4294967295
1.1520001 -0.92551577 1.046716 4294967295
1.1676667 -0.93071634 1.0420506 4294967295
1.1518078 -0.92782056 1.0162836 4294967295
1.1537369 -0.93096966 1.0077899 4294967295
1.1567347 -0.92812425 0.98660612 4294967295
1.1496783 -0.93167847 0.98262596 4294967295
1.1587665 -0.92845249 0.95060301 4294967295
1.1513515 -0.93305379 0.95732152 4294967295
1.1546323 -0.92466968 0.92452872 4294967295
1.1457334 -0.93112564 0.93406594 4294967295
1.1536832 -0.9254809 0.89623314 4294967295
1.1536249 -0.93128818 0.88531816 4294967295
1.1575872 -0.927266 0.86404002 4294967295
1.147535 -0.93193567 0.86582023 4294967295
1.1551125 -0.92581052 0.83412564 4294967295
1.1451482 -0.93077153 0.83527303 4294967295
1.157294 -0.92701113 0.81738609 4294967295
1.1534125 -0.93380821 0.80547357 4294967295
1.1518936 -0.92881125 0.77266502 4294967295
1.1542857 -0.93127352 0.77323681 4294967295
1.1551305 -0.9292177 0.74430835 4294967295
1.1529683 -0.93109846 0.74574661 4294967295
1.1570385 -0.92850178 0.71592617 4294967295
1.1533241 -0.93183202 0.71302754 4294967295
1.1548538 -0.92664558 0.6845066 4294967295
1.1465 -0.9319247 0.69302964 4294967295
1.1526818 -0.9273659 0.65442699 4294967295
1.1557691 -0.92600191 0.62578726 4294967295
1.1465557 -0.9314186 0.62067562 4294967295
1.1524681 -0.92567754 0.59553802 4294967295
1.1538 -0.93028897 0.59830374 4294967295
1.1554545 -0.92812639 0.56464857 4294967295
1.1516154 -0.93095076 0.56319875 4294967295
1.1534241 -0.92800975 0.53800869 4294967295
1.1519545 -0.9311378 0.53022027 4294967295
1.1574736 -0.92702484 0.49833918 4294967295
1.1515082 -0.9316833 0.50891763 4294967295
1.1537961 -0.92585164 0.47557193 4294967295
1.1461667 -0.93041974 0.48683769 4294967295
1.155183 -0.92658728 0.44521886 4294967295
1.1449617 -0.93141395 0.44215533 4294967295
1.1518205 -0.92815876 0.41607234 4294967295
1.1645454 -0.93066216 0.41108078 4294967295
1.1510665 -0.92867988 0.38521984 4294967295
1.1603807 -0.93075782 0.38840729 4294967295
1.1532296 -0.92430997 0.35316217 4294967295
1.16575 -0.93053889 0.3636536 4294967295
1.1539743 -0.92374605 0.32488301 4294967295
1.1512808 -0.92677331 0.29490748 4294967295
1.1665 -0.93147719 0.29725182 4294967295
1.1526555 -0.9266488 0.26468703 4294967295
1.1540834 -0.9254601 0.23638412 4294967295
1.1538675 -0.92426097 0.20423505 4294967295
1.1535577 -0.92416221 0.17442572 4294967295
1.1539421 -0.91863632 0.14420149 4294967295
1.1465 -0.93046898 0.15742311 4294967295
1.1522909 -0.91007423 0.11607784 4294967295
1.1538447 -0.90744424 0.085581183 4294967295
1.153492 -0.90779018 0.057136774 4294967295
1.1521859 -0.91246611 0.021579862 4294967295
1.165 1.0247741 -0.015107334 4294967295
1.1559556 1.0032787 -0.012962282 4294967295
1.1531335 0.97618318 -0.010294735 4294967295
1.1526111 0.94370407 -0.011861742 4294967295
1.1560925 0.91298741 -0.012836456 4294967295
1.1552951 0.88620263 -0.013452649 4294967295
1.1542073 0.85587227 -0.010014117 4294967295
1.1539757 0.82414782 -0.0113796 4294967295
1.1520783 0.79446125 -0.0099962354 4294967295
1.1545172 0.76438755 -0.011028171 4294967295
1.1545933 0.73587924 -0.011741161 4294967295
1.1536416 0.70521027 -0.01132071 4294967295
1.1505001 0.68030661 -0.01613915 4294967295
1.155641 0.64237869 -0.01628834 4294967295
1.1541356 0.61565417 -0.012213409 4294967295
1.154 0.58493859 -0.012490332 4294967295
1.1542584 0.55519617 -0.010905981 4294967295
1.1534482 0.52643436 -0.0091033578 4294967295
1.1536798 0.49447349 -0.0087502599 4294967295
1.1543932 0.46490511 -0.0085264444 4294967295
1.154424 0.43508324 -0.0089436173 4294967295
1.153509 0.4043597 -0.007797718 4294967295
1.1546367 0.3751978 -0.0085458755 4294967295
1.1548249 0.34530064 -0.0087212324 4294967295
1.1547594 0.31543747 -0.008497715 4294967295
1.1524529 0.28525802 -0.0084020495 4294967295
1.153283 0.25556546 -0.011156678 4294967295
1.1531489 0.22402276 -0.01390028 4294967295
1.1540461 0.19503947 -0.01069957 4294967295
1.1537414 0.16571663 -0.0085475445 4294967295
1.1536723 0.13510969 -0.0089305043 4294967295
1.1528391 0.10563084 -0.0095334649 4294967295
1.1527859 0.07482098 -0.010038912 4294967295
1.1521293 0.044885002 -0.0099238753 4294967295
1.154 0.014554263 -0.0093539357 4294967295
1.1536549 -0.014830038 -0.0080941319 4294967295
1.1535717 -0.0445491 -0.0091530681 4294967295
1.1527894 -0.074735738 -0.01028198 4294967295
1.1536592 -0.10559137 -0.009380877 4294967295
1.1542118 -0.13555412 -0.0086597204 4294967295
1.1525925 -0.16514784 -0.0093907714 4294967295
1.1525816 -0.19505908 -0.010279715 4294967295
1.15293 -0.22510242 -0.010528684 4294967295
1.1530907 -0.25501183 -0.010363817 4294967295
1.1532654 -0.28555611 -0.0099401474 4294967295
1.1540896 -0.31501675 -0.011019766 4294967295
1.1541251 -0.34401897 -0.011714816 4294967295
1.1537693 -0.37517682 -0.011237264 4294967295
1.1531452 -0.40639672 -0.0097090602 4294967295
1.1533066 -0.43431774 -0.0088372231 4294967295
1.1537858 -0.46478778 -0.010638475 4294967295
1.1530497 -0.49549466 -0.010446608 4294967295
1.1531355 -0.52427584 -0.0095297694 4294967295
1.1539997 -0.55440456 -0.011738002 4294967295
1.1546799 -0.58525199 -0.012103498 4294967295
1.1549996 -0.61465728 -0.012267113 4294967295
1.1527047 -0.644642 -0.011679173 4294967295
1.1531816 -0.6743412 -0.011899233 4294967295
1.1522979 -0.70433879 -0.01157701 4294967295
1.1542084 -0.73569298 -0.011867285 4294967295
1.1537552 -0.76600903 -0.011373937 4294967295
1.1529018 -0.79546911 -0.010160327 4294967295
1.1524926 -0.8245343 -0.0086823702 4294967295
1.1525382 -0.85502809 -0.008486867 4294967295
1.1526924 -0.8865515 -0.0032293797 4294967295
1.1509999 -0.90512764 0.0045630932 4294967295
1.164 0.6818108 -0.020954669 4294967295
1.1670001 0.65649164 -0.022348881 4294967295
1.191875 -0.92510599 1.1824964 4294967295
1.1836667 -0.93248194 1.1810277 4294967295
1.1880972 -0.92729217 1.163281 4294967295
1.1786175 -0.93291473 1.1706488 4294967295
1.1850858 -0.9266662 1.134901 4294967295
1.1765999 -0.93054909 1.1317704 4294967295
1.1864022 -0.92646599 1.104296 4294967295
1.1759998 -0.93064386 1.1084118 4294967295
1.184567 -0.92478925 1.0754213 4294967295
1.1897407 -0.92731434 1.04702 4294967295
1.181758 -0.93272924 1.0425913 4294967295
1.1918694 -0.92805481 1.0146385 4294967295
1.1797233 -0.932724 1.0159401 4294967295
1.1891527 -0.92666996 0.98345482 4294967295
1.1795402 -0.93190122 0.98446923 4294967295
1.1864177 -0.92697966 0.95596659 4294967295
1.1761249 -0.93113679 0.95636308 4294967295
1.186667 -0.9278791 0.92422223 4294967295
1.1818945 -0.93064749 0.92904127 4294967295
1.1852676 -0.92740071 0.89399433 4294967295
1.1766999 -0.93053806 0.89716649 4294967295
1.1819768 -0.92849028 0.87172782 4294967295
1.1866341 -0.93210882 0.85954988 4294967295
1.184877 -0.92798722 0.8298893 4294967295
1.1858182 -0.9312759 0.84356022 4294967295
1.1935779 -0.92809743 0.80605263 4294967295
1.1822042 -0.93640786 0.80453748 4294967295
1.1927838 -0.92806637 0.77645767 4294967295
1.1819466 -0.93340558 0.77503681 4294967295
1.1920002 -0.92956513 0.7431795 4294967295
1.1846067 -0.93327171 0.74577451 4294967295
1.1854863 -0.9266991 0.71236497 4294967295
1.177303 -0.93233538 0.72164494 4294967295
1.1864731 -0.92776358 0.68733025 4294967295
1.1815383 -0.93111157 0.67753375 4294967295
1.1887233 -0.92815429 0.65214491 4294967295
1.1806532 -0.93132174 0.65786588 4294967295
1.1836526 -0.92490917 0.62528199 4294967295
1.1857502 -0.92761254 0.59653687 4294967295
1.1806 -0.93183517 0.58669275 4294967295
1.1894166 -0.92677194 0.56585532 4294967295
1.1796737 -0.93150276 0.56698275 4294967295
1.1899501 -0.92842436 0.5354259 4294967295
1.1835847 -0.93314904 0.534087 4294967295
1.1883508 -0.92642987 0.5028913 4294967295
1.1811464 -0.93362081 0.51209134 4294967295
1.1853664 -0.92601371 0.4752669 4294967295
1.1815 -0.93077326 0.46228686 4294967295
1.1861122 -0.92646945 0.44361025 4294967295
1.17975 -0.93075949 0.45553079 4294967295
1.1872115 -0.923823 0.41511858 4294967295
1.1779678 -0.93230557 0.4105525 4294967295
1.1886749 -0.92303085 0.38646954 4294967295
1.1776606 -0.9322238 0.38388658 4294967295
1.1869664 -0.92526305 0.35308146 4294967295
1.1783749 -0.93197149 0.36256373 4294967295
1.1852078 -0.9257533 0.32532683 4294967295
1.1923952 -0.92751002 0.29673165 4294967295
1.1830758 -0.93453306 0.29340971 4294967295
1.1884196 -0.92709678 0.2619907 4294967295
1.18283 -0.93157738 0.26740474 4294967295
1.1858084 -0.92438257 0.23417673 4294967295
1.1805 -0.93066645 0.24698678 4294967295
1.1839597 -0.92287213 0.20573625 4294967295
1.1838219 -0.92353076 0.17505878 4294967295
1.1846077 -0.91769022 0.14614081 4294967295
1.1839119 -0.91156071 0.11426708 4294967295
1.1915001 -0.89856464 0.080991238 4294967295
1.1825531 -0.9041627 0.085391492 4294967295
1.1855632 -0.91212487 0.056250751 4294967295
1.1871998 -0.91977537 0.022625387 4294967295
1.194 1.0512093 -0.012734532 4294967295
1.1858002 1.0326538 -0.013082802 4294967295
1.1853848 1.0063027 -0.013049185 4294967295
1.1872194 0.97244269 -0.017144382 4294967295
1.1856827 0.94416147 -0.012831807 4294967295
1.1844475 0.91495508 -0.010450959 4294967295
1.185286 0.88483137 -0.008736074 4294967295
1.1842952 0.85583472 -0.011758626 4294967295
1.1838002 0.8256982 -0.013652742 4294967295
1.1844202 0.79426342 -0.011678815 4294967295
1.1861271 0.76579618 -0.012151957 4294967295
1.1854777 0.7349419 -0.013042569 4294967295
1.1867099 0.70373762 -0.015361845 4294967295
1.1896088 0.6735338 -0.014841318 4294967295
1.1841072 0.64579654 -0.012643039 4294967295
1.1847274 0.61522484 -0.012319028 4294967295
1.1842401 0.58433521 -0.011597931 4294967295
1.1844285 0.55576092 -0.0097103715 4294967295
1.1850601 0.52398551 -0.010263324 4294967295
1.1852002 0.49506775 -0.0088185072 4294967295
1.1854441 0.46469256 -0.0088937283 4294967295
1.1844374 0.43619731 -0.0089626908 4294967295
1.1832223 0.40203556 -0.0083848238 4294967295
1.1846167 0.37504846 -0.0075566173 4294967295
1.1858703 0.34594172 -0.009390533 4294967295
1.1863077 0.31644675 -0.011192918 4294967295
1.1858573 0.2838594 -0.011601508 4294967295
1.1856607 0.25502855 -0.013704598 4294967295
1.1850001 0.22527801 -0.015310585 4294967295
1.1842074 0.19456856 -0.0094299912 4294967295
1.1863333 0.16523296 -0.008103013 4294967295
1.1852982 0.13466431 -0.0093089938 4294967295
1.1840847 0.10611799 -0.009539783 4294967295
1.1826743 0.075891376 -0.011477768 4294967295
1.1833603 0.044358816 -0.011256993 4294967295
1.1850002 0.015462505 -0.0096080303 4294967295
1.1851839 -0.015410939 -0.0094519854 4294967295
1.1858078 -0.045499373 -0.010430157 4294967295
1.1840419 -0.076005347 -0.01170063 4294967295
1.1857221 -0.10520732 -0.011818409 4294967295
1.185518 -0.13458997 -0.0095644593 4294967295
1.1852546 -0.16482952 -0.010655284 4294967295
1.1835128 -0.19525902 -0.012400866 4294967295
1.1850452 -0.22487381 -0.012846529 4294967295
1.1849233 -0.25567919 -0.011885822 4294967295
1.1842914 -0.28503877 -0.011124492 4294967295
1.1842408 -0.31496322 -0.011053383 4294967295
1.1855717 -0.34549209 -0.011649966 4294967295
1.1857377 -0.37431979 -0.01276195 4294967295
1.1851609 -0.40479925 -0.011367142 4294967295
1.184695 -0.43552926 -0.0080895424 4294967295
1.1854405 -0.46452013 -0.0097711086 4294967295
1.1849462 -0.49505565 -0.0115183 4294967295
1.1850615 -0.5253318 -0.010744333 4294967295
1.1838547 -0.55575544 -0.011079192 4294967295
1.1847258 -0.58505213 -0.012203693 4294967295
1.1859999 -0.61602151 -0.012772143 4294967295
1.1844702 -0.64549065 -0.012652814 4294967295
1.1835237 -0.67487621 -0.01208365 4294967295
1.1848463 -0.70508522 -0.012848258 4294967295
1.1850464 -0.73467153 -0.012491226 4294967295
1.1850861 -0.76442653 -0.012662828 4294967295
1.1846738 -0.79598957 -0.012798369 4294967295
1.1840851 -0.82556939 -0.01004535 4294967295
1.1845962 -0.85474718 -0.0084602237 4294967295
1.1846439 -0.88509625 -0.0073727965 4294967295
1.1853223 -0.90797657 0.0027785897 4294967295
1.1838889 0.69253927 -0.021952927 4294967295
1.1833227 0.67887735 -0.023725927 4294967295
1.1705 0.65710324 -0.021259665 4294967295
1.2151177 -0.92795902 1.1891963 4294967295
1.2208333 -0.93059516 1.1843131 4294967295
1.2183669 -0.92725605 1.1638021 4294967295
1.2146897 -0.93087023 1.1672542 4294967295
1.2184871 -0.92626679 1.137374 4294967295
1.2165713 -0.93138152 1.1282954 4294967295
1.2178311 -0.92632693 1.1038973 4294967295
1.2156668 -0.93089074 1.1175693 4294967295
1.2183281 -0.92780924 1.0754442 4294967295
1.2146666 -0.93086523 1.0723236 4294967295
1.2169238 -0.92761165 1.0463541 4294967295
1.2136154 -0.93029684 1.0374653 4294967295
1.2190909 -0.92921346 1.017031 4294967295
1.2159193 -0.93161088 1.0137454 4294967295
1.2176753 -0.92496192 0.98352838 4294967295
1.2116364 -0.93098778 0.99627376 4294967295
1.2169486 -0.92697537 0.95603436 4294967295
1.2141364 -0.9312554 0.94937611 4294967295
1.2170869 -0.92388207 0.92332804 4294967295
1.2103333 -0.93008852 0.93663222 4294967295
1.2183926 -0.92399311 0.89749885 4294967295
1.2121819 -0.93039805 0.88757193 4294967295
1.2214154 -0.92733151 0.86517006 4294967295
1.2118926 -0.93384725 0.8633486 4294967295
1.2187238 -0.92738724 0.83298022 4294967295
1.2105999 -0.93199646 0.84271061 4294967295
1.2149627 -0.92388856 0.80424887 4294967295
1.209 -0.93000096 0.81929362 4294967295
1.2142857 -0.92756754 0.78222901 4294967295
1.2164286 -0.93190277 0.77194262 4294967295
1.2244211 -0.92765176 0.74580371 4294967295
1.2133126 -0.9327212 0.74473548 4294967295
1.2179661 -0.9284628 0.7135576 4294967295
1.2138076 -0.9308719 0.71930784 4294967295
1.2165072 -0.92848086 0.68558002 4294967295
1.2139412 -0.93031663 0.68119127 4294967295
1.2203636 -0.92907298 0.65383404 4294967295
1.214518 -0.93145341 0.65575612 4294967295
1.2170295 -0.9275822 0.62585241 4294967295
1.2142223 -0.9305687 0.61524594 4294967295
1.2193654 -0.92733032 0.59342563 4294967295
1.2118719 -0.93125546 0.59773213 4294967295
1.2180398 -0.92473567 0.56421095 4294967295
1.2102001 -0.93091089 0.5528388 4294967295
1.2175103 -0.92456007 0.53356838 4294967295
1.2085555 -0.93073505 0.54454362 4294967295
1.2166637 -0.92365324 0.505494 4294967295
1.2159277 -0.9236725 0.4745889 4294967295
1.2176428 -0.92475635 0.44551927 4294967295
1.215163 -0.92047733 0.41608906 4294967295
1.2171929 -0.92234451 0.38417426 4294967295
1.2165667 -0.9234919 0.355526 4294967295
1.2176632 -0.92388797 0.32444808 4294967295
1.2129999 -0.93025732 0.3108834 4294967295
1.2188047 -0.92696995 0.29411381 4294967295
1.2136667 -0.93076825 0.29950649 4294967295
1.2153817 -0.92444748 0.26485208 4294967295
1.202 -0.93019408 0.27791923 4294967295
1.2162707 -0.92069846 0.23554957 4294967295
1.2164375 -0.9209677 0.20474935 4294967295
1.2183224 -0.92481583 0.17484605 4294967295
1.2171029 -0.91904247 0.14550447 4294967295
1.2193582 -0.91723913 0.11389583 4294967295
1.202 -0.89951676 0.07572794 4294967295
1.2190378 -0.90759653 0.086827695 4294967295
1.2170215 -0.90943044 0.05364579 4294967295
1.217289 -0.91550004 0.024572998 4294967295
1.2182997 1.0599394 -0.013941288 4294967295
1.2166524 1.0342152 -0.013306975 4294967295
1.2186036 1.0059925 -0.01544559 4294967295
1.2167245 0.97630954 -0.013198197 4294967295
1.2172928 0.94685501 -0.010913312 4294967295
1.2141577 0.9155426 -0.0087351799 4294967295
1.2166135 0.88336575 -0.009786427 4294967295
1.2165735 0.85499299 -0.014818132 4294967295
1.2170756 0.82448769 -0.013355672 4294967295
1.2157819 0.79468089 -0.011349082 4294967295
1.2172108 0.76512527 -0.012907386 4294967295
1.2151802 0.73589087 -0.014205635 4294967295
1.2155626 0.70695907 -0.016786993 4294967295
1.2170221 0.67422479 -0.012850881 4294967295
1.216563 0.64612758 -0.01237011 4294967295
1.2172309 0.61463386 -0.015404999 4294967295
1.2175117 0.58455747 -0.012620449 4294967295
1.2171284 0.55463398 -0.01231879 4294967295
1.2170002 0.52545214 -0.010414243 4294967295
1.2162941 0.49478865 -0.0078846812 4294967295
1.2164042 0.46575323 -0.0095582604 4294967295
1.2171375 0.43422619 -0.011351109 4294967295
1.2167661 0.40474826 -0.0093527436 4294967295
1.2164104 0.37513429 -0.0089650154 4294967295
1.2167298 0.34416756 -0.012252688 4294967295
1.2168335 0.31472433 -0.013839304 4294967295
1.2188703 0.28513202 -0.012968004 4294967295
1.2177255 0.2539759 -0.013354123 4294967295
1.2171929 0.2266141 -0.014777541 4294967295
1.2161163 0.19407813 -0.01017642 4294967295
1.2162805 0.16485935 -0.006791532 4294967295
1.2157556 0.13542983 -0.0093809962 4294967295
1.216256 0.1048506 -0.010764599 4294967295
1.2158085 0.075536862 -0.014459133 4294967295
1.2159513 0.045395147 -0.01390487 4294967295
1.2160444 0.015719285 -0.01001054 4294967295
1.21773 -0.016736846 -0.009569943 4294967295
1.2179691 -0.045349497 -0.0088339448 4294967295
1.2184916 -0.074571937 -0.012880325 4294967295
1.2171823 -0.10570729 -0.011446297 4294967295
1.2163509 -0.13435553 -0.0088660717 4294967295
1.2173878 -0.16540749 -0.011041045 4294967295
1.2189345 -0.19537018 -0.013860583 4294967295
1.2180693 -0.22439109 -0.014480233 4294967295
1.2164252 -0.25518399 -0.014323711 4294967295
1.2164912 -0.2860859 -0.011303723 4294967295
1.2173707 -0.31499222 -0.010327518 4294967295
1.217842 -0.34395459 -0.010355532 4294967295
1.2164378 -0.37412313 -0.011784315 4294967295
1.2155354 -0.40447962 -0.012485981 4294967295
1.2173879 -0.43372619 -0.010351241 4294967295
1.2165717 -0.46540138 -0.0082648993 4294967295
1.2165346 -0.49424672 -0.010302484 4294967295
1.2171917 -0.52456176 -0.01266557 4294967295
1.2174808 -0.55558801 -0.01210171 4294967295
1.2157241 -0.58470052 -0.010336518 4294967295
1.2178432 -0.61444396 -0.011490464 4294967295
1.2172563 -0.64516819 -0.013306379 4294967295
1.2161065 -0.67537731 -0.012249053 4294967295
1.2178464 -0.70464581 -0.01188314 4294967295
1.2180191 -0.73471576 -0.012281656 4294967295
1.2177202 -0.76404899 -0.012330234 4294967295
1.2161431 -0.79506814 -0.014237225 4294967295
1.2174318 -0.82407618 -0.014137566 4294967295
1.2176137 -0.85517502 -0.012209892 4294967295
1.2173285 -0.88696504 -0.0078528523 4294967295
1.2161081 -0.90671426 0.0016048551 4294967295
1.212 1.0027294 -0.020582378 4294967295
1.25175 -0.93092412 1.2146906 4294967295
1.2442 -0.92927819 1.1899662 4294967295
1.24684 -0.93125474 1.1947618 4294967295
1.2451228 -0.92698199 1.1642187 4294967295
1.251 -0.93037462 1.1779888 4294967295
1.2460318 -0.92672747 1.1352353 4294967295
1.2518334 -0.930511 1.1273603 4294967295
1.2480576 -0.92684209 1.1042964 4294967295
1.251 -0.93038088 1.1199443 4294967295
1.2445211 -0.92722642 1.0751176 4294967295
1.255 -0.93044388 1.0607145 4294967295
1.2441591 -0.92806381 1.0497994 4294967295
1.2513824 -0.93243867 1.0381411 4294967295
1.2429394 -0.92841417 1.008958 4294967295
1.2489502 -0.93281329 1.0194845 4294967295
1.2459233 -0.92563438 0.98437524 4294967295
1.2566665 0.76156086 0.94500208 4294967295
1.2515714 0.74389404 0.94432783 4294967295
1.2431384 -0.92586643 0.9540478 4294967295
1.2565001 0.75805408 0.93133456 4294967295
1.2532525 0.73437238 0.92701966 4294967295
1.2573785 0.71426857 0.92903763 4294967295
1.2590003 0.66620755 0.9334017 4294967295
1.2581041 0.64638191 0.92741364 4294967295
1.2456207 -0.91891283 0.92585742 4294967295
1.24312 -0.92217863 0.89725012 4294967295
1.2538666 -0.93153471 0.88664263 4294967295
1.2447287 -0.92738312 0.86265767 4294967295
1.2541817 -0.93088531 0.87570989 4294967295
1.2469275 -0.92743742 0.83571541 4294967295
1.2426857 -0.9248305 0.8078649 4294967295
1.253846 -0.93181586 0.79503918 4294967295
1.2449999 -0.92873025 0.76749527 4294967295
1.2491193 -0.9344784 0.77627146 4294967295
1.2456154 -0.92736661 0.74476427 4294967295
1.2432439 -0.92751217 0.72202837 4294967295
1.2510513 -0.93262315 0.70868099 4294967295
1.2469584 -0.92824334 0.67904723 4294967295
1.2506726 -0.932266 0.6860745 4294967295
1.2449268 -0.92831051 0.65784806 4294967295
1.2495652 -0.9310621 0.65454805 4294967295
1.2437627 -0.92817312 0.62181419 4294967295
1.2522223 -0.93063092 0.63355899 4294967295
1.2455775 -0.92629868 0.59519678 4294967295
1.245985 -0.92346221 0.56571531 4294967295
1.245891 -0.92349935 0.53472942 4294967295
1.2468179 -0.92337728 0.50470436 4294967295
1.2470925 -0.92418557 0.47474042 4294967295
1.2453284 -0.92357504 0.44469789 4294967295
1.2464125 -0.922665 0.41525 4294967295
1.2469572 -0.92394227 0.38525993 4294967295
1.2465 -0.92285281 0.35427836 4294967295
1.245261 -0.92226142 0.32552117 4294967295
1.2460977 -0.9235453 0.29488888 4294967295
1.2474458 -0.9248808 0.2656967 4294967295
1.2480894 -0.92155409 0.23659098 4294967295
1.2457286 -0.92278582 0.20501149 4294967295
1.2467319 -0.92172557 0.17477438 4294967295
1.2471721 -0.91850817 0.14589629 4294967295
1.2464941 -0.91337955 0.11402133 4294967295
1.257 -0.8998456 0.088938594 4294967295
1.2450625 -0.90291834 0.086342931 4294967295
1.245156 -0.90590626 0.054380357 4294967295
1.2443415 -0.90679103 0.024405003 4294967295
1.2558 1.0922257 -0.018744111 4294967295
1.2489998 1.0641793 -0.017083168 4294967295
1.2470323 1.0341032 -0.015470207 4294967295
1.2470289 1.005004 -0.013307035 4294967295
1.2482189 0.97554624 -0.013652086 4294967295
1.2479668 0.94501501 -0.013440192 4294967295
1.2449698 0.91349953 -0.01199317 4294967295
1.2469302 0.88522595 -0.013115942 4294967295
1.2469759 0.85553658 -0.01402688 4294967295
1.2454545 0.82614851 -0.012467623 4294967295
1.247147 0.79582119 -0.013366878 4294967295
1.2461317 0.76321357 -0.013757944 4294967295
1.2415295 0.74128181 -0.016130865 4294967295
1.2485557 0.69590056 -0.016117632 4294967295
1.2466217 0.67475462 -0.01250428 4294967295
1.243909 0.64741492 -0.01649034 4294967295
1.2477601 0.61167783 -0.017936826 4294967295
1.2484999 0.58499032 -0.01428616 4294967295
1.2455814 0.55401522 -0.013340116 4294967295
1.2459034 0.52536064 -0.010322452 4294967295
1.2467352 0.49447566 -0.010213137 4294967295
1.2449667 0.4653081 -0.011672556 4294967295
1.2443753 0.43581349 -0.012096941 4294967295
1.2473227 0.40449172 -0.011393666 4294967295
1.2468387 0.37346882 -0.014364481 4294967295
1.2487332 0.34464306 -0.016858637 4294967295
1.2467319 0.31329823 -0.014084458 4294967295
1.246766 0.28585276 -0.01064229 4294967295
1.246979 0.25473881 -0.011168957 4294967295
1.2464774 0.22623135 -0.014041245 4294967295
1.2465484 0.19584826 -0.012463272 4294967295
1.2463076 0.16447781 -0.0097008348 4294967295
1.2478385 0.1345017 -0.013391614 4294967295
1.2452857 0.10513692 -0.013517678 4294967295
1.2449999 0.073746279 -0.015749097 4294967295
1.2452978 0.045836259 -0.014449 4294967295
1.246605 0.013734188 -0.011822999 4294967295
1.2455899 -0.014461381 -0.0081611276 4294967295
1.2450715 -0.044758771 -0.0056461692 4294967295
1.2455759 -0.074246511 -0.011731505 4294967295
1.2468253 -0.10498439 -0.011257052 4294967295
1.2474446 -0.13347934 -0.0097069144 4294967295
1.2474359 -0.16586325 -0.011618257 4294967295
1.2439245 -0.19632833 -0.0092203617 4294967295
1.2445283 -0.22422333 -0.0099662542 4294967295
1.2460716 -0.25424668 -0.016117096 4294967295
1.2464999 -0.28434277 -0.012676775 4294967295
1.2476251 -0.31472844 -0.010683477 4294967295
1.2474055 -0.34603336 -0.010022819 4294967295
1.2465279 -0.37478706 -0.01260829 4294967295
1.245381 -0.40530735 -0.013963163 4294967295
1.2466252 -0.4348534 -0.012969255 4294967295
1.2455 -0.46552277 -0.0099595189 4294967295
1.2449778 -0.49514925 -0.0082367659 4294967295
1.2458812 -0.52597314 -0.011898875 4294967295
1.2471917 -0.55441576 -0.012185812 4294967295
1.247279 -0.58361113 -0.010907829 4294967295
1.2467778 -0.61511409 -0.010948598 4294967295
1.2469503 -0.64446694 -0.013912022 4294967295
1.245 -0.67336136 -0.014971137 4294967295
1.2478333 -0.70506096 -0.013414502 4294967295
1.2480303 -0.73386079 -0.013132274 4294967295
1.2476499 -0.76537442 -0.012911379 4294967295
1.2455131 -0.79577869 -0.013984263 4294967295
1.2455364 -0.82471013 -0.013997078 4294967295
1.2453471 -0.85625744 -0.013565361 4294967295
1.2470554 -0.88801664 -0.0074498057 4294967295
1.2462776 -0.90280563 0.0047686696 4294967295
1.2509 0.73213089 -0.02447778 4294967295
1.252 0.7104333 -0.023757994 4294967295
1.2559999 0.63807404 -0.021160483 4294967295
1.2547143 0.62515467 -0.021106303 4294967295
1.2769742 -0.92695403 1.2214317 4294967295
1.272 -0.93153709 1.225081 4294967295
1.2680614 -0.9279716 1.1955258 4294967295
1.2822223 -0.93194175 1.1952453 4294967295
1.2730546 -0.92695212 1.1655742 4294967295
1.2700821 -0.92236811 1.1347296 4294967295
1.2702503 -0.92135721 1.1050069 4294967295
1.2715821 -0.92676252 1.0759428 4294967295
1.288 -0.93100268 1.0699518 4294967295
1.2672052 -0.92809129 1.0471263 4294967295
1.2779524 -0.93245542 1.0391167 4294967295
1.2698296 -0.92812192 1.0131643 4294967295
1.2770909 -0.93167341 1.0227687 4294967295
1.2704136 -0.92659444 0.98470581 4294967295
1.288 -0.93100268 0.98229265 4294967295
1.2715001 0.79249561 0.94488925 4294967295
1.2610834 0.77403343 0.94532311 4294967295
1.261 0.69401085 0.94115019 4294967295
1.2606155 0.67855573 0.94186568 4294967295
1.2626538 0.64471269 0.94345093 4294967295
1.2678182 0.61987412 0.94322789 4294967295
1.2726666 0.54743415 0.94641447 4294967295
1.2847272 0.5365473 0.94643676 4294967295
1.271842 -0.92601633 0.95380175 4294967295
1.288 -0.93100268 0.96585655 4294967295
1.285625 0.81308335 0.93147826 4294967295
1.2772106 0.79471666 0.92822504 4294967295
1.268617 0.76708502 0.92245287 4294967295
1.2688649 0.73501265 0.91302371 4294967295
1.2656915 0.70299697 0.92303038 4294967295
1.2681669 0.67611885 0.92284977 4294967295
1.2700125 0.64404595 0.91824269 4294967295
1.2676846 0.61627716 0.92430705 4294967295
1.2643366 0.5839991 0.92195797 4294967295
1.2676146 0.55449349 0.92558503 4294967295
1.2820001 0.53832853 0.932881 4294967295
1.2731961 -0.92177612 0.92558134 4294967295
1.2842 0.63810372 0.90391314 4294967295
1.2752305 0.61649114 0.89915073 4294967295
1.2768421 0.58665228 0.90359253 4294967295
1.2651199 -0.92701918 0.89764774 4294967295
1.27825 -0.93226802 0.89066184 4294967295
1.2699413 -0.92693275 0.86417437 4294967295
1.2843332 -0.93132597 0.87368655 4294967295
1.2689807 -0.92634141 0.83714259 4294967295
1.2832 -0.93229055 0.82724583 4294967295
1.2638888 -0.92920804 0.81431305 4294967295
1.2743951 -0.93351632 0.80178928 4294967295
1.272857 -0.92559797 0.77118182 4294967295
1.2697142 -0.93182737 0.78613245 4294967295
1.269912 -0.9260664 0.74571502 4294967295
1.288 -0.93100268 0.74172813 4294967295
1.2698526 -0.92731959 0.71379375 4294967295
1.288 -0.93100268 0.71333849 4294967295
1.2704815 -0.9229511 0.68472135 4294967295
1.2712281 -0.92357928 0.65581423 4294967295
1.2707078 -0.92676765 0.62555134 4294967295
1.288 -0.93100268 0.63564062 4294967295
1.2710469 -0.92566955 0.59453654 4294967295
1.2716537 -0.92454684 0.56614339 4294967295
1.288 -0.93100268 0.55794275 4294967295
1.2701666 -0.92692864 0.53467387 4294967295
1.2849 -0.93144053 0.53638357 4294967295
1.2712858 -0.92384064 0.50520414 4294967295
1.2709404 -0.92369676 0.47579926 4294967295
1.2720701 -0.92525327 0.44439781 4294967295
1.2715522 -0.9224211 0.41496581 4294967295
1.272 -0.92422092 0.38573119 4294967295
1.2718472 -0.92284244 0.35435873 4294967295
1.2708261 -0.92471629 0.32560536 4294967295
1.288 -0.93100268 0.32036656 4294967295
1.2714037 -0.92156255 0.293015 4294967295
1.2716317 -0.92161036 0.26537663 4294967295
1.2731271 -0.92096078 0.23430133 4294967295
1.271389 -0.92349511 0.20589432 4294967295
1.2711537 -0.91888255 0.17333111 4294967295
1.2708697 -0.91434854 0.14669707 4294967295
1.2710003 -0.91222042 0.11395064 4294967295
1.2689705 -0.89816713 0.087784708 4294967295
1.2741333 -0.90280277 0.084179282 4294967295
1.2720907 -0.90833765 0.054946035 4294967295
1.2707845 -0.90864718 0.024829924 4294967295
1.268 1.1104757 -0.019273758 4294967295
1.263 1.0887725 -0.019008279 4294967295
1.2711364 1.0631578 -0.018040359 4294967295
1.2729189 1.03499 -0.014712393 4294967295
1.2723247 1.0038654 -0.01333946 4294967295
1.2745582 0.9749015 -0.014819086 4294967295
1.2739167 0.94543296 -0.014626741 4294967295
1.2717369 0.91555375 -0.011907578 4294967295
1.2712561 0.8843497 -0.012544751 4294967295
1.2708178 0.85745001 -0.013305485 4294967295
1.2717941 0.82509923 -0.014968872 4294967295
1.2720969 0.79364914 -0.014044702 4294967295
1.2691281 0.76555556 -0.013091862 4294967295
1.2736667 0.73551303 -0.017693818 4294967295
1.2719998 0.70345634 -0.013795972 4294967295
1.2711034 0.67598557 -0.014885545 4294967295
1.2661428 0.650518 -0.018887937 4294967295
1.272225 0.61447561 -0.015948713 4294967295
1.2742499 0.58542544 -0.013219297 4294967295
1.2710712 0.55561954 -0.011075199 4294967295
1.2696129 0.52472883 -0.011109233 4294967295
1.27329 0.49564195 -0.012644351 4294967295
1.2694665 0.46414936 -0.013697863 4294967295
1.2706331 0.43518618 -0.014480829 4294967295
1.2733437 0.4050675 -0.013493419 4294967295
1.2711817 0.37635776 -0.016231954 4294967295
1.2719231 0.34252569 -0.017746568 4294967295
1.2699249 0.3145498 -0.011301637 4294967295
1.2712104 0.28463444 -0.0090546608 4294967295
1.2701714 0.25571463 -0.0094847679 4294967295
1.2712284 0.22456883 -0.014140487 4294967295
1.2717501 0.19533753 -0.013893545 4294967295
1.2702082 0.16502284 -0.013078094 4294967295
1.2698002 0.13539542 -0.015613198 4294967295
1.2711071 0.10309241 -0.01657635 4294967295
1.2698648 0.075723462 -0.015269458 4294967295
1.2688708 0.044562995 -0.013836741 4294967295
1.2717857 0.014196215 -0.012856424 4294967295
1.27124 -0.013870789 -0.0097823739 4294967295
1.2722 -0.044934068 -0.0072305799 4294967295
1.270857 -0.075624704 -0.013944864 4294967295
1.2706333 -0.10526174 -0.01143533 4294967295
1.2717587 -0.13485965 -0.010574937 4294967295
1.2703547 -0.16465016 -0.011323035 4294967295
1.2703846 -0.19353707 -0.0097267628 4294967295
1.2718333 -0.22584461 -0.01023227 4294967295
1.2703999 -0.25634149 -0.01538974 4294967295
1.2717855 -0.28275421 -0.01486069 4294967295
1.2722499 -0.31448618 -0.013692498 4294967295
1.2727095 -0.34565237 -0.011353195 4294967295
1.2707185 -0.37471303 -0.012299836 4294967295
1.2708569 -0.40646291 -0.014067531 4294967295
1.2711432 -0.43427157 -0.013764501 4294967295
1.2709999 -0.46488887 -0.013279378 4294967295
1.2700647 -0.49538499 -0.0087321401 4294967295
1.2712941 -0.52469003 -0.0098062158 4294967295
1.2701666 -0.55633658 -0.011009991 4294967295
1.2696487 -0.58554292 -0.0090475678 4294967295
1.2715137 -0.61543775 -0.010380089 4294967295
1.2722819 -0.64447337 -0.011909723 4294967295
1.271951 -0.67513806 -0.015743434 4294967295
1.2717025 -0.70450652 -0.014612019 4294967295
1.2700768 -0.73567605 -0.012429118 4294967295
1.270257 -0.76488984 -0.012048125 4294967295
1.2707777 -0.79493481 -0.01322633 4294967295
1.2709703 -0.82585186 -0.014188468 4294967295
1.2714524 -0.85437685 -0.012923777 4294967295
1.2708499 -0.88749951 -0.0062731504 4294967295
1.2774664 -0.90459436 0.0045700073 4294967295
1.2845 1.1144868 -0.021816671 4294967295
1.2801602 1.0963742 -0.020751894 4294967295
1.2831668 1.0736204 -0.020757377 4294967295
1.2846667 0.75497013 -0.025868595 4294967295
1.2716924 0.73565918 -0.027752697 4294967295
1.2645 0.71574008 -0.023648322 4294967295
1.2832 0.66290718 -0.021567047 4294967295
1.2744349 0.6428712 -0.021481097 4294967295
1.2855 0.36375198 -0.020751238 4294967295
1.2811667 0.35509542 -0.020409822 4294967295
1.3040833 -0.92394227 1.2437229 4294967295
1.3020002 -0.92611295 1.224961 4294967295
1.295375 -0.93181992 1.2129786 4294967295
1.3036565 -0.92451555 1.1934042 4294967295
1.2951902 -0.93232971 1.2012411 4294967295
1.3008749 -0.92321807 1.1651173 4294967295
1.3016348 -0.92400277 1.1347554 4294967295
1.3022908 -0.92055351 1.1029295 4294967295
1.3040709 -0.92333043 1.0780225 4294967295
1.2938501 -0.93102425 1.0708404 4294967295
1.30425 -0.9285208 1.0492563 4294967295
1.3001333 -0.93274039 1.0442932 4294967295
1.3044665 -0.92867053 1.0129131 4294967295
1.300244 -0.93163896 1.01639 4294967295
1.3118333 0.5035904 0.97359383 4294967295
1.3056318 -0.92850846 0.98519796 4294967295
1.2979411 -0.93151343 0.98424864 4294967295
1.2904999 0.54032695 0.95474589 4294967295
1.2946984 0.52273309 0.95153105 4294967295
1.301108 0.49640757 0.95214319 4294967295
1.31375 0.47690025 0.94631946 4294967295
1.3020527 -0.92575669 0.95218956 4294967295
1.3006666 -0.93071544 0.96535683 4294967295
1.3008002 0.81612033 0.91406178 4294967295
1.3008953 0.79644477 0.91583073 4294967295
1.3010834 0.76669693 0.9131788 4294967295
1.30275 0.73175293 0.91761053 4294967295
1.3005909 0.70268816 0.91999853 4294967295
1.2981819 0.68345338 0.91473603 4294967295
1.29 0.57004774 0.91117805 4294967295
1.2959766 0.55183649 0.91550064 4294967295
1.2992301 0.52480602 0.92349076 4294967295
1.3048984 0.49648756 0.92660213 4294967295
1.3134999 0.47833732 0.93811142 4294967295
1.3023885 -0.92199206 0.92476535 4294967295
1.2936667 -0.9310925 0.91278839 4294967295
1.3088889 0.82403165 0.90880054 4294967295
1.2955556 0.66601413 0.9078455 4294967295
1.291 0.6521824 0.90603507 4294967295
1.2914284 0.57495719 0.90304899 4294967295
1.2993244 0.55654478 0.90536571 4294967295
1.3122567 0.52646285 0.90597415 4294967295
1.313 0.50448442 0.90814102 4294967295
1.3069583 -0.92744398 0.8959114 4294967295
1.2955366 -0.93292201 0.89643312 4294967295
1.3049268 -0.92633009 0.86427397 4294967295
1.2932379 -0.93107051 0.8685801 4294967295
1.3030909 -0.92870903 0.84588492 4294967295
1.3028127 -0.93203235 0.83234805 4294967295
1.3083683 -0.92805129 0.80276406 4294967295
1.2981274 -0.93440747 0.80740798 4294967295
1.3017286 -0.92317277 0.77396798 4294967295
1.2934999 -0.93047476 0.78919262 4294967295
1.3052503 -0.92662156 0.74806637 4294967295
1.2981935 -0.93124312 0.74243903 4294967295
1.3056309 -0.92642325 0.7133351 4294967295
1.2939566 -0.93151754 0.71945572 4294967295
1.3023101 -0.92240983 0.68581456 4294967295
1.3013905 -0.92160469 0.6543622 4294967295
1.2923332 -0.93013495 0.64302504 4294967295
1.3040005 -0.92287225 0.62534463 4294967295
1.2937998 -0.93068999 0.62565482 4294967295
1.3025674 -0.92095506 0.59414709 4294967295
1.293 -0.9304148 0.60279256 4294967295
1.3029717 -0.92018974 0.56700647 4294967295
1.2936 -0.93144524 0.55600703 4294967295
1.30498 -0.92726535 0.5378046 4294967295
1.2967931 -0.93129921 0.53535295 4294967295
1.3022225 -0.92467129 0.50356567 4294967295
1.296875 -0.93061382 0.5157097 4294967295
1.3010501 -0.92073393 0.47504109 4294967295
1.303809 -0.91969413 0.4453167 4294967295
1.2935001 -0.93047422 0.44256029 4294967295
1.3030387 -0.92334241 0.41556183 4294967295
1.3020258 -0.9251048 0.38504148 4294967295
1.295 -0.93005317 0.37336481 4294967295
1.3032163 -0.92463785 0.35462487 4294967295
1.293 -0.93011451 0.36759129 4294967295
1.3052003 -0.92325914 0.32575518 4294967295
1.2956363 -0.93200612 0.32013816 4294967295
1.3027464 -0.9248957 0.29564226 4294967295
1.2946001 -0.93096542 0.3064279 4294967295
1.3018134 -0.92216945 0.26251012 4294967295
1.3010409 -0.91617072 0.2355592 4294967295
1.3024099 -0.92149866 0.20521981 4294967295
1.2935001 -0.93047416 0.19646618 4294967295
1.3031504 -0.92188567 0.17547616 4294967295
1.2942001 -0.93067771 0.18638256 4294967295
1.3024659 -0.9156301 0.14462388 4294967295
1.3024379 -0.91378945 0.11463842 4294967295
1.3041177 -0.89850354 0.079987824 4294967295
1.3014314 -0.9035542 0.087622434 4294967295
1.3088 -0.89927208 0.067227811 4294967295
1.3038318 -0.90742648 0.053578883 4294967295
1.3025228 -0.90788001 0.025278658 4294967295
1.317 1.1411657 -0.018723547 4294967295
1.3069335 1.1219192 -0.016606867 4294967295
1.3002295 1.0941744 -0.01465565 4294967295
1.3020986 1.0653247 -0.013641298 4294967295
1.3024759 1.0354463 -0.014132619 4294967295
1.3017434 1.0046391 -0.014095783 4294967295
1.303889 0.97440284 -0.013673007 4294967295
1.3018912 0.94457 -0.012914479 4294967295
1.2999631 0.91458774 -0.013864934 4294967295
1.302951 0.884673 -0.01494807 4294967295
1.30468 0.85396492 -0.016382933 4294967295
1.303333 0.82455856 -0.016200662 4294967295
1.3035604 0.79467916 -0.013377666 4294967295
1.3045555 0.7649954 -0.014282405 4294967295
1.3037941 0.73336339 -0.014820218 4294967295
1.3027183 0.7058419 -0.01495713 4294967295
1.298 0.68072754 -0.018391252 4294967295
1.2986666 0.63311309 -0.019236565 4294967295
1.294826 0.61594689 -0.01396066 4294967295
1.2942648 0.5829643 -0.008710146 4294967295
1.3017052 0.55509406 -0.0090738535 4294967295
1.3024151 0.52527732 -0.012673616 4294967295
1.3037673 0.49443462 -0.015117764 4294967295
1.3047256 0.46523595 -0.016879261 4294967295
1.3048213 0.4343527 -0.015279114 4294967295
1.3030869 0.40493441 -0.013863146 4294967295
1.3043023 0.37640393 -0.017872274 4294967295
1.3029999 0.34533945 -0.017783642 4294967295
1.3014061 0.31512395 -0.011667669 4294967295
1.3033592 0.28508338 -0.011495113 4294967295
1.3005884 0.2551184 -0.012082398 4294967295
1.3020002 0.22586821 -0.017766058 4294967295
1.3030813 0.1957732 -0.016687155 4294967295
1.3018711 0.16664727 -0.018266797 4294967295
1.3025714 0.14298868 -0.019720972 4294967295
1.3046924 0.096160904 -0.018797696 4294967295
1.302894 0.075683452 -0.016335309 4294967295
1.3010753 0.045155145 -0.016716838 4294967295
1.3010882 0.016030965 -0.015928388 4294967295
1.3040272 -0.014882638 -0.013886213 4294967295
1.301719 -0.044012763 -0.010852158 4294967295
1.2986249 -0.072431192 -0.017787755 4294967295
1.3011924 -0.10625245 -0.016076624 4294967295
1.3027242 -0.13617252 -0.014428079 4294967295
1.2996666 -0.16496307 -0.014635682 4294967295
1.3008462 -0.19433227 -0.014540255 4294967295
1.3002777 -0.22419924 -0.015058458 4294967295
1.2993332 -0.25688055 -0.018522859 4294967295
1.3024 -0.28550762 -0.017912686 4294967295
1.3020625 -0.31448683 -0.018262088 4294967295
1.3025713 -0.3448621 -0.015568197 4294967295
1.3017943 -0.37569839 -0.014172196 4294967295
1.3022306 -0.40532327 -0.016847074 4294967295
1.3020499 -0.43512747 -0.014701545 4294967295
1.3031949 -0.46393663 -0.017183423 4294967295
1.3020272 -0.49476048 -0.013891876 4294967295
1.3023573 -0.52580774 -0.010263801 4294967295
1.3021164 -0.5548321 -0.013244748 4294967295
1.3013593 -0.58543193 -0.011069655 4294967295
1.3011252 -0.61519617 -0.010704577 4294967295
1.3020526 -0.64532679 -0.011558115 4294967295
1.3023332 -0.67529011 -0.014428496 4294967295
1.3026278 -0.7048198 -0.016616702 4294967295
1.3008611 -0.73503935 -0.014621317 4294967295
1.3013906 -0.76419312 -0.01371634 4294967295
1.3010696 -0.79511338 -0.013239741 4294967295
1.3022668 -0.82545799 -0.015286386 4294967295
1.3035554 -0.85550386 -0.014615536 4294967295
1.3032533 -0.88725471 -0.0078695416 4294967295
1.3001702 -0.90555662 0.0028807521 4294967295
1.3095 1.1471177 -0.021417499 4294967295
1.2957892 1.126904 -0.021590769 4294967295
1.2913333 1.0979553 -0.020209014 4294967295
1.29125 1.0754131 -0.020174146 4294967295
1.3031539 0.75647908 -0.028242469 4294967295
1.2986668 0.74136454 -0.028790653 4294967295
1.3009374 0.66844642 -0.021941662 4294967295
1.2986251 0.64790684 -0.0222404 4294967295
1.2930001 0.3663694 -0.020403922 4294967295
1.2916 0.35199475 -0.020320535 4294967295
1.3150001 0.15394948 -0.020956457 4294967295
1.3013449 0.13465999 -0.020624876 4294967295
1.3009129 0.10938904 -0.020784259 4294967295
1.3068749 -0.079708174 -0.021017432 4294967295
1.317 -0.093322888 -0.021779239 4294967295
1.314 -0.23944812 -0.020545125 4294967295
1.31575 -0.2519705 -0.02126503 4294967295
1.3379642 -0.92837638 1.253191 4294967295
1.33632 -0.93094546 1.2502654 4294967295
1.3386272 -0.92707914 1.2237077 4294967295
1.3321428 -0.93111449 1.231047 4294967295
1.3375237 -0.92587727 1.1935252 4294967295
1.3391892 -0.92694134 1.1651491 4294967295
1.334 -0.9302066 1.1535585 4294967295
1.3376272 -0.92606288 1.1353321 4294967295
1.3330833 -0.93111032 1.139205 4294967295
1.3364904 -0.91892135 1.1042255 4294967295
1.3375245 -0.92468673 1.0798646 4294967295
1.3373214 -0.93294114 1.0654681 4294967295
1.3377348 -0.93829501 1.0447745 4294967295
1.3431501 -0.92621481 1.0124565 4294967295
1.3315114 -0.9321841 1.0158764 4294967295
1.3335 0.51037061 0.9862479 4294967295
1.3409545 0.49467829 0.97795951 4294967295
1.3453332 0.47588384 0.97165692 4294967295
1.3446249 -0.92785949 0.98882473 4294967295
1.3351896 -0.93357319 0.98408675 4294967295
