# .PCD v0.7 - Point Cloud Data file format
VERSION 0.7
FIELDS x y z rgb
SIZE 4 4 4 4
TYPE F F F U
COUNT 1 1 1 1
WIDTH 1159
HEIGHT 1
VIEWPOINT 0 0 0 1 0 0 0
POINTS 1159
DATA ascii
2.8367336 2.2149 -0.1827305 4294967295
2.8278565 2.2316558 -0.21683002 4294967295
2.8421113 2.2150056 -0.21541405 4294967295
2.8290687 2.2342644 -0.24521577 4294967295
2.8398752 2.2136312 -0.24302989 4294967295
2.8210001 2.2545538 -0.27395415 4294967295
2.8320384 2.2390726 -0.27224976 4294967295
2.8334002 2.2371655 -0.3053717 4294967295
2.8316402 2.2288706 -0.33475429 4294967295
2.8425 2.2156742 -0.33936083 4294967295
2.832423 2.228267 -0.36562198 4294967295
2.839 2.2162437 -0.37782454 4294967295
2.8240001 2.2241838 -0.3861782 4294967295
2.8337896 2.2135441 -0.39623535 4294967295
2.8425 2.2024841 -0.41190678 4294967295
2.8770001 -0.87137794 2.1266825 4294967295
2.8706667 0.76900774 2.096514 4294967295
2.8633335 -0.87498719 2.0968852 4294967295
2.855 0.76481086 2.0713434 4294967295
2.8665557 -0.88372356 2.0654078 4294967295
2.8643334 -0.88673049 2.0354228 4294967295
2.8606 -0.89294744 2.0100017 4294967295
2.8663332 -0.90360951 1.9965832 4294967295
2.8770001 0.7640292 1.9664794 4294967295
2.8660002 -0.90959817 1.9775816 4294967295
2.858 0.75898349 1.9436738 4294967295
2.8656001 -0.91446584 1.9474416 4294967295
2.8730001 0.75630105 1.911146 4294967295
2.8618002 -0.91192096 1.9136895 4294967295
2.8758001 0.75703818 1.8858023 4294967295
2.8686666 -0.89768749 1.8735439 4294967295
2.8613336 -0.90313756 1.8888919 4294967295
2.8580003 0.75898349 1.8508132 4294967295
2.85975 -0.89102495 1.8549533 4294967295
2.8640001 0.7605769 1.8237214 4294967295
2.8608572 -0.88544804 1.8227448 4294967295
2.8640001 0.7605769 1.793819 4294967295
2.8643999 -0.89147514 1.7926592 4294967295
2.8642001 0.75929499 1.7606716 4294967295
2.8666365 -0.88575566 1.7653519 4294967295
2.8633335 0.75484955 1.734818 4294967295
2.862 -0.88367724 1.7346869 4294967295
2.8534999 0.75116783 1.7063966 4294967295
2.8702307 0.73968005 1.7023346 4294967295
2.8770001 0.70617807 1.692799 4294967295
2.858 0.67277986 1.6983157 4294967295
2.8710001 0.64919525 1.7103367 4294967295
2.858 0.54678994 1.7115779 4294967295
2.8640001 0.51803547 1.697467 4294967295
2.8651001 -0.89102894 1.7045474 4294967295
2.8675003 1.9823443 1.6623139 4294967295
2.866667 1.9640292 1.6641877 4294967295
2.8621001 1.9354281 1.6634727 4294967295
2.85975 1.9039905 1.6625351 4294967295
2.8580003 1.8862476 1.6618381 4294967295
2.8637779 1.479578 1.6667225 4294967295
2.8643336 1.4584552 1.6676821 4294967295
2.8559999 1.4365517 1.6621442 4294967295
2.8639166 1.2372965 1.6686254 4294967295
2.8654168 1.2174541 1.6825267 4294967295
2.8651252 1.1854811 1.6829611 4294967295
2.8644001 1.1547819 1.6723624 4294967295
2.863111 1.1242249 1.6642479 4294967295
2.8645 1.0963391 1.6644343 4294967295
2.858 1.0772737 1.6618381 4294967295
2.852545 0.75512749 1.6768119 4294967295
2.8597224 0.73399872 1.6747023 4294967295
2.8713334 0.70533574 1.6782814 4294967295
2.8583333 0.68171054 1.6807487 4294967295
2.8645 0.51812595 1.6777232 4294967295
2.8645003 -0.89083892 1.6743966 4294967295
2.8620527 2.053524 1.6384553 4294967295
2.8670533 2.0245562 1.6397096 4294967295
2.8623335 1.9983246 1.6528665 4294967295
2.8770003 1.8974667 1.6527482 4294967295
2.8695624 1.8760036 1.6448103 4294967295
2.8580003 1.8512158 1.6405269 4294967295
2.8623338 1.7208705 1.6344182 4294967295
2.8640628 1.6950468 1.6384951 4294967295
2.8580003 1.6718577 1.6342111 4294967295
2.8653576 1.4926906 1.6462516 4294967295
2.8770001 1.4448926 1.6594234 4294967295
2.8689001 1.4228435 1.6482049 4294967295
2.8629999 1.4016961 1.6368896 4294967295
2.8740001 1.3533621 1.6315625 4294967295
2.8638182 1.3349657 1.6396987 4294967295
2.863111 1.3065245 1.6502239 4294967295
2.8627331 1.2747666 1.6506543 4294967295
2.8696663 1.244218 1.6495651 4294967295
2.8760002 1.087396 1.6512396 4294967295
2.8631878 1.066782 1.6439713 4294967295
2.852 1.0485436 1.6395965 4294967295
2.852 0.97244668 1.6362879 4294967295
2.852 0.94597822 1.6362879 4294967295
2.852 0.92171532 1.6418022 4294967295
2.852 0.75242722 1.6511763 4294967295
2.8532 0.73651999 1.6552939 4294967295
2.858 0.71919721 1.6585295 4294967295
2.8627501 0.55433267 1.6421573 4294967295
2.858 0.53021234 1.655214 4294967295
2.8623333 -0.89350015 1.6436259 4294967295
2.8655005 2.0751355 1.6094371 4294967295
2.865417 2.0612068 1.6238024 4294967295
2.8752863 1.9929756 1.6082358 4294967295
2.8714006 1.9623933 1.6092442 4294967295
2.8695836 1.9338504 1.6115545 4294967295
2.8675003 1.904729 1.6157547 4294967295
2.8637645 1.8720825 1.6123621 4294967295
2.8645716 1.845016 1.6155539 4294967295
2.8614619 1.8159987 1.6164755 4294967295
2.8628466 1.7847004 1.6149696 4294967295
2.8623338 1.7540718 1.6208376 4294967295
2.8633337 1.7336406 1.6274176 4294967295
2.8670006 1.6621543 1.6205208 4294967295
2.8586366 1.6382627 1.6093268 4294967295
2.852 1.6176165 1.6032022 4294967295
2.8614001 1.4830681 1.6142936 4294967295
2.8752859 1.4602268 1.6072803 4294967295
2.8770006 1.4194056 1.6133041 4294967295
2.8698664 1.3933729 1.6152996 4294967295
2.8625879 1.3673189 1.6220486 4294967295
2.8770001 1.1144736 1.6060222 4294967295
2.8715718 1.091904 1.6134987 4294967295
2.8638 1.063074 1.6156605 4294967295
2.8615236 1.0362308 1.615975 4294967295
2.859241 1.0052249 1.6153142 4294967295
2.8585002 0.97577 1.616987 4294967295
2.8535004 0.94648027 1.6170125 4294967295
2.852 0.92678851 1.624377 4294967295
2.8603334 -0.8972919 1.621846 4294967295
2.8640001 -0.90066534 1.60776 4294967295
2.8740003 2.1402061 1.5715489 4294967295
2.8671434 2.1146476 1.5785447 4294967295
2.8655005 2.0873296 1.5939225 4294967295
2.8728335 1.9927033 1.5933362 4294967295
2.8674173 1.9667671 1.58909 4294967295
2.8635294 1.9336669 1.5860695 4294967295
2.8636672 1.9048584 1.5892663 4294967295
2.8665004 1.8785504 1.5953979 4294967295
2.8770003 1.6518217 1.5993471 4294967295
2.8720002 1.6329627 1.5921296 4294967295
2.8635886 1.6069927 1.5845225 4294967295
2.85425 1.578335 1.5750825 4294967295
2.8555713 1.5420132 1.5714254 4294967295
2.8637221 1.5146191 1.5758924 4294967295
2.8630004 1.4838543 1.5842277 4294967295
2.8752003 1.4619946 1.593336 4294967295
2.8744285 1.1501598 1.5802822 4294967295
2.8633842 1.1242766 1.5830116 4294967295
2.8559999 1.0975043 1.5903682 4294967295
2.8540001 1.0603074 1.5962349 4294967295
2.8644347 1.0354638 1.585387 4294967295
2.8666871 1.0040663 1.5855062 4294967295
2.8605711 0.97632265 1.5846521 4294967295
2.8533332 0.94532228 1.5926754 4294967295
2.862875 -0.90445417 1.5873951 4294967295
2.8656003 2.2250345 1.5458682 4294967295
2.8617144 2.2045562 1.555667 4294967295
2.8656003 2.1784992 1.5631503 4294967295
2.8595004 2.149303 1.5662436 4294967295
2.8746252 1.5979354 1.5567603 4294967295
2.8686185 1.575063 1.555934 4294967295
2.8672667 1.5482037 1.560645 4294967295
2.8770001 1.5249941 1.5659715 4294967295
2.8721113 1.1536791 1.5553086 4294967295
2.855 1.131624 1.5563153 4294967295
2.8640001 -0.90731037 1.5546001 4294967295
2.864917 2.2370143 1.5261177 4294967295
2.8770001 1.5717202 1.539271 4294967295
2.8740001 1.1533239 1.5382081 4294967295
2.855 1.1324512 1.5347887 4294967295
2.8710001 0.54927713 1.5138311 4294967295
2.8643334 -0.90519553 1.5259117 4294967295
2.8619001 2.2294538 1.4973936 4294967295
2.8682003 2.2163839 1.485574 4294967295
2.858 0.54678994 1.5060154 4294967295
2.8654287 0.53014863 1.4933724 4294967295
2.8662858 -0.88901436 1.4946116 4294967295
2.8643999 2.2048097 1.4643574 4294967295
2.8643332 0.51771206 1.4675846 4294967295
2.8710001 0.50930983 1.4538801 4294967295
2.8627501 -0.8653931 1.4594979 4294967295
2.8623333 -0.87356216 1.4765153 4294967295
2.8664443 2.2066121 1.4357619 4294967295
2.855 0.51309556 1.4354343 4294967295
2.8675001 0.50868893 1.4327905 4294967295
2.8603334 -0.86632991 1.4404411 4294967295
2.8643334 -0.87196213 1.4262365 4294967295
2.8590002 2.1986732 1.4134933 4294967295
2.8667502 2.1830177 1.4009455 4294967295
2.852 0.51255637 1.4046885 4294967295
2.8710001 0.50930983 1.4039211 4294967295
2.8670001 -0.88164145 1.4040275 4294967295
2.860889 2.1772721 1.3757243 4294967295
2.8770001 0.81743026 1.3657176 4294967295
2.8645 0.7906248 1.3753353 4294967295
2.8770001 0.77070433 1.3857429 4294967295
2.8675001 0.51534206 1.3795391 4294967295
2.8642859 -0.89125502 1.376219 4294967295
2.8652225 2.1982877 1.3400934 4294967295
2.8582504 2.1848385 1.3552284 4294967295
2.8645 -0.89084411 1.3421006 4294967295
2.8622668 2.2051706 1.3135679 4294967295
2.8671112 -0.89202482 1.3147589 4294967295
2.8581669 2.1980295 1.293867 4294967295
2.8644004 2.1762314 1.2809265 4294967295
2.8624444 -0.8972156 1.286899 4294967295
2.8635001 2.1534181 1.2554331 4294967295
2.8642859 -0.89314765 1.2565804 4294967295
2.8633337 2.1732359 1.216645 4294967295
2.8606002 2.1534491 1.2334632 4294967295
2.8616002 -0.88795525 1.2283914 4294967295
2.8654549 2.204242 1.193697 4294967295
2.8580003 2.1879673 1.2076182 4294967295
2.8642857 -0.88935655 1.1929885 4294967295
2.8628182 2.2106705 1.1652923 4294967295
2.8625002 -0.89355212 1.165526 4294967295
2.8638003 2.2103431 1.1339273 4294967295
2.8624289 -0.89352155 1.1346902 4294967295
2.8644619 2.2018495 1.1028316 4294967295
2.8662856 -0.89757383 1.1079465 4294967295
2.8640001 -0.90066534 1.0960974 4294967295
2.8580003 2.2244449 1.0617352 4294967295
2.8637502 2.2059751 1.0737808 4294967295
2.8613 -0.90312755 1.0756363 4294967295
2.8560002 2.2620835 1.0398178 4294967295
2.8622272 2.2316437 1.0447218 4294967295
2.8725333 2.2099805 1.0440485 4294967295
2.8636668 -0.90424627 1.0443401 4294967295
2.8535001 2.2540419 1.026125 4294967295
2.8580005 2.2331057 1.0234823 4294967295
2.8617499 2.2071378 1.0134851 4294967295
2.8616667 -0.91467631 1.014473 4294967295
2.8643572 2.2080135 0.98603052 4294967295
2.8705001 0.51254362 0.98750651 4294967295
2.852 0.50593925 0.97457528 4294967295
2.8661427 -0.91557807 0.98727918 4294967295
2.8638463 2.210068 0.95652711 4294967295
2.869 0.50229841 0.95398164 4294967295
2.8623335 -0.89238292 0.94966054 4294967295
2.8623333 -0.90456188 0.96515507 4294967295
2.8655455 2.2097495 0.92534924 4294967295
2.8645 0.50815672 0.91342187 4294967295
2.8628001 -0.8870036 0.92315358 4294967295
2.8620908 2.2089 0.89589536 4294967295
2.8645 0.51480287 0.88683736 4294967295
2.8559999 -0.89372879 0.89569592 4294967295
2.8770001 -0.90475357 0.88510811 4294967295
2.8685 2.227062 0.85740781 4294967295
2.8594003 2.2149038 0.87094104 4294967295
2.8659999 0.52005327 0.86210907 4294967295
2.862 -0.9146437 0.86327708 4294967295
2.8637779 2.2326226 0.83542943 4294967295
2.8692501 0.52231365 0.83420205 4294967295
2.8660002 -0.92789274 0.83382678 4294967295
2.8643334 2.2332339 0.80540854 4294967295
2.8707502 0.5259133 0.80439144 4294967295
2.8646667 -0.92966682 0.80710804 4294967295
2.8675001 -0.93169391 0.79407477 4294967295
2.8662858 2.2242248 0.77827871 4294967295
2.8612499 2.2186525 0.76858109 4294967295
2.8640001 0.54129291 0.77049387 4294967295
2.8645 0.53474122 0.78049231 4294967295
2.8623333 -0.94367009 0.77550924 4294967295
2.868 2.2331688 0.73852211 4294967295
2.8643334 2.216068 0.75390637 4294967295
2.8642502 0.55627799 0.74395907 4294967295
2.8668752 -0.95643485 0.74414223 4294967295
2.8655002 2.2579715 0.71078902 4294967295
2.8559999 2.2449729 0.72561502 4294967295
2.8632002 0.55042285 0.71727902 4294967295
2.8613751 0.52418143 0.71301758 4294967295
2.8686666 0.49225646 0.71544999 4294967295
2.8770001 0.46364835 0.71822983 4294967295
2.8710001 0.43270594 0.71781647 4294967295
2.8675001 0.4055742 0.71757531 4294967295
2.87075 0.37937191 0.71779919 4294967295
2.858 0.3412182 0.71028966 4294967295
2.8734002 0.31639066 0.71131504 4294967295
2.8755002 0.28661305 0.71145487 4294967295
2.8710001 0.25618386 0.71115524 4294967295
2.875 0.2298542 0.71142155 4294967295
2.8595002 0.1921175 0.70375502 4294967295
2.875 0.16981977 0.70475107 4294967295
2.8770001 0.12655419 0.70487958 4294967295
2.8706667 0.10297412 0.7044726 4294967295
2.8631999 0.07610292 0.70666003 4294967295
2.8642499 0.046258062 0.71070582 4294967295
2.8567998 0.016285356 0.71020979 4294967295
2.8682001 -0.015577469 0.70964539 4294967295
2.8668001 -0.043527737 0.70422411 4294967295
2.8740001 -0.13362946 0.70468676 4294967295
2.8696001 -0.16339265 0.70440406 4294967295
2.8692501 -0.193336 0.70438153 4294967295
2.8668001 -0.22308666 0.70422411 4294967295
2.8710001 -0.25339869 0.704494 4294967295
2.8654001 -0.28281489 0.70413417 4294967295
2.8628001 -0.31577569 0.70396709 4294967295
2.8640001 -0.34581044 0.70404422 4294967295
2.8656001 -0.37591389 0.70414698 4294967295
2.8675001 -0.40611434 0.70926446 4294967295
2.8658001 -0.43181261 0.71480852 4294967295
2.8644001 -0.46216193 0.7120508 4294967295
2.8644001 -0.4953914 0.70540494 4294967295
2.875 -0.52391124 0.70475107 4294967295
2.8745999 -0.79728305 0.70472533 4294967295
2.8725002 -0.82669967 0.70459038 4294967295
2.8732002 -0.85687947 0.70463538 4294967295
2.8564999 -0.88173264 0.70356226 4294967295
2.8694 -0.9156692 0.71371269 4294967295
2.8643334 -0.94283104 0.72620857 4294967295
2.8643751 2.2584748 0.68163979 4294967295
2.852 0.15523155 0.69665593 4294967295
2.8567998 0.13561082 0.69695324 4294967295
2.855 0.11234175 0.69684172 4294967295
2.8555999 -0.076472633 0.69687891 4294967295
2.855 -0.10624965 0.69684172 4294967295
2.852 -0.52964109 0.69665593 4294967295
2.8644001 -0.55520493 0.69610053 4294967295
2.8655002 -0.58532041 0.69085336 4294967295
2.8659999 -0.61535186 0.68756145 4294967295
2.8645 -0.64493209 0.6874755 4294967295
2.8656001 -0.67508966 0.69084966 4294967295
2.8660002 -0.70513946 0.69586879 4294967295
2.8604 -0.7336123 0.69717622 4294967295
2.8559999 -0.75899035 0.69690371 4294967295
2.8770001 2.2525833 0.66482878 4294967295
2.8623333 2.2410867 0.65301859 4294967295
2.8675001 2.2284939 0.63773823 4294967295
2.8629413 2.2083416 0.62231636 4294967295
2.8632727 2.2031682 0.59347844 4294967295
2.8737502 2.2250295 0.55632252 4294967295
2.8589997 2.2157354 0.5672766 4294967295
2.8678572 2.2245033 0.5312925 4294967295
2.852 2.219775 0.5378449 4294967295
2.8639233 2.2367096 0.50520563 4294967295
2.8770001 2.2525833 0.48126268 4294967295
2.8599999 2.2452283 0.47352156 4294967295
2.8682501 2.232408 0.45226467 4294967295
2.861167 2.2147212 0.43721649 4294967295
2.8629999 2.2010179 0.4153989 4294967295
2.8663001 2.1983063 0.38498569 4294967295
2.8644288 2.2076013 0.35373622 4294967295
2.867182 2.2158539 0.32445925 4294967295
2.8645 2.2261624 0.2870355 4294967295
2.8612502 2.2161658 0.29974794 4294967295
2.8636668 2.2554145 0.25886014 4294967295
2.863625 2.2420876 0.27547473 4294967295
2.8645 2.2527399 0.24549344 4294967295
2.8627272 2.2359495 0.23177245 4294967295
2.8645 2.2161827 0.22224647 4294967295
2.8644164 2.1972876 0.21226323 4294967295
2.8660002 2.1865194 0.2060774 4294967295
2.8652501 2.193516 0.17561981 4294967295
2.852 2.1866894 0.16066867 4294967295
2.8740001 2.1935515 0.15455925 4294967295
2.8620002 2.1843824 0.14280152 4294967295
2.8623333 2.1805801 0.11436108 4294967295
2.8636253 2.1989143 0.079469562 4294967295
2.8623333 2.1879563 0.095176101 4294967295
2.8573749 2.2264252 0.044805139 4294967295
2.8638182 2.214457 0.05769369 4294967295
2.8649542 2.2289245 0.024282187 4294967295
2.8770001 2.2192075 0.03736645 4294967295
2.8640525 2.2312284 -0.0045278668 4294967295
2.8651047 2.2369478 -0.034459054 4294967295
2.8658891 2.229095 -0.061248362 4294967295
2.852 2.219775 -0.074239314 4294967295
2.8707144 2.2229183 -0.091936231 4294967295
2.8559999 2.2162616 -0.098260522 4294967295
2.8616667 2.2125328 -0.12457037 4294967295
2.8612502 2.2095399 -0.15416473 4294967295
2.8618333 2.2135823 -0.18639481 4294967295
2.8635001 2.21542 -0.21614313 4294967295
2.8623333 2.2145207 -0.2446326 4294967295
2.8627329 2.2307582 -0.27727467 4294967295
2.8645 2.2194912 -0.26292092 4294967295
2.8639333 2.2383516 -0.30685192 4294967295
2.8664999 2.225498 -0.32443935 4294967295
2.8625717 2.2137473 -0.33878005 4294967295
2.8642502 2.2243071 -0.37251318 4294967295
2.8625715 2.2175429 -0.35775673 4294967295
2.8730001 2.2227881 -0.39079273 4294967295
2.8633335 2.2163973 -0.39658672 4294967295
2.8705001 2.2108562 -0.41442651 4294967295
2.8930001 0.7749905 2.1255529 4294967295
2.8994999 -0.8781926 2.1224074 4294967295
2.9089999 0.77252728 2.0838087 4294967295
2.8977499 -0.88438588 2.0878294 4294967295
2.9046667 0.77137649 2.0680106 4294967295
2.9064 -0.88702577 2.062181 4294967295
2.9024999 0.77080113 2.0365191 4294967295
2.8983333 -0.89128852 2.0377121 4294967295
2.9089997 0.77252728 2.0095656 4294967295
2.8900001 -0.89543122 2.0199525 4294967295
2.8983333 -0.90697753 2.0108237 4294967295
2.8930001 0.76827824 1.9845955 4294967295
2.8959999 -0.91744781 1.9827511 4294967295
2.8983333 0.76296997 1.9435967 4294967295
2.9089999 -0.92156619 1.9420718 4294967295
2.8988001 -0.91025645 1.9169028 4294967295
2.8900001 0.76077628 1.872436 4294967295
2.8983333 -0.89576328 1.8763257 4294967295
2.8994999 -0.90172726 1.893689 4294967295
2.8936 0.76172394 1.8539714 4294967295
2.8900001 -0.888726 1.8523202 4294967295
2.8986001 0.76304013 1.8226464 4294967295
2.9026668 -0.8926211 1.8312061 4294967295
2.9089999 0.76577789 1.7969602 4294967295
2.8988001 -0.89276427 1.7958251 4294967295
2.8983333 0.76072013 1.7664818 4294967295
2.9052002 -0.8812601 1.764942 4294967295
2.8983333 0.75399554 1.7440829 4294967295
2.89925 0.73965633 1.7270887 4294967295
2.9089999 0.69828409 1.7260917 4294967295
2.9089999 0.52954966 1.7260917 4294967295
2.9000001 -0.88776624 1.7357997 4294967295
2.8941667 0.7294085 1.7121093 4294967295
2.896889 0.70434135 1.7083843 4294967295
2.8900001 0.68701804 1.711509 4294967295
2.901 0.52134055 1.7126584 4294967295
2.9089999 -0.89456868 1.7193424 4294967295
2.9025002 2.0132709 1.6627882 4294967295
2.9036667 1.9938509 1.6699845 4294967295
2.9089999 1.967167 1.6720967 4294967295
2.8980002 1.9347589 1.664852 4294967295
2.8962502 1.4864758 1.6653581 4294967295
2.8988001 1.4598702 1.6640135 4294967295
2.8915002 1.2307853 1.6685151 4294967295
2.9011428 1.2194937 1.68004 4294967295
2.8997777 1.1849601 1.6796441 4294967295
2.8986251 1.1530995 1.6671331 4294967295
2.8978748 1.1259183 1.6643199 4294967295
2.8930001 1.1072435 1.6624004 4294967295
2.9089999 0.54304844 1.6653473 4294967295
2.8994999 0.53117293 1.6717091 4294967295
2.8900001 -0.89543122 1.6645719 4294967295
2.8900003 2.0448399 1.6310455 4294967295
2.8947694 2.0190065 1.6416683 4294967295
2.8970001 1.9976778 1.6362621 4294967295
2.8998573 1.9667416 1.6377275 4294967295
2.8983335 1.9369752 1.6449107 4294967295
2.8920002 1.9101946 1.6497076 4294967295
2.9090002 1.7444375 1.6316005 4294967295
2.8946252 1.7215304 1.6344943 4294967295
2.8977504 1.7023909 1.6323376 4294967295
2.8993571 1.4863759 1.6432927 4294967295
2.9046667 1.4543053 1.6445507 4294967295
2.8900001 1.432982 1.6411034 4294967295
2.8988001 1.3549466 1.6344197 4294967295
2.899857 1.3352563 1.647325 4294967295
2.8995004 1.3048165 1.6508301 4294967295
2.8977499 1.2737832 1.6432606 4294967295
2.8962142 1.2433537 1.6367807 4294967295
2.9016876 1.2165909 1.6422691 4294967295
2.9089999 1.1943632 1.6349752 4294967295
2.9089997 1.1189951 1.6428493 4294967295
2.8929999 1.0991958 1.6442795 4294967295
2.8936 -0.8965466 1.6458483 4294967295
2.9089999 -0.90131807 1.6316005 4294967295
2.9090002 2.1021543 1.6046029 4294967295
2.8981001 2.0835099 1.6166706 4294967295
2.9025457 2.0558388 1.6236118 4294967295
2.8924003 2.0250683 1.6185479 4294967295
2.8900003 1.9945502 1.6243402 4294967295
2.8900003 1.9744344 1.6243402 4294967295
2.8963337 1.8667566 1.6043504 4294967295
2.8990002 1.8460484 1.6120805 4294967295
2.896167 1.8106426 1.6154925 4294967295
2.9005003 1.7830907 1.6182481 4294967295
2.8993335 1.755457 1.6245369 4294967295
2.9038 1.6887646 1.6201704 4294967295
2.8920004 1.6716187 1.6116846 4294967295
2.8900001 1.47489 1.6243402 4294967295
2.8921816 1.4531243 1.6190782 4294967295
2.8899999 1.427953 1.6100914 4294967295
2.8976665 1.3932612 1.6085871 4294967295
2.9002726 1.36909 1.6196916 4294967295
2.9046667 1.2341398 1.625445 4294967295
2.9007273 1.2132951 1.6198601 4294967295
2.9008751 1.186389 1.6150421 4294967295
2.9025002 1.1546484 1.6131321 4294967295
2.8961427 1.1281308 1.6170923 4294967295
2.8900001 1.1027462 1.6243402 4294967295
2.8900001 -0.9021365 1.6142823 4294967295
2.9090002 2.2067695 1.5708561 4294967295
2.8962004 2.1735201 1.5729519 4294967295
2.9025002 2.1479568 1.5819765 4294967295
2.8988001 2.116307 1.5927215 4294967295
2.8960001 2.0994792 1.599756 4294967295
2.9000003 2.0229807 1.5958538 4294967295
2.8990002 1.9992537 1.5866624 4294967295
2.8949003 1.963665 1.5812031 4294967295
2.9001253 1.9342482 1.5802584 4294967295
2.8971431 1.9053655 1.5867321 4294967295
2.8951669 1.8805577 1.596083 4294967295
2.9000003 1.6630065 1.589793 4294967295
2.8973634 1.639678 1.578861 4294967295
2.8900001 1.6190538 1.5706978 4294967295
2.8900001 1.5151218 1.5706978 4294967295
2.8972309 1.4829639 1.57383 4294967295
2.8983333 1.4551408 1.5907567 4294967295
2.8971665 1.4281284 1.5990661 4294967295
2.8959999 1.4074003 1.599756 4294967295
2.9089997 1.2044873 1.5911041 4294967295
2.9006472 1.1867871 1.5876236 4294967295
2.8900001 1.1653289 1.5896962 4294967295
2.8973334 -0.90777826 1.5868205 4294967295
2.9090002 2.2506404 1.5506079 4294967295
2.8973334 2.234875 1.5554417 4294967295
2.8930004 2.2080531 1.5650761 4294967295
2.9034286 1.6313936 1.5582501 4294967295
2.8899999 1.6089958 1.5497439 4294967295
2.901 1.5646279 1.544399 4294967295
2.8969409 1.5474113 1.5577935 4294967295
2.9040003 1.5164965 1.5623028 4294967295
2.901 1.4956324 1.5629041 4294967295
2.9034286 1.1800513 1.554402 4294967295
2.8900001 1.1697991 1.5606399 4294967295
2.8959999 -0.91072857 1.5560811 4294967295
2.9089999 2.2551401 1.5281099 4294967295
2.8951669 2.2466404 1.5221828 4294967295
2.8945 1.6047907 1.5387552 4294967295
2.8945 1.5779173 1.5387552 4294967295
2.8983333 0.54777724 1.5244154 4294967295
2.8959999 0.53390241 1.5124062 4294967295
2.9089999 -0.89456868 1.5101118 4294967295
2.8976002 -0.90584105 1.5263827 4294967295
2.9000003 2.227509 1.4989673 4294967295
2.8995001 2.2130065 1.4866962 4294967295
2.9011998 0.52004862 1.496688 4294967295
2.9089999 0.50930154 1.4831142 4294967295
2.9024999 -0.88247591 1.4978055 4294967295
2.8961432 2.2051661 1.4649332 4294967295
2.8900001 0.51268041 1.4768238 4294967295
2.895 0.50550061 1.4596663 4294967295
2.8900001 -0.86861002 1.4634132 4294967295
2.8959999 -0.8704133 1.4653718 4294967295
2.8989167 2.2058299 1.4349303 4294967295
2.9089999 0.72865629 1.4257445 4294967295
2.9024999 0.71692669 1.4304626 4294967295
2.8963335 0.50483412 1.4363655 4294967295
2.9089999 -0.88106996 1.4358685 4294967295
2.903667 2.1959732 1.4083467 4294967295
2.8900003 2.1890035 1.4030654 4294967295
2.8994999 0.72966248 1.4160483 4294967295
2.8930001 0.5065003 1.4073312 4294967295
2.9046667 -0.89098632 1.4030575 4294967295
2.8988001 2.1997011 1.3694289 4294967295
2.8900003 2.1890035 1.3863022 4294967295
2.8959999 0.81610942 1.378022 4294967295
2.8983333 0.51415873 1.3854232 4294967295
2.9008572 -0.89493835 1.3746589 4294967295
2.9090002 2.2236431 1.3346279 4294967295
2.8962502 2.2105334 1.3478572 4294967295
2.8971665 -0.8898049 1.344758 4294967295
2.9090002 2.2236431 1.3278785 4294967295
2.8962862 2.2119894 1.3147352 4294967295
2.8974001 -0.89234263 1.3125527 4294967295
2.8930004 2.1946285 1.296586 4294967295
2.9003336 2.1833618 1.285086 4294967295
2.8938003 -0.89525878 1.2847049 4294967295
2.9010003 2.1720884 1.2617013 4294967295
2.8976002 -0.89374512 1.2574745 4294967295
2.8977501 2.201597 1.2138147 4294967295
2.8920004 2.1770937 1.229223 4294967295
2.8900001 -0.88872594 1.2253752 4294967295
2.9010003 2.2242477 1.1893642 4294967295
2.8930004 2.2147653 1.1992619 4294967295
2.89625 -0.89232415 1.1983414 4294967295
2.9008577 2.2270226 1.1660076 4294967295
2.8915002 -0.8958959 1.1653607 4294967295
2.8988001 2.2239041 1.1393993 4294967295
2.8900003 2.2158248 1.1247958 4294967295
2.8994999 0.53117293 1.1234202 4294967295
2.8915002 -0.8958959 1.1318133 4294967295
2.8962004 2.211165 1.1052593 4294967295
2.9089999 0.53629905 1.1085238 4294967295
2.8959999 -0.89729017 1.1159725 4294967295
2.9042501 -0.9015227 1.1025174 4294967295
2.9004447 2.2133567 1.0750102 4294967295
2.8924 -0.90288568 1.0749638 4294967295
2.8983338 2.2139831 1.04846 4294967295
2.8947501 -0.90529555 1.0451887 4294967295
2.898 2.2113864 1.0145642 4294967295
2.9089999 0.52280033 1.0039085 4294967295
2.8993332 -0.91625905 1.0168669 4294967295
2.9057498 2.226213 0.98145497 4294967295
2.8900001 2.2158248 0.99068999 4294967295
2.8994999 0.50763834 0.9787935 4294967295
2.8963335 -0.91531837 0.98614109 4294967295
2.9014001 2.2272472 0.950149 4294967295
2.8900001 0.50597513 0.94040024 4294967295
2.8977499 -0.89278895 0.95162153 4294967295
2.8959999 -0.9040094 0.9681499 4294967295
2.89925 2.2229168 0.92494023 4294967295
2.8959999 0.50702554 0.9345538 4294967295
2.8940001 -0.88995588 0.92754829 4294967295
2.8987999 2.2265978 0.89462125 4294967295
2.8994999 0.51436567 0.90477085 4294967295
2.8900001 -0.89543122 0.90687382 4294967295
2.9089999 -0.9114421 0.8891691 4294967295
2.8961999 2.2353525 0.86604786 4294967295
2.8959999 0.52046394 0.8740809 4294967295
2.8983333 -0.92042673 0.86763692 4294967295
2.9089999 2.2557023 0.83348668 4294967295
2.8930001 2.2449739 0.8435055 4294967295
2.8900001 -0.9289577 0.84652615 4294967295
2.8959999 -0.93088627 0.83376563 4294967295
2.9089999 2.254015 0.80817652 4294967295
2.8940001 2.24351 0.79997605 4294967295
2.8994999 0.52782029 0.80386078 4294967295
2.8981426 -0.92868245 0.80901682 4294967295
2.8959999 -0.93088627 0.79345036 4294967295
2.898 2.2325161 0.77538335 4294967295
2.9089999 0.54979783 0.76768029 4294967295
2.9089999 0.53629905 0.78792846 4294967295
2.9005001 -0.94466484 0.77816844 4294967295
2.9024999 2.2523308 0.73683012 4294967295
2.8973334 2.2315173 0.74988008 4294967295
2.9026668 0.56207019 0.74018764 4294967295
2.8940001 -0.95486653 0.74402899 4294967295
2.9089999 -0.96206248 0.75080687 4294967295
2.9089999 2.2843874 0.70693594 4294967295
2.901 2.2713668 0.72156733 4294967295
2.8900001 0.55961746 0.72583085 4294967295
2.8900001 0.52944362 0.71912557 4294967295
2.9089999 0.40468624 0.72718406 4294967295
2.8900001 0.36516395 0.71912557 4294967295
2.8940001 0.35223556 0.71940118 4294967295
2.8930001 0.21451382 0.71262002 4294967295
2.9024999 0.20174558 0.71325254 4294967295
2.8900001 0.15394722 0.705715 4294967295
2.8900001 0.14053662 0.705715 4294967295
2.8983333 0.10169734 0.71073997 4294967295
2.8930001 0.080275699 0.71262002 4294967295
2.9024999 0.040137589 0.7199868 4294967295
2.8959999 0.016522929 0.71953899 4294967295
2.9089997 -0.010400404 0.72043467 4294967295
2.9003334 -0.037296541 0.71310824 4294967295
2.8930001 -0.074116565 0.70590776 4294967295
2.8973999 -0.10446783 0.70619053 4294967295
2.9089999 -0.19600827 0.71368527 4294967295
2.8986001 -0.22555904 0.71299285 4294967295
2.8959999 -0.25560522 0.71281976 4294967295
2.8959999 -0.28584167 0.71281976 4294967295
2.89925 -0.31644416 0.71303612 4294967295
2.9089999 -0.34449452 0.71368527 4294967295
2.9038002 -0.3741785 0.71333909 4294967295
2.8963335 -0.40237889 0.71509176 4294967295
2.8930001 -0.42314333 0.71933228 4294967295
2.8920002 -0.46661973 0.71926337 4294967295
2.901 -0.49667028 0.71483999 4294967295
2.9089999 -0.51660359 0.71368527 4294967295
2.8983333 -0.54834712 0.70625049 4294967295
2.9089999 -0.59759611 0.70018655 4294967295
2.9089999 -0.6043455 0.70018655 4294967295
2.9089999 -0.68196332 0.70018655 4294967295
2.9012001 -0.73733252 0.70643467 4294967295
2.8959999 -0.76626551 0.70610052 4294967295
2.8900001 -0.78144121 0.705715 4294967295
2.8983333 -0.89127386 0.71297508 4294967295
2.8930001 -0.9131518 0.71597964 4294967295
2.8959999 -0.93760544 0.72625816 4294967295
2.9089999 2.2843874 0.69343716 4294967295
2.8924003 2.2726898 0.68573105 4294967295
2.8959999 -0.58484668 0.69938135 4294967295
2.8959999 -0.68899453 0.69938135 4294967295
2.8900001 -0.69762504 0.69900966 4294967295
2.8983333 2.2603121 0.66141784 4294967295
2.8930001 2.2449703 0.6488536 4294967295
2.9025002 2.2287681 0.63580811 4294967295
2.9005001 2.2137709 0.6189065 4294967295
2.8959999 2.2204249 0.58515465 4294967295
2.8962502 2.2122097 0.60028374 4294967295
2.8983333 2.2334208 0.56614119 4294967295
2.9026663 2.2412407 0.53702962 4294967295
2.9042501 2.2570562 0.4977527 4294967295
2.8915002 2.2438099 0.50790083 4294967295
2.8961999 2.2582026 0.47360957 4294967295
2.8985 2.2324226 0.44146562 4294967295
2.9089999 2.2236431 0.42346212 4294967295
2.8915002 2.2119424 0.41398144 4294967295
2.9000001 2.2140636 0.38340792 4294967295
2.9026668 2.2255218 0.35185528 4294967295
2.8900001 2.2158248 0.36039239 4294967295
2.9057498 2.2346423 0.32580203 4294967295
2.8993332 2.2341876 0.29372573 4294967295
2.898 2.2584364 0.26438937 4294967295
2.8900001 2.242646 0.27657622 4294967295
2.9017143 2.2623022 0.24096298 4294967295
2.8971426 2.2308798 0.22796363 4294967295
2.8990002 2.208298 0.22490135 4294967295
2.8983333 2.1885762 0.22207728 4294967295
2.8940001 2.1965082 0.20013928 4294967295
2.8973999 2.1865335 0.21141598 4294967295
2.8986001 2.2076178 0.1749852 4294967295
2.8920002 2.1994634 0.14444417 4294967295
2.8974001 2.1959496 0.11463147 4294967295
2.899857 2.2070315 0.085441589 4294967295
2.896143 2.222446 0.049520671 4294967295
2.8930001 2.2147653 0.064891011 4294967295
2.8998573 2.2267287 0.02247563 4294967295
2.8975 2.23299 -0.0023708344 4294967295
2.8979998 2.2415044 -0.035832942 4294967295
2.899111 2.23999 -0.065736353 4294967295
2.9011998 2.2378745 -0.094569385 4294967295
2.9014001 2.2339792 -0.12426537 4294967295
2.8924003 2.2243757 -0.15311277 4294967295
2.8930001 2.2248373 -0.18347281 4294967295
2.8981667 2.2276855 -0.21610618 4294967295
2.8978751 2.2252152 -0.24516147 4294967295
2.8981667 2.2332847 -0.27324963 4294967295
2.8934288 2.2462623 -0.30584544 4294967295
2.8987 2.231904 -0.33347976 4294967295
2.896143 2.225328 -0.36709785 4294967295
2.8969998 2.2287459 -0.39448673 4294967295
2.9026668 2.2255218 -0.42041278 4294967295
2.8900001 2.2158248 -0.42077434 4294967295
2.9349999 0.77943194 2.1182146 4294967295
2.9215 -0.88485593 2.1142452 4294967295
2.9215 0.77584678 2.1007035 4294967295
2.9335999 -0.88852066 2.0970266 4294967295
2.9315 -0.88958305 2.0652971 4294967295
2.9215 -0.89501595 2.0396981 4294967295
2.925 -0.90968031 2.0245218 4294967295
2.925 -0.9198485 2.0075672 4294967295
2.9215 0.76906842 1.9719143 4294967295
2.9247499 -0.92655575 1.9802966 4294967295
2.9193332 -0.92257529 1.9516221 4294967295
2.9315 0.76489931 1.9156704 4294967295
2.9255996 -0.90645212 1.9162381 4294967295
2.9247501 0.76313812 1.8853089 4294967295
2.925 -0.89608413 1.8820052 4294967295
2.928 -0.90041155 1.8970124 4294967295
2.9294 0.76435131 1.856884 4294967295
2.9303334 -0.89433026 1.8641099 4294967295
2.9349999 0.76581252 1.8288025 4294967295
2.9216664 -0.89619404 1.8171819 4294967295
2.9326668 0.76520371 1.7903439 4294967295
2.9226665 -0.88632375 1.79277 4294967295
2.9282498 0.75724566 1.7646307 4294967295
2.9349999 0.74538344 1.7504909 4294967295
2.9322 -0.88401407 1.7629203 4294967295
2.9226665 0.73320061 1.7351474 4294967295
2.9294 0.70726031 1.7372704 4294967295
2.9247499 0.67831784 1.7326219 4294967295
2.9315 -0.89468628 1.7388171 4294967295
2.9283333 0.524005 1.7001363 4294967295
2.915 -0.8964138 1.7049079 4294967295
2.9228003 2.0158224 1.6667107 4294967295
2.9242859 1.9959171 1.6674837 4294967295
2.915 1.9663935 1.6648111 4294967295
2.915 1.4808853 1.6632007 4294967295
2.9226475 1.2145143 1.673912 4294967295
2.9225833 1.1858135 1.6695558 4294967295
2.9253998 1.1569663 1.6663697 4294967295
2.9215 1.1317191 1.6634905 4294967295
2.9349999 0.5410924 1.6755842 4294967295
2.915 -0.89641374 1.674473 4294967295
2.9215002 2.0128932 1.6567122 4294967295
2.9215002 1.9993366 1.6533304 4294967295
2.9150002 1.9678426 1.6541831 4294967295
2.9265001 1.7481377 1.6331885 4294967295
2.9238334 1.7295816 1.6338664 4294967295
2.915 1.4808853 1.6541831 4294967295
2.915 1.463977 1.6541831 4294967295
2.9293334 1.3556236 1.6359682 4294967295
2.9265001 1.3361995 1.6473358 4294967295
2.9289999 1.3026131 1.6452717 4294967295
2.9226665 1.2745575 1.6368101 4294967295
2.9182501 1.206619 1.6537569 4294967295
2.9226475 1.1822075 1.6483936 4294967295
2.9301181 1.1564411 1.6492712 4294967295
2.9207778 1.1295565 1.6489029 4294967295
2.9294 -0.90084207 1.646186 4294967295
2.9293332 2.1134408 1.6053848 4294967295
2.925688 2.0853469 1.6154798 4294967295
2.9242001 2.0588562 1.6088929 4294967295
2.9350002 1.8962228 1.6006775 4294967295
2.9259999 1.8745575 1.6064103 4294967295
2.9226668 1.8419069 1.6153446 4294967295
2.9294002 1.8110378 1.6190057 4294967295
2.9271669 1.7824928 1.6215545 4294967295
2.9282501 1.762771 1.6270592 4294967295
2.9332502 1.7215505 1.6255534 4294967295
2.92325 1.6995723 1.6115969 4294967295
2.9199998 1.4224339 1.6002269 4294967295
2.925818 1.396571 1.6071647 4294967295
2.9291425 1.3700978 1.6208502 4294967295
2.9349999 1.2663255 1.6279163 4294967295
2.9261997 1.2435067 1.6198231 4294967295
2.916857 1.2212758 1.6094605 4294967295
2.915 1.1731552 1.6271299 4294967295
2.915 1.1596285 1.6271299 4294967295
2.9225714 -0.90455019 1.6144896 4294967295
2.9315002 2.2306356 1.5721824 4294967295
2.9265001 2.1996577 1.5771778 4294967295
2.9282501 2.1738105 1.5829016 4294967295
2.9282503 2.1466188 1.591398 4294967295
2.9215002 2.1281257 1.5957067 4294967295
2.9315002 2.0469928 1.595984 4294967295
2.9272857 2.0280364 1.5881224 4294967295
2.9265001 1.9942713 1.5822654 4294967295
2.9249001 1.9629631 1.5765859 4294967295
2.9273751 1.9354341 1.580883 4294967295
2.9242005 1.9075502 1.5892323 4294967295
2.9349999 1.7248453 1.5745736 4294967295
2.9286256 1.6929386 1.5826067 4294967295
2.9171665 1.6658604 1.5749284 4294967295
2.9256246 1.4752461 1.5768521 4294967295
2.9275556 1.4566875 1.5888689 4294967295
2.9247499 1.4315398 1.5969033 4294967295
2.9256158 1.2176453 1.582601 4294967295
2.92325 -0.9125157 1.5793738 4294967295
2.9296005 2.2597721 1.5524677 4294967295
2.9232502 2.2396157 1.5641297 4294967295
2.9326665 1.7540988 1.5552131 4294967295
2.9325299 1.7257204 1.5573474 4294967295
2.9326668 1.6939943 1.5589899 4294967295
2.9237502 1.6634061 1.5575143 4294967295
2.9182498 1.6450328 1.5538776 4294967295
2.9237499 1.5446665 1.5518717 4294967295
2.925154 1.5139642 1.5505704 4294967295
2.926563 1.4892925 1.5572373 4294967295
2.927583 1.2138921 1.5577554 4294967295
2.9182498 1.1947756 1.5572742 4294967295
2.9326668 -0.91545516 1.5544637 4294967295
2.9256001 2.2593977 1.5320395 4294967295
2.92325 2.2429857 1.5149503 4294967295
2.92975 1.4917772 1.53417 4294967295
2.925 0.55279857 1.5392985 4294967295
2.92325 0.52874643 1.5200493 4294967295
2.9349999 -0.8923496 1.5155563 4294967295
2.9315 -0.90488458 1.5279682 4294967295
2.92325 2.2243409 1.5030878 4294967295
2.9273748 2.212204 1.4900433 4294967295
2.9236667 0.51413381 1.501547 4294967295
2.9315 0.50643927 1.4871669 4294967295
2.925 -0.87572461 1.4883883 4294967295
2.924 2.208576 1.4652531 4294967295
2.9282498 0.72328705 1.472483 4294967295
2.915 0.50358874 1.4681926 4294967295
2.9299998 -0.87722737 1.4628861 4294967295
2.924 2.2079625 1.4354957 4294967295
2.9350002 0.75446302 1.4258952 4294967295
2.9299998 0.73537695 1.4405369 4294967295
2.915 0.50358874 1.4332488 4294967295
2.925 -0.88591599 1.4307146 4294967295
2.9282501 2.2060783 1.4045733 4294967295
2.9349999 0.82029015 1.3963865 4294967295
2.925 0.79375416 1.400187 4294967295
2.915 0.51035202 1.3937962 4294967295
2.9216664 0.50474048 1.4127259 4294967295
2.9299998 -0.89422846 1.4050732 4294967295
2.9315002 2.223834 1.3647385 4294967295
2.9282501 2.2128725 1.3790879 4294967295
2.928 0.51602477 1.3841062 4294967295
2.93325 -0.89351791 1.3720462 4294967295
2.9268 2.2290967 1.3450419 4294967295
2.9238331 -0.88894427 1.3466901 4294967295
2.9260001 2.2253146 1.3235464 4294967295
2.9280002 2.2143896 1.3093781 4294967295
2.9257498 -0.89292556 1.3155452 4294967295
2.932667 2.2009027 1.2936201 4294967295
2.9150002 2.1808863 1.2754385 4294967295
2.9229999 -0.89615005 1.2883608 4294967295
2.9280002 2.1906123 1.2448401 4294967295
2.9150002 2.1808863 1.2483853 4294967295
2.9264998 -0.89485115 1.2563354 4294967295
2.9280002 2.2245798 1.2108729 4294967295
2.9265003 2.2064629 1.2257938 4294967295
2.9150002 2.1876495 1.2348588 4294967295
2.9294 -0.89404541 1.2247902 4294967295
2.9248335 2.2323515 1.1965435 4294967295
2.9200001 -0.89624894 1.1920655 4294967295
2.9296005 2.2407422 1.1663876 4294967295
2.925 -0.89608413 1.1558614 4294967295
2.928 -0.90041155 1.1735089 4294967295
2.9281666 2.2337568 1.1361744 4294967295
2.9349999 0.52747297 1.1410227 4294967295
2.915 -0.8964138 1.1367909 4294967295
2.928 -0.90041155 1.1225579 4294967295
2.9256003 2.2240996 1.1111844 4294967295
2.9150002 2.2147028 1.0962112 4294967295
2.925 0.5324623 1.1185358 4294967295
2.9299998 -0.90271741 1.1059916 4294967295
2.9291668 2.2243314 1.0774947 4294967295
2.915 -0.90317708 1.0759212 4294967295
2.9308002 2.2239833 1.0428901 4294967295
2.9150002 2.2147028 1.038723 4294967295
2.9226665 -0.907812 1.0457234 4294967295
2.9295998 2.2271481 1.0141385 4294967295
2.915 2.2147028 1.0251964 4294967295
2.9322 -0.9207508 1.0145677 4294967295
2.9282498 2.2383575 0.98331213 4294967295
2.915 0.51711535 0.99814332 4294967295
2.9215999 -0.91335934 0.9829694 4294967295
2.931 2.2418125 0.95588869 4294967295
2.9326668 -0.8950423 0.94660687 4294967295
2.928 -0.90041155 0.96630836 4294967295
2.928 2.2381666 0.9255476 4294967295
2.925 0.51210278 0.92851377 4294967295
2.915 -0.8964138 0.91698372 4294967295
2.9256001 2.240396 0.89535552 4294967295
2.928 0.51942152 0.89837378 4294967295
2.928 -0.91060174 0.89837372 4294967295
2.93325 2.2557909 0.86672235 4294967295
2.915 2.2485192 0.85949564 4294967295
2.9259999 0.52585554 0.86415577 4294967295
2.9349999 -0.9263981 0.87203956 4294967295
2.925 -0.93342149 0.85386229 4294967295
2.9247501 2.2628262 0.83347619 4294967295
2.9349999 0.52747297 0.83458614 4294967295
2.9349999 -0.92980295 0.82437164 4294967295
2.9282498 -0.93445861 0.83388209 4294967295
2.9259999 2.2615287 0.80986607 4294967295
2.915 2.2485192 0.79524434 4294967295
2.925 0.52905744 0.80640316 4294967295
2.9281664 -0.92536831 0.80668092 4294967295
2.925 -0.93342149 0.79278374 4294967295
2.9315 2.2510405 0.78659594 4294967295
2.9241996 2.2406785 0.77167982 4294967295
2.925 0.54263049 0.77923393 4294967295
2.9242001 -0.94944084 0.77440643 4294967295
2.9282002 2.2586827 0.73806608 4294967295
2.9281998 2.2423744 0.75030124 4294967295
2.9315 0.56085187 0.74577832 4294967295
2.9216664 -0.95267856 0.73711938 4294967295
2.928 -0.96155268 0.75231439 4294967295
2.9264998 2.2913322 0.71146476 4294967295
2.928 2.2789273 0.72853726 4294967295
2.9193332 0.55174077 0.72792 4294967295
2.9227998 0.52529854 0.72816694 4294967295
2.9182501 0.49400529 0.72784281 4294967295
2.915 0.46639061 0.72761136 4294967295
2.915 0.43595576 0.72761136 4294967295
2.9193332 0.40046257 0.72792 4294967295
2.93325 0.37402549 0.72891116 4294967295
2.915 0.33788797 0.72084808 4294967295
2.9281998 0.31561747 0.72175759 4294967295
2.928 0.28504717 0.72174382 4294967295
2.9308 0.2547102 0.7219367 4294967295
2.9349999 0.23465586 0.72222614 4294967295
2.915 0.18909541 0.7140848 4294967295
2.9296 0.1662306 0.7150569 4294967295
2.92975 0.13567816 0.71506685 4294967295
2.9199998 0.10640116 0.71612012 4294967295
2.92975 0.074500501 0.7218644 4294967295
2.915 0.053829473 0.72084808 4294967295
2.915 -0.02394845 0.72084808 4294967295
2.9241996 -0.044359863 0.71877664 4294967295
2.9315 -0.075103976 0.71518338 4294967295
2.9349999 -0.11604372 0.71541643 4294967295
2.92975 -0.13622262 0.71506685 4294967295
2.915 -0.16597769 0.7140848 4294967295
2.9350002 -0.22840379 0.72222614 4294967295
2.9335999 -0.25552711 0.72212964 4294967295
2.9349999 -0.28628621 0.72222614 4294967295
2.9349999 -0.31012017 0.72222614 4294967295
2.9282498 -0.40110707 0.72176099 4294967295
2.925 -0.43459061 0.72832358 4294967295
2.9199998 -0.46098787 0.7279675 4294967295
2.9259999 -0.49019203 0.72387588 4294967295
2.915 -0.52781409 0.7140848 4294967295
2.9282501 -0.55227488 0.71327615 4294967295
2.9259999 -0.58073747 0.70802838 4294967295
2.915 -0.61911857 0.70055819 4294967295
2.915 -0.64617175 0.70055819 4294967295
2.915 -0.66984338 0.70055819 4294967295
2.9282501 -0.70683885 0.70817292 4294967295
2.915 -0.72056806 0.70732152 4294967295
2.9326668 -0.79977691 0.71526104 4294967295
2.9254 -0.82493818 0.71477723 4294967295
2.9265001 -0.85583282 0.71485049 4294967295
2.9193332 -0.87741625 0.71437329 4294967295
2.9259999 -0.92014748 0.72160602 4294967295
2.915 -0.9369936 0.72761136 4294967295
2.9295998 2.2896812 0.68379164 4294967295
2.915 2.2755725 0.67350501 4294967295
2.9266248 2.2625608 0.65713584 4294967295
2.9259999 2.2411313 0.6423946 4294967295
2.9271667 2.2261856 0.62885171 4294967295
2.9193332 2.2157309 0.61729199 4294967295
2.9259999 2.2275741 0.59488565 4294967295
2.915 2.2147028 0.60587204 4294967295
2.9315 2.2544451 0.5553422 4294967295
2.92325 2.2413065 0.57390529 4294967295
2.92975 2.2530992 0.53493869 4294967295
2.9291427 2.2633064 0.502406 4294967295
2.915 2.2485192 0.51794916 4294967295
2.9244287 2.2703242 0.47432664 4294967295
2.9283333 2.2587886 0.45452181 4294967295
2.9215 2.2399688 0.43999326 4294967295
2.9238331 2.2270627 0.41393667 4294967295
2.9282498 2.2281587 0.38546795 4294967295
2.9259999 2.2354977 0.35275263 4294967295
2.928 2.2449601 0.32432643 4294967295
2.9315 2.2510405 0.28328711 4294967295
2.9238331 2.2406228 0.2997371 4294967295
2.9273748 2.2690933 0.25899118 4294967295
2.915 2.2485192 0.27447045 4294967295
2.927444 2.2649057 0.23946661 4294967295
2.9335999 2.2356343 0.23206511 4294967295
2.9259999 2.2015593 0.22829211 4294967295
2.925 2.1883445 0.22274104 4294967295
2.9272857 2.2026737 0.20067114 4294967295
2.9229999 2.1868527 0.21276921 4294967295
2.928 2.2245798 0.16807684 4294967295
2.9215 2.2162447 0.18242243 4294967295
2.9315 2.2272389 0.15405712 4294967295
2.9193332 2.2134764 0.13863844 4294967295
2.928 2.2109928 0.11372918 4294967295
2.9315 2.223834 0.079239696 4294967295
2.925 2.2121091 0.093797565 4294967295
2.9262855 2.2310262 0.053360164 4294967295
2.9236155 2.2248852 0.024332136 4294967295
2.925313 2.2305746 -0.0042458177 4294967295
2.9315 2.2510405 -0.039787948 4294967295
2.9238331 2.2440045 -0.028134286 4294967295
2.9294 2.25283 -0.066571295 4294967295
2.928 2.2517536 -0.096868098 4294967295
2.9349999 2.2503271 -0.13239127 4294967295
2.915 2.241756 -0.11441916 4294967295
2.9350002 2.2503271 -0.14941555 4294967295
2.9215 2.2399764 -0.16327488 4294967295
2.9175999 2.2369862 -0.18606895 4294967295
2.9200001 2.237124 -0.21544582 4294967295
2.9259996 2.2358758 -0.24616891 4294967295
2.9226665 2.2419853 -0.27882487 4294967295
2.9276361 2.255779 -0.30519325 4294967295
2.915 2.2485192 -0.30379146 4294967295
2.9315 2.2510405 -0.3288632 4294967295
2.9229999 2.2424605 -0.33387464 4294967295
2.927 2.2362671 -0.36377746 4294967295
2.9226665 2.2386036 -0.39637554 4294967295
2.9236667 2.2337167 -0.42155862 4294967295
2.961 0.7863366 2.1495478 4294967295
2.94525 -0.88521576 2.1477022 4294967295
2.9419999 0.78129089 2.1288524 4294967295
2.9598 -0.88958889 2.1248465 4294967295
2.961 -0.88994956 2.0945876 4294967295
2.9589999 -0.89392382 2.0694952 4294967295
2.9419999 -0.89789081 2.0469413 4294967295
2.9536667 -0.91172749 2.0381424 4294967295
2.9526665 0.77727282 2.0045371 4294967295
2.9549999 -0.92928284 2.0125518 4294967295
2.961 0.7725966 1.9674921 4294967295
2.9579999 -0.92679125 1.9660186 4294967295
2.961 -0.93116969 1.9812322 4294967295
2.9463332 0.76876962 1.9466603 4294967295
2.9509997 -0.9156816 1.9434074 4294967295
2.9532499 -0.90303081 1.9123037 4294967295
2.9579999 0.76495069 1.8871074 4294967295
2.9419999 -0.89789081 1.8899444 4294967295
2.957 0.76469213 1.8626209 4294967295
2.9419999 -0.89789081 1.8524017 4294967295
2.9549999 -0.90185839 1.8445771 4294967295
2.9419999 0.76763898 1.8148592 4294967295
2.9514999 -0.8973552 1.8224533 4294967295
2.9549999 -0.90185839 1.834293 4294967295
2.9514999 0.76325881 1.7916263 4294967295
2.9548333 -0.8846584 1.7964953 4294967295
2.9484999 0.75222492 1.7664047 4294967295
2.9589999 0.73545313 1.7605529 4294967295
2.9526665 0.70877057 1.7556123 4294967295
2.957 -0.8910327 1.7597144 4294967295
2.9419999 0.73009628 1.7465997 4294967295
2.9419999 0.71985739 1.7465997 4294967295
2.9579999 0.52817148 1.7464075 4294967295
2.9514999 -0.8973552 1.7402996 4294967295
2.9549999 -0.90185839 1.7280233 4294967295
2.9549999 0.53106737 1.697171 4294967295
2.9549999 -0.90185839 1.7040271 4294967295
2.9549999 0.57906008 1.6697465 4294967295
2.9419999 0.5560348 1.6715143 4294967295
2.9419999 0.53555697 1.6851662 4294967295
2.9549999 -0.90185839 1.6731746 4294967295
2.9467499 1.753401 1.6306343 4294967295
2.9419999 1.3546699 1.6305587 4294967295
2.9517651 1.3369979 1.6386615 4294967295
2.9547777 1.3072259 1.6399428 4294967295
2.948333 1.2846146 1.6329348 4294967295
2.9574001 -0.90259093 1.6432253 4294967295
2.9550002 2.1388235 1.6011854 4294967295
2.9500837 2.1130049 1.6039422 4294967295
2.950875 2.0861933 1.6047995 4294967295
2.9580002 1.8939214 1.6022831 4294967295
2.9538574 1.8780353 1.6115383 4294967295
2.9515002 1.8452402 1.6170138 4294967295
2.9420002 1.8154211 1.6169068 4294967295
2.9555628 1.7822044 1.6176635 4294967295
2.9587898 1.756956 1.6155771 4294967295
2.9495833 1.7288606 1.6140233 4294967295
2.9548001 1.4195138 1.6024776 4294967295
2.9496362 1.3923882 1.6041929 4294967295
2.9535503 1.3644289 1.6160598 4294967295
2.961 1.3496786 1.6205559 4294967295
2.9568892 1.2715762 1.6193984 4294967295
2.9492218 1.2523146 1.6097029 4294967295
2.9521999 -0.90785348 1.6138337 4294967295
2.9522002 2.2333827 1.5768642 4294967295
2.9580004 2.2079117 1.5834079 4294967295
2.9505 2.1743529 1.5892657 4294967295
2.9568334 2.1447136 1.5961336 4294967295
2.961 2.1191213 1.5965108 4294967295
2.9610004 2.0828083 1.5925851 4294967295
2.9506667 2.0558097 1.5904635 4294967295
2.9562004 2.0265179 1.5851614 4294967295
2.9492502 1.9969358 1.5793973 4294967295
2.9548335 1.9672886 1.5748394 4294967295
2.9510837 1.933987 1.5780602 4294967295
2.9518003 1.90661 1.5872165 4294967295
2.9582729 1.7845942 1.5861624 4294967295
2.9463334 1.7554351 1.5843492 4294967295
2.9419999 1.7255461 1.5888447 4294967295
2.9532499 1.4729033 1.5765575 4294967295
2.9538574 1.4555799 1.5875366 4294967295
2.9536667 1.4342729 1.59383 4294967295
2.9610002 1.2638032 1.5839157 4294967295
2.9497998 1.2439728 1.5835319 4294967295
2.9499998 -0.91402137 1.589069 4294967295
2.951143 2.266607 1.5557593 4294967295
2.9420002 2.2420423 1.5691252 4294967295
2.9610002 1.9336308 1.5690306 4294967295
2.9610002 1.9198908 1.5690306 4294967295
2.961 1.8718007 1.5484205 4294967295
2.9610002 1.8065354 1.5655956 4294967295
2.950125 1.785367 1.5617497 4294967295
2.9420002 1.7608136 1.5691252 4294967295
2.9505553 1.4810622 1.5592382 4294967295
2.961 1.4115089 1.5552906 4294967295
2.9598 1.4013189 1.5493777 4294967295
2.9573998 1.2684457 1.5608935 4294967295
2.9452498 1.245985 1.5600302 4294967295
2.961 0.57336581 1.5621606 4294967295
2.9526665 0.55119002 1.5500916 4294967295
2.961 0.53214568 1.5415505 4294967295
2.948333 -0.91578031 1.5531371 4294967295
2.9536002 2.2618427 1.5335159 4294967295
2.9538574 2.2363689 1.5185215 4294967295
2.9610002 2.2153018 1.5140705 4294967295
2.9526665 0.52265233 1.5261191 4294967295
2.961 -0.89681959 1.5278105 4294967295
2.9579999 -0.90620202 1.5370805 4294967295
2.9420002 2.2215645 1.5076917 4294967295
2.9534287 2.2096212 1.4943988 4294967295
2.9506664 0.50517964 1.4923284 4294967295
2.9514999 -0.88365924 1.5040112 4294967295
2.9610002 2.2221718 1.4556754 4294967295
2.9526668 2.2136195 1.4694102 4294967295
2.9575713 0.76092005 1.4580249 4294967295
2.9467497 0.73641109 1.4597212 4294967295
2.9472001 0.50231349 1.4615533 4294967295
2.9514999 -0.88024622 1.4663582 4294967295
2.9610002 2.2221718 1.4419353 4294967295
2.9485002 2.2162037 1.4346001 4294967295
2.954 0.76774275 1.4370759 4294967295
2.9419999 0.74716115 1.4462583 4294967295
