# .PCD v0.7 - Point Cloud Data file format
VERSION 0.7
FIELDS x y z rgb
SIZE 4 4 4 4
TYPE F F F U
COUNT 1 1 1 1
WIDTH 1151
HEIGHT 1
VIEWPOINT 0 0 0 1 0 0 0
POINTS 1151
DATA ascii
2.6541331 2.2036979 0.3838881 4294967295
2.6544287 2.2063162 0.35493186 4294967295
2.6659999 0.86572725 0.34802103 4294967295
2.6546111 2.2084713 0.32686061 4294967295
2.655 0.87139529 0.33949053 4294967295
2.6553335 0.86533535 0.33741838 4294967295
2.6515 2.1949422 0.30692166 4294967295
2.6514094 2.1738036 0.29416454 4294967295
2.6569998 2.1584146 0.28592569 4294967295
2.6488335 2.2245007 0.25591654 4294967295
2.6530557 2.2061567 0.26369143 4294967295
2.6552501 2.1782868 0.27246875 4294967295
2.658 2.1581988 0.27761644 4294967295
2.6508002 2.2267647 0.23706648 4294967295
2.6627271 2.2167964 0.2328195 4294967295
2.6545217 2.2058339 0.2059001 4294967295
2.6544285 2.2019219 0.17412391 4294967295
2.65325 2.2020428 0.14210576 4294967295
2.6535883 2.1993289 0.113242 4294967295
2.6460001 2.2251937 0.074073225 4294967295
2.6552 2.2038333 0.084924906 4294967295
2.6508098 2.2271836 0.056567639 4294967295
2.66044 2.2062185 0.054438293 4294967295
2.6643333 2.1787934 0.043164968 4294967295
2.6498001 2.2246976 0.037362903 4294967295
2.6525002 2.2055619 0.025800765 4294967295
2.6567402 2.1760063 0.024089038 4294967295
2.6588945 2.1486909 0.027852684 4294967295
2.6538148 2.205296 -0.0050158501 4294967295
2.6612222 2.185163 0.0015255213 4294967295
2.6533334 2.2559862 -0.048235834 4294967295
2.6556153 2.230901 -0.038776934 4294967295
2.6588333 2.2123227 -0.027825713 4294967295
2.6551054 2.2733586 -0.065465868 4294967295
2.6659999 2.2482033 -0.050948501 4294967295
2.6549473 2.2654543 -0.092989385 4294967295
2.6565833 2.2387002 -0.10439593 4294967295
2.6512225 2.2251387 -0.12329996 4294967295
2.6626666 2.2186191 -0.1284886 4294967295
2.654609 2.2254536 -0.15428257 4294967295
2.6515834 2.2237368 -0.18012863 4294967295
2.6567273 2.2168312 -0.19015938 4294967295
2.653667 2.2043612 -0.21483731 4294967295
2.6470001 2.1922576 -0.23112434 4294967295
2.6517143 2.1825347 -0.24563956 4294967295
2.652267 2.2017295 -0.27979642 4294967295
2.6551111 2.184247 -0.26696527 4294967295
2.6552105 2.2137947 -0.30380732 4294967295
2.654182 2.2141528 -0.33561057 4294967295
2.688 -0.90144676 2.0211339 4294967295
2.671 0.74030876 2.0023444 4294967295
2.6819999 -0.89943457 2.0115604 4294967295
2.688 -0.9014467 2.002424 4294967295
2.671 0.74030876 1.9744573 4294967295
2.6866665 -0.90514868 1.9767389 4294967295
2.6844997 0.7417022 1.9436175 4294967295
2.6829998 -0.91532844 1.9467487 4294967295
2.6849997 0.74105799 1.9135219 4294967295
2.6989999 -0.89887351 1.9020342 4294967295
2.6871428 -0.9127174 1.9146498 4294967295
2.6794999 0.74162102 1.8858215 4294967295
2.6837499 -0.8852194 1.8817652 4294967295
2.677 -0.90396893 1.8969802 4294967295
2.6864998 0.74693227 1.8558924 4294967295
2.6841109 -0.87868506 1.8535601 4294967295
2.6810002 0.74930078 1.8243884 4294967295
2.6831667 -0.89359576 1.8306268 4294967295
2.6834002 -0.90488267 1.8168248 4294967295
2.6833999 0.75245041 1.7894393 4294967295
2.6819999 0.74958026 1.8031001 4294967295
2.6843748 -0.91346216 1.7940806 4294967295
2.6990001 1.8032401 1.7548738 4294967295
2.6854289 1.7856988 1.7606796 4294967295
2.6851251 1.75344 1.7664199 4294967295
2.6810002 1.7269284 1.7585393 4294967295
2.6710005 1.7008711 1.7534245 4294967295
2.6710002 1.6605895 1.7513587 4294967295
2.6990001 1.580934 1.7517427 4294967295
2.6828887 0.75881934 1.7623458 4294967295
2.6829998 -0.91609669 1.7654252 4294967295
2.684375 1.8129306 1.7286998 4294967295
2.6770003 1.7978582 1.7417027 4294967295
2.6990001 1.7437497 1.7298253 4294967295
2.6850836 1.7233468 1.7344781 4294967295
2.671 1.6981168 1.7368988 4294967295
2.671 1.6636878 1.7425057 4294967295
2.6828501 1.6044379 1.730978 4294967295
2.6807001 1.5745429 1.7458677 4294967295
2.6850834 1.5442055 1.7412168 4294967295
2.6817999 1.5148319 1.7308056 4294967295
2.6861537 1.48757 1.7237992 4294967295
2.671 1.452984 1.7203729 4294967295
2.6989999 1.355497 1.720432 4294967295
2.6989999 1.3492348 1.720432 4294967295
2.687 1.1837417 1.7270247 4294967295
2.6854997 1.1561812 1.7374709 4294967295
2.6836667 1.1250203 1.7350538 4294967295
2.685818 1.095637 1.7372171 4294967295
2.6846426 1.0661941 1.736715 4294967295
2.6814284 1.034256 1.7277035 4294967295
2.671 1.0098859 1.7203729 4294967295
2.688 0.81362337 1.7217507 4294967295
2.6856668 0.79671198 1.7348379 4294967295
2.6822855 0.77277005 1.744102 4294967295
2.6812725 -0.91444957 1.7323196 4294967295
2.6990001 2.200886 1.6953834 4294967295
2.6832225 2.1772776 1.7030309 4294967295
2.6834288 2.1450243 1.7121543 4294967295
2.6822858 2.1169972 1.7049631 4294967295
2.6746669 2.0962296 1.6971895 4294967295
2.6710002 1.9549552 1.6955842 4294967295
2.6740003 1.9369842 1.6976749 4294967295
2.6710002 1.9146736 1.6955842 4294967295
2.6878462 1.8358243 1.7015535 4294967295
2.6788001 1.8226758 1.7139317 4294967295
2.6860003 1.717692 1.7146392 4294967295
2.6819339 1.693288 1.707834 4294967295
2.6792309 1.6659342 1.7011037 4294967295
2.6842 1.6337006 1.7017957 4294967295
2.6838574 1.6156403 1.7136856 4294967295
2.6819999 1.4745245 1.7190937 4294967295
2.6881998 1.4527704 1.7110319 4294967295
2.6787372 1.4267701 1.7028897 4294967295
2.6798182 1.395027 1.6943662 4294967295
2.6816998 1.36733 1.707755 4294967295
2.6822855 1.3319553 1.7147593 4294967295
2.6841109 1.3030348 1.7054906 4294967295
2.6833999 1.2779329 1.6960582 4294967295
2.6822498 1.2475075 1.6974158 4294967295
2.6836665 1.2154684 1.7078978 4294967295
2.6766665 1.1952245 1.7167093 4294967295
2.6844668 1.0031414 1.7085444 4294967295
2.6781247 0.98306215 1.6955969 4294967295
2.688 0.84480649 1.6905931 4294967295
2.6801665 0.82265639 1.7079028 4294967295
2.6813335 -0.91787446 1.7032049 4294967295
2.6890004 2.2251608 1.6660627 4294967295
2.6848669 2.2076259 1.6809109 4294967295
2.6990004 2.1069541 1.687034 4294967295
2.6842728 2.0824165 1.6832899 4294967295
2.6894999 2.0558317 1.6818751 4294967295
2.6847777 2.0231507 1.6767058 4294967295
2.6846669 1.9934794 1.6678435 4294967295
2.6806252 1.9622506 1.6720666 4294967295
2.6802175 1.9360127 1.6763839 4294967295
2.6745005 1.9104626 1.6769502 4294967295
2.6710002 1.8619976 1.6645983 4294967295
2.6830459 1.8460371 1.6734251 4294967295
2.6955998 1.4200813 1.6888932 4294967295
2.6819999 1.4060749 1.6879802 4294967295
2.687222 0.96994406 1.6853867 4294967295
2.685333 0.9457137 1.6811068 4294967295
2.6868 0.91300434 1.6776029 4294967295
2.6889999 0.88254416 1.6785507 4294967295
2.6786668 0.854303 1.682384 4294967295
2.6809998 -0.92189342 1.6771666 4294967295
2.6857693 2.2337062 1.6474178 4294967295
2.6942859 1.9594961 1.6486665 4294967295
2.6815 1.9368763 1.6468801 4294967295
2.6710002 1.9103357 1.6509645 4294967295
2.6845005 1.8713872 1.6473243 4294967295
2.6850002 1.8561795 1.6581383 4294967295
2.6805711 -0.92026037 1.6402367 4294967295
2.6807272 2.2374279 1.6161752 4294967295
2.6855717 1.9317962 1.6254364 4294967295
2.6796665 1.903247 1.6213282 4294967295
2.6803334 1.8871473 1.625066 4294967295
2.6935 0.62468845 1.621114 4294967295
2.6795001 0.54372394 1.6029605 4294967295
2.6824284 0.53630894 1.6205879 4294967295
2.6989999 -0.88948029 1.6014514 4294967295
2.6811111 -0.91087633 1.611557 4294967295
2.6807144 2.2428379 1.5834525 4294967295
2.6823332 0.54429895 1.588563 4294967295
2.6877999 -0.86519933 1.5819995 4294967295
2.6804738 -0.88417459 1.5822483 4294967295
2.671 -0.9050414 1.5933309 4294967295
2.6990001 2.250983 1.5544853 4294967295
2.6776998 2.2419064 1.5525264 4294967295
2.67975 -0.88584322 1.5564252 4294967295
2.689909 2.2547157 1.5166647 4294967295
2.6817503 2.2438374 1.5292045 4294967295
2.6894996 -0.89257866 1.5258694 4294967295
2.6873915 2.26757 1.4959295 4294967295
2.6800997 -0.89568204 1.4943774 4294967295
2.68325 2.2575359 1.4685616 4294967295
2.6896667 2.2426608 1.459897 4294967295
2.6841109 -0.89598066 1.4639888 4294967295
2.6828949 2.2299862 1.4360933 4294967295
2.6820002 2.218137 1.4204042 4294967295
2.688 0.53921217 1.4224186 4294967295
2.6766665 -0.89764601 1.4434465 4294967295
2.6877499 -0.9060334 1.43012 4294967295
2.6775718 2.2215536 1.4055815 4294967295
2.6860771 2.2176533 1.4054701 4294967295
2.6864998 0.52954066 1.4063113 4294967295
2.6808751 -0.91382146 1.4052511 4294967295
2.6831541 2.2233748 1.3796036 4294967295
2.6878181 2.2115746 1.3684933 4294967295
2.6843998 0.51482147 1.3776302 4294967295
2.6989999 -0.89887351 1.3634901 4294967295
2.6814284 -0.90723664 1.3748841 4294967295
2.6800001 2.1996634 1.3538196 4294967295
2.6835001 2.1820014 1.3399611 4294967295
2.6989999 0.51010799 1.3572279 4294967295
2.6823332 0.50695807 1.3396195 4294967295
2.6842859 -0.89217371 1.3442086 4294967295
2.671 -0.90194285 1.3547395 4294967295
2.6935003 2.1948357 1.3086514 4294967295
2.6773751 2.1832457 1.3179057 4294967295
2.6819999 0.75580299 1.3021729 4294967295
2.688 0.73878396 1.316396 4294967295
2.677 0.71712738 1.3193481 4294967295
2.6834283 -0.88744676 1.3154724 4294967295
2.6920002 2.1967337 1.2832334 4294967295
2.6770003 2.1891575 1.2862222 4294967295
2.6801248 -0.89491636 1.2845074 4294967295
2.6990001 2.1946239 1.2601647 4294967295
2.6780002 2.1844413 1.2533574 4294967295
2.6834998 -0.90304035 1.2559023 4294967295
2.6710002 2.2338283 1.2153032 4294967295
2.682286 2.1964016 1.2189755 4294967295
2.6786671 2.1863689 1.2338691 4294967295
2.6878569 -0.89514768 1.2227962 4294967295
2.671 -0.90194285 1.2369932 4294967295
2.6727145 2.2228558 1.1958139 4294967295
2.6832504 2.2108424 1.1974717 4294967295
2.682333 -0.89054537 1.1950722 4294967295
2.6826251 2.2131858 1.1654127 4294967295
2.6834002 -0.89615983 1.1705863 4294967295
2.6916666 -0.9026764 1.1551006 4294967295
2.6827273 2.2040091 1.1348829 4294967295
2.6757998 -0.90356374 1.1327348 4294967295
2.6844003 2.1939485 1.1110333 4294967295
2.6765001 2.1856372 1.0987396 4294967295
2.6904998 -0.89915401 1.095521 4294967295
2.6841667 -0.90326214 1.1097519 4294967295
2.6916668 2.196985 1.0676774 4294967295
2.6767502 2.1842916 1.0786231 4294967295
2.6827497 -0.89396513 1.0741566 4294967295
2.6990001 2.2259345 1.0378587 4294967295
2.6805716 2.2080636 1.0440907 4294967295
2.6819999 -0.89943457 1.0594878 4294967295
2.6828179 -0.91101384 1.0466347 4294967295
2.6874545 2.230576 1.0152216 4294967295
2.6847775 -0.9114213 1.0157279 4294967295
2.6851249 2.2284961 0.98457283 4294967295
2.6819999 -0.89943457 0.97859275 4294967295
2.6781249 -0.90201008 0.98336774 4294967295
2.688 2.2230992 0.95467222 4294967295
2.6731999 2.2158167 0.95475781 4294967295
2.6989999 0.51010799 0.96897525 4294967295
2.6799998 0.50402516 0.94964719 4294967295
2.6822855 -0.89507401 0.94929904 4294967295
2.6795001 -0.90169483 0.9657315 4294967295
2.6878886 2.2299266 0.92485833 4294967295
2.671 2.2152367 0.93952882 4294967295
2.6868 0.49781626 0.93079013 4294967295
2.6797776 -0.88901019 0.92363358 4294967295
2.6883998 2.2390115 0.89546162 4294967295
2.6777999 0.49988836 0.89708531 4294967295
2.6822855 -0.89507401 0.90129244 4294967295
2.6809998 -0.90375412 0.88976741 4294967295
2.683538 2.2323208 0.86533785 4294967295
2.688 0.50179243 0.87983274 4294967295
2.6865001 -0.89781904 0.85782063 4294967295
2.6814997 -0.90547222 0.87118506 4294967295
2.6786668 2.2215819 0.84750849 4294967295
2.6831536 2.2099693 0.83177042 4294967295
2.671 0.50481606 0.82178247 4294967295
2.6797776 -0.89591479 0.83659238 4294967295
2.6812501 2.2089417 0.8050611 4294967295
2.6823332 0.50695807 0.81060749 4294967295
2.6795001 -0.89859623 0.81341457 4294967295
2.6989999 -0.90513569 0.79363531 4294967295
2.6867998 2.2277002 0.77245212 4294967295
2.6764998 2.216687 0.78514421 4294967295
2.6803334 0.51486468 0.77723944 4294967295
2.6819999 -0.89943457 0.77324367 4294967295
2.6851666 -0.90256464 0.77043098 4294967295
2.6989999 2.250983 0.73101389 4294967295
2.6825881 2.237642 0.74436986 4294967295
2.688 0.53297555 0.74262714 4294967295
2.6842499 -0.91419423 0.74697894 4294967295
2.6989999 -0.93018425 0.73101389 4294967295
2.6825237 2.2564769 0.71549493 4294967295
2.6896665 2.247339 0.71361923 4294967295
2.6819999 0.53800851 0.72968483 4294967295
2.675833 -0.92736912 0.71470475 4294967295
2.6990001 -0.93018425 0.71848965 4294967295
2.674 2.2518442 0.6980387 4294967295
2.6828179 2.2391672 0.6952371 4294967295
2.6839998 2.2091916 0.68313658 4294967295
2.677 0.53700554 0.67339402 4294967295
2.6833634 -0.91855645 0.68621016 4294967295
2.6829998 2.1963897 0.65427828 4294967295
2.6866152 0.52501941 0.65238023 4294967295
2.6967998 0.34701952 0.64324343 4294967295
2.6934998 0.31741244 0.64413631 4294967295
2.6962497 -0.01823426 0.64556658 4294967295
2.6945996 -0.047150563 0.64627397 4294967295
2.6989999 -0.069139935 0.64334393 4294967295
2.6847775 -0.89481837 0.65169752 4294967295
2.6767499 -0.90387458 0.66561991 4294967295
2.6989999 2.2259345 0.61203325 4294967295
2.6831429 2.2083948 0.62484348 4294967295
2.6865716 0.52258122 0.62466007 4294967295
2.6973073 0.37114799 0.62449002 4294967295
2.6848798 0.34548295 0.62400299 4294967295
2.6844397 0.31426921 0.62398607 4294967295
2.6969995 0.29242077 0.62732416 4294967295
2.6989999 0.0028746799 0.6370818 4294967295
2.6944709 -0.017713333 0.62879038 4294967295
2.6891818 -0.046772033 0.62586796 4294967295
2.6941109 -0.070757009 0.6299203 4294967295
2.6989999 -0.29457697 0.61203325 4294967295
2.6825883 -0.88570184 0.62283117 4294967295
2.6845829 2.2285645 0.59233296 4294967295
2.677 0.54321665 0.59264976 4294967295
2.6845455 0.52433985 0.59597695 4294967295
2.6873634 0.49598882 0.58443749 4294967295
2.6989996 0.46836048 0.58176625 4294967295
2.6989999 0.44748664 0.58072251 4294967295
2.6990001 0.34103024 0.60577106 4294967295
2.6989999 0.31911275 0.60577106 4294967295
2.6935 0.19348764 0.58059877 4294967295
2.6989999 0.16882139 0.58072251 4294967295
2.6989999 -0.0065185307 0.58072251 4294967295
2.6989999 -0.29457697 0.60264003 4294967295
2.6989999 -0.30397019 0.60264003 4294967295
2.6967998 -0.8330605 0.58192545 4294967295
2.6867499 -0.85612625 0.58919072 4294967295
2.6757779 -0.87871081 0.59572911 4294967295
2.6796 2.2335496 0.56474257 4294967295
2.6787999 0.46277088 0.57405281 4294967295
2.6819999 0.43533406 0.57411736 4294967295
2.684 0.4055545 0.57312489 4294967295
2.671 0.37467542 0.56769824 4294967295
2.6859999 0.34664363 0.57213235 4294967295
2.6843998 0.31428075 0.57416582 4294967295
2.6902001 0.28373262 0.57428282 4294967295
2.6849999 0.25049677 0.57107931 4294967295
2.6784999 0.22552077 0.56991529 4294967295
2.6756001 0.19530605 0.57398826 4294967295
2.6733997 0.16411041 0.57394385 4294967295
2.6855998 0.13371757 0.5729506 4294967295
2.677 0.10533435 0.56780541 4294967295
2.6814284 0.076606557 0.57056463 4294967295
2.6868 0.046501305 0.57421422 4294967295
2.6819999 0.015301968 0.57411736 4294967295
2.6841111 -0.017219935 0.5714013 4294967295
2.6821249 -0.047700096 0.56323946 4294967295
2.6809998 -0.074893989 0.55855262 4294967295
2.6845996 -0.10303465 0.56359494 4294967295
2.6811111 -0.13261811 0.56512296 4294967295
2.6835551 -0.16387078 0.56447649 4294967295
2.6812 -0.19622095 0.56165957 4294967295
2.6800001 -0.22721137 0.56164092 4294967295
2.6795001 -0.25514731 0.56163311 4294967295
2.6800001 -0.28318313 0.56164092 4294967295
2.6855998 -0.31493151 0.56172794 4294967295
2.6878886 -0.3477492 0.56454098 4294967295
2.6863635 -0.374504 0.56912172 4294967295
2.6841667 -0.40089685 0.5700165 4294967295
2.6906664 -0.43517619 0.5670166 4294967295
2.6846001 -0.46426991 0.56794113 4294967295
2.6855998 -0.49562874 0.5729506 4294967295
2.6790001 -0.52548426 0.57405686 4294967295
2.6855998 -0.55792063 0.57170606 4294967295
2.6849999 -0.58583647 0.56483978 4294967295
2.6935 -0.60645205 0.56185067 4294967295
2.6768 -0.67411822 0.55538052 4294967295
2.681 -0.70626283 0.55543607 4294967295
2.6851246 -0.73538071 0.55861849 4294967295
2.6815 -0.76705575 0.56322974 4294967295
2.6793749 -0.79441601 0.56552386 4294967295
2.6844997 -0.82551545 0.57106137 4294967295
2.6739998 -0.85021371 0.57395595 4294967295
2.684818 2.2306325 0.5396136 4294967295
2.6764998 2.216687 0.52432692 4294967295
2.6812 2.2056439 0.50566894 4294967295
2.6877999 2.1942239 0.48317605 4294967295
2.6766 2.1813703 0.4709121 4294967295
2.6855998 2.1961539 0.43338072 4294967295
2.6773751 2.1832457 0.44667771 4294967295
2.6836665 2.2096303 0.41486993 4294967295
2.6836247 2.2124634 0.38578683 4294967295
2.677 0.87240481 0.37526137 4294967295
2.6989999 2.2259345 0.34589225 4294967295
2.6822855 2.213917 0.35809305 4294967295
2.671 0.87044948 0.36938861 4294967295
2.6839287 0.85775083 0.35576227 4294967295
2.6990001 2.2259345 0.33023691 4294967295
2.6817272 2.2077079 0.31957036 4294967295
2.6823332 0.85545933 0.33763218 4294967295
2.6849999 2.1925361 0.30630261 4294967295
2.6841109 2.1790328 0.29667115 4294967295
2.671 2.159462 0.28262815 4294967295
2.6758571 2.2024066 0.25381219 4294967295
2.6828177 2.1780548 0.2640357 4294967295
2.677 2.2202129 0.23551172 4294967295
2.6847999 2.2113955 0.23656067 4294967295
2.6832223 2.2035615 0.20648921 4294967295
2.6823077 2.2068894 0.17725235 4294967295
2.6796665 2.2113597 0.14853761 4294967295
2.6863635 2.2098367 0.11468801 4294967295
2.682214 2.2005115 0.082055032 4294967295
2.6818461 2.196918 0.060062617 4294967295
2.6822853 2.1765573 0.047814757 4294967295
2.6831665 2.153697 0.042915821 4294967295
2.6827331 2.1456897 0.027220011 4294967295
2.671 2.1935465 -0.014836252 4294967295
2.6825557 2.1763742 -0.0046978593 4294967295
2.6766665 2.1578245 0.0088703632 4294967295
2.671 2.2214339 -0.045822144 4294967295
2.6816254 2.2053471 -0.034581304 4294967295
2.6833999 2.2815337 -0.07583946 4294967295
2.6867995 2.2661362 -0.068300247 4294967295
2.682333 2.2335069 -0.063355148 4294967295
2.6889997 2.2139285 -0.058993638 4294967295
2.6904998 2.2813289 -0.084276438 4294967295
2.6862857 2.2646859 -0.087920547 4294967295
2.6870742 2.234549 -0.095161974 4294967295
2.6815 2.223927 -0.122697 4294967295
2.6802144 2.2233081 -0.15481526 4294967295
2.6856921 2.2254889 -0.18409294 4294967295
2.6989999 2.2259345 -0.21456927 4294967295
2.680125 2.2126856 -0.21488398 4294967295
2.6799998 2.1978209 -0.24048847 4294967295
2.674 2.1867042 -0.25429279 4294967295
2.6871428 2.1974335 -0.27811569 4294967295
2.671 2.1842508 -0.26892048 4294967295
2.677 2.2202129 -0.31417036 4294967295
2.6829 2.2132618 -0.30417621 4294967295
2.6854999 2.2251663 -0.33238077 4294967295
2.6819999 2.218137 -0.34684187 4294967295
2.688 2.2230737 -0.35188669 4294967295
2.6896667 2.218224 -0.35347295 4294967295
2.704 0.74318147 2.0269325 4294967295
2.7176666 -0.90509033 2.0314 4294967295
2.704 0.74318147 2.0049744 4294967295
2.7160001 -0.90453523 2.0052629 4294967295
2.704 0.74318147 1.9736056 4294967295
2.7165 -0.91205484 1.9761139 4294967295
2.704 0.74318147 1.9547844 4294967295
2.70825 -0.91922671 1.9413157 4294967295
2.7160001 -0.89823371 1.9107392 4294967295
2.7193334 -0.91195083 1.9250609 4294967295
2.7131999 0.74571007 1.8841012 4294967295
2.7121999 -0.88186854 1.889915 4294967295
2.704 0.74945521 1.8449939 4294967295
2.7145998 -0.88265663 1.8596245 4294967295
2.7176666 0.75324309 1.8170068 4294967295
2.7039998 0.74945521 1.8293096 4294967295
2.7125001 -0.89707619 1.8365622 4294967295
2.7098002 -0.90749496 1.8233157 4294967295
2.7136669 0.75632626 1.7920253 4294967295
2.7193334 -0.91826403 1.8051836 4294967295
2.72 1.8115875 1.7613288 4294967295
2.7145004 1.7852571 1.773504 4294967295
2.712286 1.7577341 1.7622935 4294967295
2.7156 0.76274872 1.7656169 4294967295
2.7155001 -0.91853803 1.7639811 4294967295
2.7160003 1.8303521 1.7248424 4294967295
2.7147782 1.823221 1.7344354 4294967295
2.7210002 1.7705898 1.7365303 4294967295
2.7125559 1.7560098 1.7341402 4294967295
2.7151542 1.6068678 1.7368163 4294967295
2.7121255 1.5744467 1.746711 4294967295
2.7148755 1.5429766 1.733777 4294967295
2.7125456 1.5167711 1.7258741 4294967295
2.7160003 1.3577334 1.7216916 4294967295
2.7160001 1.2001936 1.7216916 4294967295
2.7136669 1.1844658 1.7290466 4294967295
2.7146001 1.1567307 1.7374402 4294967295
2.7133331 1.1255631 1.7330902 4294967295
2.7171819 1.0975449 1.7371111 4294967295
2.714 1.0639139 1.7333908 4294967295
2.7098002 1.0364906 1.7239674 4294967295
2.7146001 0.81789494 1.7223269 4294967295
2.7150831 0.79557574 1.736498 4294967295
2.7154999 0.7746976 1.7466623 4294967295
2.7193334 -0.91826403 1.7420982 4294967295
2.7150004 2.2041247 1.6974494 4294967295
2.7147145 2.1749983 1.7089672 4294967295
2.7139003 2.1443942 1.7018551 4294967295
2.7080004 2.1265366 1.6930107 4294967295
2.7128751 1.8353164 1.7010295 4294967295
2.7181668 1.8254925 1.7100239 4294967295
2.7156 1.7507014 1.7164687 4294967295
2.7106252 1.7260984 1.7106564 4294967295
2.7145004 1.6981174 1.7042249 4294967295
2.7147782 1.6636541 1.6987474 4294967295
2.7131429 1.6332774 1.7028804 4294967295
2.7161252 1.6153736 1.7114944 4294967295
2.721 1.5085926 1.7175907 4294967295
2.7144001 1.4828825 1.7140439 4294967295
2.7122002 1.4571434 1.6973419 4294967295
2.7119999 1.4291222 1.6905516 4294967295
2.7122858 1.3963156 1.7020712 4294967295
2.7112503 1.3726522 1.7148678 4294967295
2.7124999 1.3318487 1.7148886 4294967295
2.7184999 1.3053701 1.705451 4294967295
2.7098002 1.2728789 1.700087 4294967295
2.7131999 1.2430162 1.7066001 4294967295
2.71275 1.2121298 1.7147388 4294967295
2.721 1.1960899 1.7175907 4294967295
2.7160001 1.0237494 1.7153901 4294967295
2.7127004 1.0061421 1.6975653 4294967295
2.7160001 0.87251133 1.6901838 4294967295
2.7131999 0.85272658 1.6965271 4294967295
2.7096665 0.83484662 1.7084069 4294967295
2.7136669 -0.92264664 1.7143499 4294967295
2.7156003 2.2314289 1.6717345 4294967295
2.7096667 2.215858 1.6832594 4294967295
2.7210002 2.1304412 1.6860247 4294967295
2.7164288 2.1124475 1.6822562 4294967295
2.715667 2.0852909 1.6837393 4294967295
2.7142503 2.0527339 1.6815538 4294967295
2.7157145 2.0236802 1.6720525 4294967295
2.7155001 2.0001166 1.6631784 4294967295
2.7185004 1.8667303 1.6628747 4294967295
2.7138577 1.8455354 1.6766616 4294967295
2.721 1.4549304 1.6860247 4294967295
2.704 1.4301562 1.6850135 4294967295
2.721 0.99722463 1.6860247 4294967295
2.7147143 0.97556466 1.6851237 4294967295
2.72 0.94321817 1.6855961 4294967295
2.7185001 0.91430664 1.6849533 4294967295
2.721 0.89621371 1.6860247 4294967295
2.704 -0.92563373 1.6693292 4294967295
2.7193336 2.2553229 1.6411415 4294967295
2.707 2.2403815 1.6533271 4294967295
2.7136672 1.9861745 1.6534833 4294967295
2.7074289 1.9726357 1.6460918 4294967295
2.7155001 1.8993168 1.6364112 4294967295
2.715667 1.8815728 1.6501373 4294967295
2.7040002 1.8599075 1.6599185 4294967295
2.721 0.61527699 1.6418325 4294967295
2.7125001 0.53467679 1.6383083 4294967295
2.7136669 -0.92263544 1.6482328 4294967295
2.7153335 2.2603965 1.6101004 4294967295
2.7040002 2.2488794 1.6191392 4294967295
2.7142503 1.9566945 1.6280229 4294967295
2.7146003 1.9301775 1.6265972 4294967295
2.7210002 1.9157929 1.6292061 4294967295
2.7185001 0.54533046 1.6124156 4294967295
2.7153332 0.53629076 1.6247916 4294967295
2.7193334 -0.86568505 1.6053938 4294967295
2.7156 -0.88549775 1.6106257 4294967295
2.7108002 -0.9078303 1.6200212 4294967295
2.7128336 2.2614682 1.584955 4294967295
2.7116663 -0.86533171 1.5886959 4294967295
2.7136667 -0.87647295 1.573743 4294967295
2.7165005 2.2571669 1.5548756 4294967295
2.7040002 2.2488794 1.5469912 4294967295
2.7136669 -0.88801777 1.5569457 4294967295
2.7188573 2.2576287 1.5228966 4294967295
2.7040002 2.2488794 1.5313069 4294967295
2.721 -0.89357406 1.528195 4294967295
2.7108846 2.2586887 1.4973434 4294967295
2.7125003 2.246479 1.4841284 4294967295
2.7135997 -0.89744002 1.5002581 4294967295
2.7131431 2.2411802 1.4654768 4294967295
2.721 1.1234882 1.4776897 4294967295
2.7112498 -0.89666271 1.4710946 4294967295
2.7160001 -0.90453529 1.4507236 4294967295
2.712667 2.2277508 1.4338388 4294967295
2.721 0.54583192 1.4398105 4294967295
2.721 0.53636217 1.4240277 4294967295
2.7154999 -0.91065925 1.4348145 4294967295
2.7156365 2.2258987 1.4036348 4294967295
2.7160001 0.51962262 1.4003109 4294967295
2.7136667 -0.91529834 1.4037621 4294967295
2.7130001 2.2233093 1.3851739 4294967295
2.7133756 2.2070835 1.3727012 4294967295
2.7136669 0.51288003 1.374383 4294967295
2.7154999 -0.89491457 1.3686496 4294967295
2.71 -0.90568089 1.3795102 4294967295
2.7148335 2.1969965 1.3463777 4294967295
2.721 0.50795281 1.3387996 4294967295
2.7148333 -0.88629568 1.345338 4294967295
2.7155001 2.2064621 1.3150896 4294967295
2.7154999 -0.88861418 1.3150936 4294967295
2.7082503 2.2037137 1.2815572 4294967295
2.7136669 -0.89746201 1.2925065 4294967295
2.71 -0.90253705 1.2757497 4294967295
2.7185004 2.2020679 1.2549992 4294967295
2.7197499 -0.90578413 1.2595493 4294967295
2.7119095 2.195961 1.2245114 4294967295
2.7179999 -0.8951118 1.2243896 4294967295
2.704 -0.90053874 1.2395779 4294967295
2.7176669 2.2224131 1.1864619 4294967295
2.7126253 2.2119799 1.1962361 4294967295
2.7142501 -0.8929258 1.1950831 4294967295
2.7197502 2.2241168 1.1648951 4294967295
2.7040002 2.2175107 1.1674299 4294967295
2.7125001 -0.89707619 1.1757486 4294967295
2.7185001 -0.90536785 1.1645913 4294967295
2.7160003 2.2210503 1.1450968 4294967295
2.7096667 2.2116754 1.1279218 4294967295
2.704 -0.90681249 1.1360612 4294967295
2.7112505 2.2045846 1.1062784 4294967295
2.7185001 -0.89590389 1.0952101 4294967295
2.7136667 -0.90375817 1.1099439 4294967295
2.7160003 2.2210503 1.0600253 4294967295
2.7155001 2.2096188 1.0803828 4294967295
2.7136667 -0.89185858 1.0742437 4294967295
2.7193336 2.2363908 1.041764 4294967295
2.7040002 2.2175107 1.0513656 4294967295
2.7122858 -0.91048974 1.0475909 4294967295
2.7210002 2.2503917 1.010514 4294967295
2.7136669 2.2422223 1.02598 4294967295
2.7155998 -0.91195512 1.015831 4294967295
2.7210002 2.2503917 0.99788767 4294967295
2.7142501 2.2416556 0.98095345 4294967295
2.7125001 0.51265949 0.98067105 4294967295
2.721 0.50795281 0.97263491 4294967295
2.7160001 -0.90453523 0.98440641 4294967295
2.7105718 2.233674 0.95292711 4294967295
2.7142501 0.50353909 0.95576334 4294967295
2.7156668 -0.89497072 0.95284915 4294967295
2.704 -0.90053874 0.96353328 4294967295
2.721 2.2503917 0.91581631 4294967295
2.7142501 2.2447994 0.92429543 4294967295
2.704 0.49850559 0.91648018 4294967295
2.71 -0.88996172 0.92363369 4294967295
2.7160001 2.2525582 0.89618421 4294967295
2.7185001 0.5011788 0.90598863 4294967295
2.7185001 -0.89906049 0.89968121 4294967295
2.7112498 -0.90452176 0.8876574 4294967295
2.721 2.2503917 0.8779372 4294967295
2.7133753 2.2385631 0.8611865 4294967295
2.7155998 0.50694478 0.86461204 4294967295
2.7193334 -0.8993361 0.85879385 4294967295
2.7185001 -0.90536785 0.87445748 4294967295
2.7129998 2.2233093 0.84068549 4294967295
2.7167501 2.218497 0.83008838 4294967295
2.721 0.50795281 0.84637123 4294967295
2.721 -0.89988726 0.84637123 4294967295
2.7125001 -0.90336961 0.82331473 4294967295
2.7142501 2.2243314 0.80306423 4294967295
2.704 2.2175107 0.80355287 4294967295
2.704 0.51105303 0.80041599 4294967295
2.7125001 2.2351706 0.77612358 4294967295
2.7160001 0.52592421 0.76385093 4294967295
2.7179999 -0.90520132 0.77664989 4294967295
2.7185001 2.2514751 0.73253846 4294967295
2.71225 2.2415657 0.74726415 4294967295
2.7132001 -0.91744763 0.745969 4294967295
2.721 -0.93145317 0.73273391 4294967295
2.7130003 2.2552009 0.71951926 4294967295
2.7105713 2.2408535 0.70496452 4294967295
2.721 0.54583192 0.72642076 4294967295
2.71 -0.9276877 0.7035864 4294967295
2.721 -0.93145311 0.72010756 4294967295
2.7136667 2.225425 0.69227916 4294967295
2.7096665 2.215858 0.6815396 4294967295
2.7125001 0.54412681 0.68487829 4294967295
2.7160001 0.53852737 0.67562878 4294967295
2.7145002 -0.91347992 0.68289584 4294967295
2.7146001 2.2136068 0.65664333 4294967295
2.7106249 0.51938343 0.65882289 4294967295
2.721 0.50795281 0.65066254 4294967295
2.7155001 0.37226602 0.64803737 4294967295
2.7112224 0.34397134 0.65369517 4294967295
2.712286 0.31573498 0.65294802 4294967295
2.714875 0.28869367 0.64643395 4294967295
2.721 0.15441453 0.64434934 4294967295
2.721 0.066029951 0.64434934 4294967295
2.7174375 0.04506588 0.65167344 4294967295
2.7084758 0.015456785 0.65396357 4294967295
2.712364 -0.013129123 0.65769601 4294967295
2.7160001 -0.04436909 0.65672398 4294967295
2.7130001 -0.075510874 0.65200269 4294967295
2.7185001 -0.098026559 0.64738977 4294967295
2.7210004 -0.22631907 0.65114814 4294967295
2.7210004 -0.2530728 0.64894074 4294967295
2.7193332 -0.65256864 0.64918214 4294967295
2.7205002 -0.67375278 0.65063852 4294967295
2.7155004 -0.89333975 0.65591955 4294967295
2.704 -0.90053874 0.66866744 4294967295
2.7142498 2.2274878 0.62357408 4294967295
2.704 0.51105303 0.62161434 4294967295
2.7176666 0.50382453 0.62247741 4294967295
2.721 0.43061635 0.6143617 4294967295
2.7132633 0.4041388 0.62180698 4294967295
2.7057147 0.38403019 0.6248256 4294967295
2.7119286 0.27973002 0.62281328 4294967295
2.7205002 0.264846 0.62538928 4294967295
2.7210004 0.21697246 0.62139231 4294967295
2.7182224 0.19455247 0.62390572 4294967295
2.7173998 0.1668185 0.62527311 4294967295
2.7194376 0.13775882 0.62574315 4294967295
2.721 0.10811785 0.62751418 4294967295
2.7210002 0.073132291 0.63093382 4294967295
2.7194376 0.046673134 0.63086748 4294967295
2.7160525 0.014174002 0.62720066 4294967295
2.7085001 -0.012029259 0.61549753 4294967295
2.7039998 -0.049401175 0.61220372 4294967295
2.707273 -0.079349265 0.62030262 4294967295
2.7172353 -0.099839233 0.62711245 4294967295
2.721 -0.2306897 0.63803613 4294967295
2.7202311 -0.26120844 0.62974977 4294967295
2.7157001 -0.28442183 0.62490016 4294967295
2.713846 -0.31387991 0.61981642 4294967295
2.7185001 -0.34165049 0.61506414 4294967295
2.721 -0.65367305 0.63803613 4294967295
2.721 -0.66945601 0.63803613 4294967295
2.7185001 -0.86436695 0.6126982 4294967295
2.7142498 -0.87954509 0.62279075 4294967295
2.7140002 2.2410021 0.59274405 4294967295
2.704 0.51105303 0.60592997 4294967295
2.7112503 0.49458736 0.60040152 4294967295
2.712786 0.46415192 0.59273118 4294967295
2.7153158 0.4339433 0.5930441 4294967295
2.7169998 0.40634182 0.59373343 4294967295
2.7143204 0.37446183 0.59364772 4294967295
2.7105999 0.34374797 0.59071755 4294967295
2.7122774 0.31473863 0.59184527 4294967295
2.7191501 0.28868335 0.59473497 4294967295
2.721 0.26016036 0.58753067 4294967295
2.7167332 0.21972865 0.59205508 4294967295
2.7131763 0.19581336 0.59586382 4294967295
2.7153809 0.16608839 0.59610134 4294967295
2.719125 0.14090131 0.58512104 4294967295
2.721 0.094439283 0.58121753 4294967295
2.7185001 0.075436167 0.58116126 4294967295
2.7161002 0.047013957 0.58426386 4294967295
2.7161179 0.014016493 0.58927631 4294967295
2.7150867 -0.016822372 0.59478378 4294967295
2.7151575 -0.043862477 0.59400511 4294967295
2.7187274 -0.069362007 0.60066086 4294967295
2.7185001 -0.11378825 0.58116126 4294967295
2.7199998 -0.13594659 0.581195 4294967295
2.721 -0.26856881 0.60647023 4294967295
2.7136471 -0.28709257 0.59326762 4294967295
2.7096496 -0.31711513 0.59351993 4294967295
2.7163475 -0.34483895 0.59289473 4294967295
2.7153158 -0.37344584 0.59038651 4294967295
2.7190001 -0.40211582 0.58243513 4294967295
2.7179999 -0.50034034 0.58241266 4294967295
2.7115557 -0.52417582 0.58381087 4294967295
2.7155001 -0.55154556 0.58425033 4294967295
2.7164285 -0.79887331 0.58832192 4294967295
2.7109089 -0.82221091 0.5955894 4294967295
2.7112224 -0.85120481 0.603365 4294967295
2.721 2.2503917 0.56543452 4294967295
2.704 2.2426057 0.56515068 4294967295
2.704 0.39185196 0.5745613 4294967295
2.704 0.37303075 0.5745613 4294967295
2.7039998 0.25382966 0.5745613 4294967295
2.704 0.23187156 0.5745613 4294967295
2.704 0.12208109 0.5745613 4294967295
2.7087998 0.10345987 0.57465816 4294967295
2.704 0.084438644 0.5745613 4294967295
2.7079999 -0.048430175 0.57255077 4294967295
2.7117779 -0.074008606 0.57192993 4294967295
2.7099998 -0.1018987 0.57363671 4294967295
2.704 -0.13514231 0.5745613 4294967295
2.7132001 -0.16707985 0.57349217 4294967295
2.7142501 -0.19549584 0.5684706 4294967295
2.721 -0.21806334 0.56859112 4294967295
2.721 -0.26541221 0.56859112 4294967295
2.7144001 -0.28679684 0.57162756 4294967295
2.7064002 -0.31735948 0.57147282 4294967295
2.7064004 -0.34372869 0.57335496 4294967295
2.704 -0.36099699 0.5745613 4294967295
2.7039998 -0.41118693 0.5745613 4294967295
2.721 -0.4358682 0.57490432 4294967295
2.7199998 -0.46410227 0.57488412 4294967295
2.704 -0.48333496 0.5745613 4294967295
2.7176666 -0.58140796 0.5727365 4294967295
2.7096665 -0.61529404 0.56420624 4294967295
2.7064004 -0.64387524 0.56205112 4294967295
2.7130003 -0.67377198 0.56215364 4294967295
2.7119999 -0.70497704 0.56213808 4294967295
2.7125001 -0.73662239 0.56530249 4294967295
2.7133751 -0.7651602 0.57161009 4294967295
2.7087998 -0.79527771 0.57465816 4294967295
2.704 -0.81270641 0.5745613 4294967295
2.721 2.2503917 0.54965156 4294967295
2.7112 2.2397606 0.53695273 4294967295
2.7154999 2.2269318 0.51335752 4294967295
2.7080002 2.214499 0.49923646 4294967295
2.7116668 2.1996775 0.47196028 4294967295
2.7116668 2.1986253 0.4446851 4294967295
2.7142498 2.2259097 0.40946117 4294967295
2.7160001 2.2115979 0.42671621 4294967295
2.7146251 2.2285769 0.38817653 4294967295
2.7145002 2.2303152 0.35538712 4294967295
2.7165999 2.2303636 0.3252241 4294967295
2.7136669 2.2149279 0.31451285 4294967295
2.7176666 2.1971874 0.29739338 4294967295
2.704 2.1798682 0.2859692 4294967295
2.7185001 2.1947086 0.25633392 4294967295
2.7096665 2.1844232 0.26663122 4294967295
2.7160001 2.2210503 0.22506553 4294967295
2.712364 2.211772 0.23489699 4294967295
2.714 2.2141633 0.20533466 4294967295
2.7185001 2.2230947 0.16802472 4294967295
2.7107999 2.2155273 0.17846671 4294967295
2.7140002 2.2280641 0.14421538 4294967295
2.7184999 2.2278237 0.11599025 4294967295
2.704 2.2175107 0.11030442 4294967295
2.7160001 2.2210503 0.095883071 4294967295
2.7172499 2.2157681 0.079931051 4294967295
2.7130001 2.2033036 0.061289459 4294967295
2.7133749 2.1764038 0.049868405 4294967295
2.7160001 2.1580346 0.029716402 4294967295
2.7132857 2.1765544 -0.0062141418 4294967295
2.7127001 2.206387 -0.035776854 4294967295
2.71 2.2239926 -0.072939932 4294967295
2.7141998 2.2145276 -0.05622834 4294967295
2.7163751 2.2355323 -0.095613658 4294967295
2.7133751 2.2354226 -0.12640625 4294967295
2.7115557 2.2334836 -0.15367079 4294967295
2.7172999 2.2378705 -0.18486476 4294967295
2.7122002 2.2330432 -0.21437854 4294967295
2.7185001 2.2262454 -0.23880446 4294967295
2.70825 2.2131341 -0.25008315 4294967295
2.7125001 2.2087381 -0.28115845 4294967295
2.7136669 2.2254291 -0.31089377 4294967295
2.7125001 2.2181683 -0.30003881 4294967295
2.7157142 2.2370152 -0.33972973 4294967295
2.7156 2.2282763 -0.36021906 4294967295
2.756 0.75107908 2.0527148 4294967295
2.744 -0.90749377 2.0524077 4294967295
2.756 0.75107908 2.0335317 4294967295
2.7379999 -0.90550947 2.0331752 4294967295
2.7440002 0.74780875 2.0014753 4294967295
2.7455001 -0.90639126 2.0054545 4294967295
2.7382498 0.74624175 1.9761441 4294967295
2.7443001 -0.9184162 1.976141 4294967295
2.733 0.744811 1.9448082 4294967295
2.756 -0.89867365 1.9312212 4294967295
2.7425714 -0.91608453 1.9452257 4294967295
2.7359998 0.74562854 1.9146252 4294967295
2.7422001 -0.89033717 1.9152348 4294967295
2.733 -0.90385592 1.9257851 4294967295
2.7502499 0.75109732 1.8836097 4294967295
2.744 0.74780875 1.8964272 4294967295
2.7427998 -0.88164181 1.88626 4294967295
2.7349999 0.75170177 1.8570046 4294967295
2.74125 -0.89386111 1.858471 4294967295
2.744 -0.90112722 1.848678 4294967295
2.7460001 0.75472504 1.8273195 4294967295
2.7418747 -0.91474456 1.8269587 4294967295
2.7403336 0.7595256 1.7928306 4294967295
2.7444999 -0.92356503 1.7937157 4294967295
2.7465458 1.8152884 1.7653284 4294967295
2.73875 1.789027 1.766169 4294967295
2.7411664 0.76823407 1.7635568 4294967295
2.7441998 -0.92156214 1.7672672 4294967295
2.7364583 1.8155587 1.7347158 4294967295
2.7352223 1.7883093 1.7323126 4294967295
2.73808 1.6025414 1.7350076 4294967295
2.7418852 1.5781589 1.7331197 4294967295
2.7341113 1.5479345 1.726884 4294967295
2.7330003 1.5247573 1.7228723 4294967295
2.75 1.3906879 1.7207768 4294967295
2.7420001 1.3637186 1.7223685 4294967295
2.7394373 1.1827369 1.7284772 4294967295
2.7391577 1.1562343 1.7285826 4294967295
2.7429287 1.122071 1.7258593 4294967295
2.7446878 1.0978345 1.7331713 4294967295
2.7441819 1.0644522 1.7306682 4294967295
2.7357502 1.0438886 1.7240763 4294967295
2.756 0.84060055 1.7202064 4294967295
2.7420001 0.82487202 1.721729 4294967295
2.7445626 0.79730791 1.7339126 4294967295
2.743 0.77680522 1.7450823 4294967295
2.741333 -0.92356616 1.7339641 4294967295
2.756 -0.93064564 1.7202064 4294967295
2.7330003 2.22227 1.6911671 4294967295
2.7421 2.2048373 1.6982312 4294967295
2.7383077 2.1762488 1.701741 4294967295
2.7330003 2.1525187 1.6932808 4294967295
2.7346668 1.8344692 1.6939949 4294967295
2.7382419 1.8153107 1.7047901 4294967295
2.7448237 1.7872009 1.7141986 4294967295
2.7431822 1.7566518 1.7140284 4294967295
2.7431004 1.7244868 1.7082081 4294967295
2.7420001 1.6935792 1.7029657 4294967295
2.7464004 1.6628504 1.6981716 4294967295
2.7417142 1.633661 1.6971563 4294967295
2.7431998 1.6059489 1.706127 4294967295
2.7546673 1.5751959 1.7111 4294967295
2.7470002 1.5456554 1.7145008 4294967295
2.7464287 1.5140299 1.7072047 4294967295
2.7383571 1.4891725 1.7043453 4294967295
2.7406666 1.4505705 1.6923211 4294967295
2.741375 1.4252644 1.6987273 4294967295
2.7407999 1.3993871 1.7123057 4294967295
2.7408569 1.3319958 1.7136023 4294967295
2.7433336 1.3013748 1.7061938 4294967295
2.7393997 1.2740798 1.7066214 4294967295
2.7452497 1.2449431 1.71233 4294967295
2.7415335 1.2131605 1.7121888 4294967295
2.7493684 1.1867263 1.7085718 4294967295
2.7483203 1.1552938 1.7043487 4294967295
2.74775 1.1289487 1.7086276 4294967295
2.7436361 1.0335898 1.7078604 4294967295
2.7346668 1.0159819 1.6939949 4294967295
2.756 0.90454447 1.6946288 4294967295
2.7454 0.88704187 1.6952019 4294967295
2.7441428 0.8542577 1.7068528 4294967295
2.7455001 0.81987953 1.7156233 4294967295
2.733 -0.92922002 1.7038491 4294967295
2.7379999 -0.93091995 1.6933097 4294967295
2.7512004 2.2574921 1.6683234 4294967295
2.7442005 2.2338932 1.6815336 4294967295
2.7440002 2.2152979 1.6895143 4294967295
2.7486668 2.1726499 1.6858256 4294967295
2.7428465 2.1426315 1.6821535 4294967295
2.7452729 2.1123674 1.6836776 4294967295
2.7432501 2.0857933 1.6868002 4294967295
2.7428892 2.0521007 1.6762966 4294967295
2.7401431 2.0264409 1.6669654 4294967295
2.7449334 1.8719189 1.6652718 4294967295
2.7448237 1.8452665 1.6808648 4294967295
2.7440002 1.8205721 1.6895143 4294967295
2.7440002 1.6232091 1.6895143 4294967295
2.756 1.5081749 1.6831189 4294967295
2.75072 1.4851221 1.6770446 4294967295
2.7465713 1.4604061 1.6878738 4294967295
2.756 1.1731088 1.6786429 4294967295
2.7549093 1.1555033 1.6773084 4294967295
2.75 1.0238041 1.6888744 4294967295
2.7436666 1.005538 1.6829928 4294967295
2.7449284 0.97732157 1.6844419 4294967295
2.7455001 0.94569188 1.6877557 4294967295
2.7409997 0.91551328 1.6882356 4294967295
2.73575 -0.92856336 1.67012 4294967295
2.747 -0.93078279 1.6812013 4294967295
2.7397778 2.2637982 1.648152 4294967295
2.7515004 2.0154629 1.6511996 4294967295
2.7385001 1.9948158 1.6433105 4294967295
2.7485001 1.9319614 1.6372262 4294967295
2.744143 1.9011468 1.6486434 4294967295
2.7410002 1.8885337 1.6564378 4294967295
2.756 0.80543137 1.6434737 4294967295
2.733 0.59896737 1.6531209 4294967295
2.745625 0.52846038 1.6408279 4294967295
2.7559998 -0.88375342 1.6328164 4294967295
2.743 -0.91670358 1.6455973 4294967295
2.7560003 2.2857325 1.6242906 4294967295
2.7395003 2.2752242 1.6176827 4294967295
2.7380002 1.9627017 1.6297834 4294967295
2.7380002 1.9436438 1.6297834 4294967295
2.7485001 0.54816169 1.6180916 4294967295
2.7409999 0.53712475 1.6278161 4294967295
2.7449999 -0.86084133 1.6127149 4294967295
2.7382498 -0.88970244 1.6251197 4294967295
2.733 -0.90385592 1.6277568 4294967295
2.7560003 2.2857325 1.5955157 4294967295
2.7425714 2.2745743 1.5825227 4294967295
2.733 0.54823917 1.5960517 4294967295
2.7440002 -0.86504543 1.5961336 4294967295
2.7453334 -0.8792609 1.5817968 4294967295
2.7396927 2.2604609 1.55419 4294967295
2.7443333 -0.8948651 1.5548676 4294967295
2.7395334 2.2580779 1.5248841 4294967295
2.7460001 -0.89722455 1.523798 4294967295
2.7413001 2.2525313 1.5026393 4294967295
2.7471669 2.2454464 1.4890207 4294967295
2.747 1.146981 1.4868407 4294967295
2.7483337 1.122021 1.491573 4294967295
2.7354999 1.104085 1.4827931 4294967295
2.7432222 -0.89802992 1.4968195 4294967295
2.7426319 2.2397933 1.4655414 4294967295
2.7379999 -0.89915681 1.4773204 4294967295
2.7431667 -0.90403032 1.463212 4294967295
2.7409089 2.2333169 1.4367063 4294967295
2.744 0.54407918 1.4444022 4294967295
2.75 0.5356912 1.4336557 4294967295
2.7403998 -0.91647571 1.4336493 4294967295
2.7420774 2.2296319 1.4048388 4294967295
2.7395997 0.52158833 1.4079601 4294967295
2.7458572 -0.91355175 1.4036038 4294967295
2.7330003 2.22227 1.3867979 4294967295
2.7424002 2.2114491 1.3757796 4294967295
2.744 0.51224643 1.3680036 4294967295
2.7461112 -0.89118934 1.3732533 4294967295
2.7379999 -0.90550947 1.3883836 4294967295
2.7560003 2.228183 1.3301487 4294967295
2.7406251 2.2093871 1.3462939 4294967295
2.7379999 0.73982096 1.3375626 4294967295
2.7354999 0.51065964 1.3526862 4294967295
2.7407498 -0.88494754 1.3447365 4294967295
2.7466002 2.228224 1.3108087 4294967295
2.7330003 2.215929 1.3233876 4294967295
2.7408001 -0.8937121 1.31423 4294967295
2.7443335 2.2229688 1.2884703 4294967295
2.7397501 2.2182188 1.2808714 4294967295
2.7379999 -0.89915681 1.2994468 4294967295
2.7443333 -0.90441144 1.2853315 4294967295
2.7434444 2.2102382 1.2528893 4294967295
2.756 -0.89867365 1.2406272 4294967295
2.7431667 -0.90509135 1.2553039 4294967295
2.7442503 2.2075286 1.2253401 4294967295
2.7391999 -0.89446598 1.2235262 4294967295
2.7471669 2.2263339 1.1905146 4294967295
2.7383337 2.2149544 1.201062 4294967295
2.7408001 -0.89625365 1.194685 4294967295
2.744 -0.90112722 1.1801906 4294967295
2.7426367 2.23299 1.1653826 4294967295
2.7441666 -0.90859878 1.1653812 4294967295
2.7401428 2.2280667 1.1347481 4294967295
2.7403333 -0.91051233 1.1337335 4294967295
2.7367501 2.2189693 1.1054257 4294967295
2.7454998 -0.89524633 1.0993361 4294967295
2.7383335 -0.90349752 1.1110573 4294967295
2.7430003 2.2316773 1.0717446 4294967295
2.7380002 2.2199829 1.0898101 4294967295
2.7436001 -0.88952053 1.0763344 4294967295
2.7455003 2.2547238 1.0404108 4294967295
2.7385004 2.2394495 1.0549619 4294967295
2.7422996 -0.91265082 1.046164 4294967295
2.7421668 2.2604692 1.0164551 4294967295
2.7440002 0.51861298 1.0083077 4294967295
2.7451668 -0.9131788 1.016989 4294967295
2.7441666 2.2578673 0.98390549 4294967295
2.7414999 0.51336497 0.99036515 4294967295
2.756 0.50809222 0.97845715 4294967295
2.7419999 -0.90470558 0.9814198 4294967295
2.7469997 2.2527742 0.9546423 4294967295
2.733 2.2476342 0.95349437 4294967295
2.7417998 0.50165159 0.9570055 4294967295
2.7465718 -0.89467973 0.95230216 4294967295
2.7425714 2.2609537 0.92440361 4294967295
2.744 0.49951339 0.92869443 4294967295
2.7407501 -0.89289498 0.92425448 4294967295
2.7448001 2.2656062 0.89380872 4294967295
2.7409999 0.50532681 0.89646357 4294967295
2.747 -0.89891523 0.90685141 4294967295
2.7441666 -0.90435636 0.88947189 4294967295
2.7451665 2.2544386 0.87156135 4294967295
2.7428889 2.2387733 0.85889637 4294967295
2.7379999 -0.89915681 0.86111557 4294967295
2.7465999 -0.90324932 0.86472344 4294967295
2.7408888 2.2307935 0.83956814 4294967295
2.7383335 0.51118857 0.83573496 4294967295
2.7423334 -0.90694261 0.83618689 4294967295
2.7448001 2.2388592 0.80464476 4294967295
2.7379999 -0.91186208 0.80076563 4294967295
2.7437859 2.2423739 0.77179039 4294967295
2.7469997 -0.90848595 0.76981056 4294967295
2.7346666 2.2532322 0.73591608 4294967295
2.7422497 2.2358987 0.74665618 4294967295
2.7403998 2.2181118 0.75205469 4294967295
2.7379999 0.54288948 0.74041563 4294967295
2.7418001 -0.91821808 0.74834335 4294967295
2.747 -0.93078279 0.73476666 4294967295
2.743 2.2531044 0.72126496 4294967295
2.7407999 2.2451267 0.70502508 4294967295
2.7479999 0.55124813 0.71357661 4294967295
2.7385001 -0.92790669 0.70233321 4294967295
2.7475998 -0.93290514 0.71696496 4294967295
2.7419996 2.2335558 0.6858685 4294967295
2.744 0.54726249 0.68996626 4294967295
2.7421665 0.52462649 0.67395145 4294967295
2.756 0.50809222 0.67152643 4294967295
2.7559998 0.36741564 0.67152643 4294967295
2.7530003 0.34464926 0.67136145 4294967295
2.756 0.32904929 0.67152643 4294967295
2.756 0.060484905 0.67152643 4294967295
2.7397499 0.044247862 0.67063296 4294967295
2.7457781 0.01566585 0.6745168 4294967295
2.7403998 -0.016164163 0.67066866 4294967295
2.7559998 -0.041825339 0.67152643 4294967295
2.756 -0.2016851 0.67152643 4294967295
2.744 -0.22308986 0.67086661 4294967295
2.7559998 -0.24644583 0.67152643 4294967295
2.7409999 -0.89695877 0.67070168 4294967295
2.7457139 -0.91441929 0.68643045 4294967295
2.7458572 2.229984 0.65640801 4294967295
2.7354999 0.51383018 0.66405249 4294967295
2.7452998 0.50101238 0.65374333 4294967295
2.756 0.42496517 0.64594883 4294967295
2.7447 0.40222052 0.65053123 4294967295
2.7391248 0.37708756 0.6602788 4294967295
2.734 0.34545729 0.66397345 4294967295
2.7367141 0.31132451 0.6623047 4294967295
2.7428334 0.28238863 0.65967768 4294967295
2.7413888 0.25591961 0.65413696 4294967295
2.745111 0.2265497 0.65396315 4294967295
2.7422001 0.19380252 0.65169305 4294967295
2.7432499 0.1646814 0.65280771 4294967295
2.7422223 0.13793325 0.64815342 4294967295
2.7474287 0.10217786 0.64738411 4294967295
2.7404284 0.074684329 0.65478373 4294967295
2.733 0.053639106 0.66180718 4294967295
2.733 -0.02879424 0.66392082 4294967295
2.733 -0.044646807 0.66392082 4294967295
2.7372 -0.073306419 0.66414201 4294967295
2.7390001 -0.10669823 0.65630662 4294967295
2.7434998 -0.13394129 0.65174645 4294967295
2.7552004 -0.16326764 0.65230298 4294967295
2.7400498 -0.19414552 0.65476012 4294967295
2.7337146 -0.22180483 0.65942913 4294967295
2.7367141 -0.2583251 0.66049296 4294967295
2.7426248 -0.28383556 0.65449643 4294967295
2.75 -0.3133699 0.64750159 4294967295
2.756 -0.3359673 0.64594883 4294967295
2.756 -0.47152838 0.64850658 4294967295
2.753 -0.49581322 0.65060753 4294967295
2.756 -0.5226835 0.6472277 4294967295
2.7559998 -0.55337656 0.64594883 4294967295
2.7487998 -0.62335318 0.64817202 4294967295
2.7403336 -0.64294857 0.65583992 4294967295
2.7337146 -0.67938226 0.660335 4294967295
2.7457855 -0.7065146 0.65367675 4294967295
2.756 -0.7260251 0.64914602 4294967295
2.7441816 -0.88727939 0.65408725 4294967295
2.756 2.2537606 0.62037128 4294967295
2.7419999 2.2399108 0.62861776 4294967295
2.7398946 0.49139249 0.62748969 4294967295
2.7454705 0.46455559 0.62263048 4294967295
2.7409375 0.4365488 0.62898421 4294967295
2.7354999 0.41069865 0.63707989 4294967295
2.7330005 0.25021088 0.62587464 4294967295
2.7330003 0.23028201 0.62904519 4294967295
2.733 0.20265321 0.63855672 4294967295
2.7335556 0.13187018 0.62519419 4294967295
2.7343161 0.10308262 0.62526429 4294967295
2.733 0.077417955 0.62217569 4294967295
2.733 0.048002638 0.61601084 4294967295
2.733 0.023202179 0.61572903 4294967295
2.733 -0.1143981 0.62191153 4294967295
2.7422853 -0.13463773 0.62653756 4294967295
2.7560003 -0.16233501 0.62922508 4294967295
2.7496667 -0.19519252 0.63076007 4294967295
2.7426662 -0.22585437 0.62502164 4294967295
2.73475 -0.25141603 0.62117952 4294967295
2.733 -0.29511735 0.63855672 4294967295
2.7371111 -0.31603187 0.63591552 4294967295
2.7418666 -0.34654588 0.63047427 4294967295
2.7437141 -0.37402803 0.62176043 4294967295
2.7487998 -0.40525249 0.62012017 4294967295
2.7560003 -0.43444082 0.62335533 4294967295
2.7552001 -0.46499553 0.63184649 4294967295
2.7520001 -0.49510744 0.63298655 4294967295
2.7553337 -0.52589208 0.6270982 4294967295
2.7539132 -0.55295509 0.6266945 4294967295
2.7560003 -0.58428276 0.62463421 4294967295
2.7511251 -0.61421806 0.63175488 4294967295
2.7442107 -0.64281827 0.62830043 4294967295
2.7438667 -0.67613077 0.62839741 4294967295
2.7507501 -0.70390558 0.63453442 4294967295
2.7497499 -0.79613757 0.62239134 4294967295
