# .PCD v0.7 - Point Cloud Data file format
VERSION 0.7
FIELDS x y z rgb
SIZE 4 4 4 4
TYPE F F F U
COUNT 1 1 1 1
WIDTH 1151
HEIGHT 1
VIEWPOINT 0 0 0 1 0 0 0
POINTS 1151
DATA ascii
2.6544285 -0.89194298 1.9751052 4294967295
2.6543334 0.7356894 1.9438132 4294967295
2.6551666 -0.89659625 1.9442631 4294967295
2.6526 0.73889524 1.9158074 4294967295
2.6496668 -0.89882863 1.9208225 4294967295
2.6596 -0.90055263 1.9077719 4294967295
2.6551816 0.73479271 1.8840628 4294967295
2.6512859 -0.90406823 1.882875 4294967295
2.654 0.73558718 1.8529962 4294967295
2.6553333 -0.91170532 1.8536588 4294967295
2.6486666 0.78942698 1.8209494 4294967295
2.6481059 0.76403564 1.8232584 4294967295
2.653923 0.74172634 1.8235286 4294967295
2.6551425 -0.90978003 1.8267633 4294967295
2.6495717 0.91439855 1.7818722 4294967295
2.6440001 0.89845771 1.7818532 4294967295
2.6520002 0.79041475 1.793967 4294967295
2.6554401 0.7655617 1.7998651 4294967295
2.65925 0.74630201 1.8045547 4294967295
2.6519001 -0.90471607 1.7948548 4294967295
2.6497142 0.93640149 1.7630589 4294967295
2.6596956 0.91773689 1.7678692 4294967295
2.6574545 0.88593256 1.7683545 4294967295
2.6573336 0.85571563 1.7639531 4294967295
2.6547689 0.82440144 1.767555 4294967295
2.6537144 0.80499828 1.774168 4294967295
2.658 -0.89755297 1.7546196 4294967295
2.652 -0.90254903 1.7672025 4294967295
2.6440003 2.2020457 1.720508 4294967295
2.6473336 2.0256698 1.7240665 4294967295
2.6470001 1.9957299 1.7249374 4294967295
2.6440003 1.9720007 1.720508 4294967295
2.6440003 1.7511575 1.720508 4294967295
2.6460001 1.3595706 1.7214161 4294967295
2.650867 1.3329519 1.726486 4294967295
2.6532104 1.3052762 1.7288878 4294967295
2.6538501 1.2752453 1.7378913 4294967295
2.6549506 1.2455872 1.739321 4294967295
2.6524446 1.2179188 1.7308185 4294967295
2.6477499 1.1869215 1.7245113 4294967295
2.6440001 1.1530406 1.720508 4294967295
2.6469998 1.1244084 1.7241706 4294967295
2.6538749 1.0957648 1.7249811 4294967295
2.6542222 1.0668288 1.7230871 4294967295
2.6470001 1.0376676 1.7218702 4294967295
2.6481767 0.93962675 1.7321658 4294967295
2.6587777 0.91683859 1.7354493 4294967295
2.6619999 0.88758337 1.733318 4294967295
2.6643331 0.86621505 1.7256204 4294967295
2.65025 -0.89800328 1.735634 4294967295
2.658 -0.9006272 1.7237718 4294967295
2.6537278 2.222168 1.7025286 4294967295
2.6560669 2.2069504 1.7140633 4294967295
2.6560004 2.1728528 1.7109736 4294967295
2.6530004 2.1449018 1.7021291 4294967295
2.6473336 2.1143939 1.6954013 4294967295
2.6511881 2.0830755 1.6972381 4294967295
2.6557581 2.054136 1.7043552 4294967295
2.6576111 2.0256526 1.7129742 4294967295
2.6576252 1.9944925 1.7124249 4294967295
2.6555002 1.963932 1.7072258 4294967295
2.6535268 1.9356745 1.7040796 4294967295
2.6540527 1.9059106 1.7017162 4294967295
2.6548235 1.8764307 1.6967803 4294967295
2.6548753 1.8457367 1.7034922 4294967295
2.6533337 1.8147943 1.7131093 4294967295
2.6565001 1.7871637 1.7169306 4294967295
2.6559 1.7559524 1.7160437 4294967295
2.6542499 1.724839 1.7105207 4294967295
2.652667 1.6953436 1.7059655 4294967295
2.652334 1.6664141 1.7013025 4294967295
2.6519415 1.6337059 1.6973138 4294967295
2.65275 1.6046076 1.6967669 4294967295
2.6527226 1.5757016 1.6977793 4294967295
2.6548123 1.5457991 1.700766 4294967295
2.6548462 1.5157384 1.7074184 4294967295
2.6545296 1.4864014 1.7122328 4294967295
2.6531909 1.4550222 1.7059073 4294967295
2.6462502 1.4333806 1.7038718 4294967295
2.6528573 1.3595662 1.7042938 4294967295
2.6589999 1.3421848 1.7162069 4294967295
2.6627998 1.2063407 1.7166827 4294967295
2.6587145 1.1841326 1.7144016 4294967295
2.6575785 1.1552281 1.71173 4294967295
2.658417 1.1269422 1.7162536 4294967295
2.655 1.0500368 1.7193424 4294967295
2.6575716 1.034319 1.7178564 4294967295
2.6548574 1.0042191 1.7135476 4294967295
2.654 0.97347093 1.7097958 4294967295
2.6558459 0.94395906 1.7059616 4294967295
2.6510873 0.91423869 1.7060765 4294967295
2.6494451 0.88493532 1.7076217 4294967295
2.6560476 0.85734171 1.7039689 4294967295
2.6541109 -0.90650088 1.7025133 4294967295
2.6556156 2.221899 1.6764901 4294967295
2.6635001 2.2182832 1.6644742 4294967295
2.6660001 2.13377 1.6871979 4294967295
2.65975 2.1123009 1.6849666 4294967295
2.660706 2.086133 1.6834193 4294967295
2.6660001 2.0638731 1.6847237 4294967295
2.6615 1.447816 1.6800708 4294967295
2.6515999 1.4297162 1.6722616 4294967295
2.6567502 1.3835819 1.661566 4294967295
2.6547859 1.3697964 1.6756852 4294967295
2.6659999 0.93686134 1.6871979 4294967295
2.6559334 0.91319847 1.6823717 4294967295
2.6518102 0.8855809 1.6824321 4294967295
2.6545556 0.86233974 1.6855984 4294967295
2.6532857 -0.91881716 1.6759144 4294967295
2.6503336 2.224735 1.642416 4294967295
2.6619232 2.2138779 1.6440758 4294967295
2.6659999 1.5327383 1.6459608 4294967295
2.6659999 1.5224291 1.6480227 4294967295
2.6604998 1.4164016 1.6570059 4294967295
2.6513 1.3985835 1.6573731 4294967295
2.6542308 -0.916161 1.6474583 4294967295
2.6541791 2.2302933 1.6149338 4294967295
2.6610003 2.219291 1.6294432 4294967295
2.6660001 2.1152134 1.6253421 4294967295
2.661 0.60788363 1.6047473 4294967295
2.6500001 0.5930739 1.6064117 4294967295
2.6553333 0.53060585 1.6085936 4294967295
2.6516364 -0.91720951 1.6148981 4294967295
2.6531584 2.2295806 1.5853451 4294967295
2.661 0.61405766 1.5985733 4294967295
2.6470001 0.54327053 1.5775485 4294967295
2.6494999 0.53763634 1.5969794 4294967295
2.654778 -0.92383569 1.5850939 4294967295
2.6554742 2.231205 1.5567625 4294967295
2.655 0.53875238 1.559181 4294967295
2.6542726 -0.92091644 1.5544094 4294967295
2.6560004 2.2406316 1.525233 4294967295
2.6552501 -0.8919974 1.516151 4294967295
2.652 -0.90660113 1.5284734 4294967295
2.6570001 2.2604096 1.495445 4294967295
2.6642859 2.2373369 1.4954078 4294967295
2.6624615 2.2114768 1.4889258 4294967295
2.6510003 -0.88411736 1.4961101 4294967295
2.6514003 2.2580328 1.4710357 4294967295
2.6524549 2.233696 1.462803 4294967295
2.6594448 2.2094102 1.4635661 4294967295
2.6560001 -0.8871932 1.4636104 4294967295
2.6537278 2.2104063 1.434971 4294967295
2.6527143 -0.89576077 1.4351898 4294967295
2.6506672 2.223985 1.3980867 4294967295
2.6548464 2.2155674 1.4103283 4294967295
2.658 0.52086014 1.3969388 4294967295
2.6541665 -0.89728099 1.4079645 4294967295
2.6500001 -0.90099996 1.4035127 4294967295
2.6515865 2.2296624 1.3743408 4294967295
2.6607502 2.2144463 1.3654265 4294967295
2.6536667 0.51385403 1.3739588 4294967295
2.6530004 -0.91391081 1.3741415 4294967295
2.6472728 2.2296124 1.350673 4294967295
2.6537275 2.207052 1.3459926 4294967295
2.6596367 2.1805584 1.3382865 4294967295
2.6659999 0.51005661 1.3593626 4294967295
2.661 0.50910008 1.3516144 4294967295
2.654 -0.92150789 1.3446294 4294967295
2.6460004 2.1975675 1.3264642 4294967295
2.6523216 2.1711481 1.3154929 4294967295
2.6580002 2.1581988 1.3198417 4294967295
2.6520002 -0.91222054 1.3145106 4294967295
2.6440003 2.1989784 1.2788217 4294967295
2.6526432 2.178226 1.2854737 4294967295
2.6500001 0.72219139 1.2928406 4294967295
2.6571999 -0.90961307 1.2825999 4294967295
2.6440003 2.2051129 1.2665527 4294967295
2.6503003 2.1691558 1.2627959 4294967295
2.6552002 2.1577666 1.2462971 4294967295
2.6516666 -0.91694331 1.2564147 4294967295
2.6547 2.1672058 1.2178347 4294967295
2.6552503 2.1575062 1.2327625 4294967295
2.6541665 -0.91883337 1.2252897 4294967295
2.64925 2.1964276 1.1873592 4294967295
2.6551254 2.1835792 1.1984568 4294967295
2.6543334 -0.90759897 1.19454 4294967295
2.6487145 2.1967497 1.1647273 4294967295
2.6580002 2.1890337 1.1656663 4294967295
2.654 -0.89620227 1.1616268 4294967295
2.6500001 -0.90100002 1.17602 4294967295
2.6492732 2.1927352 1.1316855 4294967295
2.6576667 2.1891019 1.1361262 4294967295
2.6552856 -0.89398718 1.1333125 4294967295
2.6543002 2.2035227 1.1056404 4294967295
2.6550002 2.1896467 1.1156572 4294967295
2.6552861 -0.89178675 1.1033928 4294967295
2.6508422 2.2276423 1.0703714 4294967295
2.6563575 2.2149658 1.0776472 4294967295
2.6579168 -0.89289045 1.078271 4294967295
2.6508999 -0.90499204 1.0698304 4294967295
2.6536429 2.2575645 1.0427847 4294967295
2.653286 2.2363029 1.0484304 4294967295
2.656167 2.208739 1.0429953 4294967295
2.654 -0.91672164 1.046661 4294967295
2.6498337 2.2560821 1.0263757 4294967295
2.6492639 2.2324698 1.0182922 4294967295
2.653667 2.2039208 1.015815 4294967295
2.6528571 -0.91515261 1.015806 4294967295
2.6524644 2.2053366 0.98650861 4294967295
2.6537144 -0.90841258 0.98606467 4294967295
2.6538751 2.2053733 0.95454174 4294967295
2.6576002 0.50474286 0.94852889 4294967295
2.6550772 -0.90887171 0.95408493 4294967295
2.6520004 2.2028503 0.92466789 4294967295
2.6569998 2.1892381 0.91472447 4294967295
2.6547275 0.50061125 0.92521381 4294967295
2.6541905 -0.9126693 0.92310435 4294967295
2.6503823 2.204622 0.89269781 4294967295
2.658 2.1890337 0.90356833 4294967295
2.6531665 0.49631223 0.89568198 4294967295
2.6552105 -0.9212352 0.89457428 4294967295
2.6537309 2.2113106 0.86411124 4294967295
2.6607499 0.49670547 0.86691523 4294967295
2.6556156 -0.91806257 0.86411816 4294967295
2.6500001 2.2224138 0.84092939 4294967295
2.6549001 2.2120214 0.83381802 4294967295
2.6552 0.50182992 0.8322928 4294967295
2.6541817 -0.90968513 0.83498466 4294967295
2.6494122 2.1998484 0.81175417 4294967295
2.6551669 2.182075 0.80203092 4294967295
2.648 0.5066129 0.80074775 4294967295
2.6545 -0.90714395 0.80604792 4294967295
2.6517367 2.1749611 0.77621436 4294967295
2.6659999 0.51005661 0.77173293 4294967295
2.6533334 0.50763327 0.78284538 4294967295
2.65675 -0.91870672 0.77393079 4294967295
2.6534376 2.2014217 0.74707603 4294967295
2.655 2.1896467 0.75837415 4294967295
2.6525002 0.51362807 0.75506967 4294967295
2.6470001 -0.92761326 0.75458866 4294967295
2.661 -0.93560988 0.74656492 4294967295
2.6555333 2.2147183 0.71528709 4294967295
2.6553335 -0.94798863 0.70912135 4294967295
2.6508892 2.2217848 0.67873561 4294967295
2.6563001 2.2172029 0.68945557 4294967295
2.6440001 0.5365203 0.67150313 4294967295
2.6527143 -0.95291364 0.68343556 4294967295
2.6492858 2.2222457 0.65424562 4294967295
2.6602221 2.2172649 0.65049362 4294967295
2.6659999 0.54098451 0.6480214 4294967295
2.6569998 0.53915823 0.65169132 4294967295
2.6552 -0.94526803 0.65366566 4294967295
2.6465716 2.2230437 0.62691426 4294967295
2.6542225 2.2083726 0.62077481 4294967295
2.6541665 0.53755236 0.62076926 4294967295
2.6529169 -0.943533 0.62123013 4294967295
2.6534998 2.2037654 0.59509033 4294967295
2.6598461 0.52406234 0.59361452 4294967295
2.6569376 -0.94957918 0.59518868 4294967295
2.6440001 -0.96030533 0.59482145 4294967295
2.6500001 2.2224138 0.55502629 4294967295
2.6546779 2.2060423 0.56919289 4294967295
2.6500001 0.51314402 0.57962012 4294967295
2.6544287 0.49376538 0.57532668 4294967295
2.6532001 0.46451896 0.56492102 4294967295
2.6596 0.43477282 0.56132394 4294967295
2.6659999 0.41418025 0.56142336 4294967295
2.6586001 0.37292254 0.56008148 4294967295
2.658 0.34510374 0.56129909 4294967295
2.6498001 0.3163799 0.56117165 4294967295
2.6606667 0.28884786 0.56649131 4294967295
2.6498001 0.25487956 0.56117165 4294967295
2.6573999 0.22478718 0.56128973 4294967295
2.6573999 0.19396742 0.56128973 4294967295
2.6509998 0.16274364 0.56119031 4294967295
2.6500001 0.13501422 0.56117475 4294967295
2.6500001 0.10734618 0.56117475 4294967295
2.655 0.076748446 0.56125247 4294967295
2.6509998 0.045883603 0.56119031 4294967295
2.6475999 0.015102918 0.5611375 4294967295
2.6530001 -0.015647514 0.56122136 4294967295
2.6517999 -0.046370633 0.557522 4294967295
2.6487999 -0.077078044 0.55501044 4294967295
2.6532001 -0.10675761 0.55630571 4294967295
2.6566248 -0.13045788 0.55743349 4294967295
2.655 -0.16349362 0.55509239 4294967295
2.6533334 -0.19622335 0.55610132 4294967295
2.6551249 -0.22433011 0.5581854 4294967295
2.6620002 -0.25349197 0.55518496 4294967295
2.6558571 -0.46635547 0.55774742 4294967295
2.6564443 -0.49640796 0.56744683 4294967295
2.6548889 -0.52554268 0.57015455 4294967295
2.657778 -0.55352426 0.57089597 4294967295
2.6531665 -0.58504236 0.56635737 4294967295
2.6536665 -0.61183208 0.56328976 4294967295
2.6551669 -0.64504099 0.55920792 4294967295
2.6605999 -0.67621654 0.55516642 4294967295
2.6659999 -0.69613039 0.55523777 4294967295
2.6588333 -0.73434198 0.55514306 4294967295
2.6575003 -0.76481193 0.55821359 4294967295
2.6586666 -0.7918731 0.55720276 4294967295
2.6544285 -0.82683802 0.55596685 4294967295
2.6537144 -0.85211867 0.55947781 4294967295
2.6528571 -0.88438386 0.56298649 4294967295
2.6557779 -0.91732657 0.56879967 4294967295
2.653125 -0.94282967 0.57738334 4294967295
2.6482856 2.2227287 0.53394115 4294967295
2.6566248 2.2148592 0.53739345 4294967295
2.6500001 -0.2677094 0.54887789 4294967295
2.6508002 -0.28622863 0.54520309 4294967295
2.6561999 -0.31763336 0.5415557 4294967295
2.6516666 -0.34476981 0.53762233 4294967295
2.651 -0.37546 0.53658724 4294967295
2.6573999 -0.40410343 0.53662729 4294967295
2.6567142 -0.43481654 0.54279232 4294967295
2.6500001 -0.45216301 0.54887789 4294967295
2.6500001 -0.68272996 0.54887789 4294967295
2.652 -0.70478338 0.54889965 4294967295
2.6464 -0.73398495 0.54883862 4294967295
2.6440001 -0.77320212 0.54881251 4294967295
2.6487999 -0.7961213 0.54886478 4294967295
2.6440001 -0.81614381 0.54881251 4294967295
2.6470001 2.222965 0.51199621 4294967295
2.6539998 2.2148886 0.50473475 4294967295
2.6516252 2.2122328 0.47583833 4294967295
2.6545885 2.2103062 0.44530645 4294967295
2.6540003 2.2216561 0.41071609 4294967295
2.6552 2.2169001 0.42448941 4294967295
2.6517501 2.2215683 0.38815844 4294967295
2.6525002 2.2168062 0.37350893 4294967295
2.6440001 0.86165047 0.37581873 4294967295
2.65435 2.2087958 0.35339835 4294967295
2.6537001 0.85002548 0.3574394 4294967295
2.6465716 2.2256749 0.31988537 4294967295
2.6552069 2.207211 0.32757854 4294967295
2.6564 0.84472972 0.33447149 4294967295
2.6480768 2.2245762 0.29789835 4294967295
2.6577084 2.2098484 0.29639822 4294967295
2.6516001 2.2237492 0.26588953 4294967295
2.6596 2.2119448 0.2712996 4294967295
2.6538825 2.2307246 0.23452955 4294967295
2.6529999 2.2565763 0.19365335 4294967295
2.6544285 2.241652 0.20608413 4294967295
2.6520436 2.2586229 0.17623645 4294967295
2.6581538 2.2415788 0.1680249 4294967295
2.6529167 2.2299714 0.15087274 4294967295
2.6544287 2.2138014 0.13453871 4294967295
2.653923 2.2043762 0.11363485 4294967295
2.6528828 2.2023659 0.084382266 4294967295
2.6474285 2.2246411 0.050430119 4294967295
2.6556072 2.2068503 0.055137962 4294967295
2.6470001 2.222965 0.03603062 4294967295
2.6527421 2.2058306 0.026153713 4294967295
2.6594443 2.1885049 0.019011021 4294967295
2.6524379 2.2050059 -0.0051594377 4294967295
2.6592498 2.1885154 0.0044862628 4294967295
2.6465716 2.2230437 -0.035389066 4294967295
2.6554546 2.2121243 -0.033285618 4294967295
2.6500001 2.2224138 -0.078264296 4294967295
2.6536112 2.2161882 -0.065396905 4294967295
2.6477499 2.2228272 -0.098486423 4294967295
2.6573999 2.2154524 -0.09596014 4294967295
2.6470001 2.222965 -0.11750668 4294967295
2.6537666 2.2087195 -0.12692487 4294967295
2.6529169 2.206881 -0.15380573 4294967295
2.653955 2.2114367 -0.18439305 4294967295
2.6541429 2.2032921 -0.21614003 4294967295
2.6548519 2.198169 -0.24498546 4294967295
2.6539094 2.2021587 -0.27394289 4294967295
2.6541004 2.2101314 -0.30549324 4294967295
2.6539133 2.2136233 -0.33534789 4294967295
2.6586666 2.2111678 -0.35163748 4294967295
2.6935 0.73404622 2.0210743 4294967295
2.6990001 0.73554516 2.0084906 4294967295
2.6896667 -0.8895247 2.015811 4294967295
2.6730001 0.73466134 1.9693397 4294967295
2.6766 -0.89389235 1.9775116 4294967295
2.6811666 0.73690581 1.9457742 4294967295
2.6803334 -0.89887571 1.9453281 4294967295
2.6839998 0.73500443 1.9121355 4294967295
2.6819999 -0.89943457 1.9244428 4294967295
2.6879997 -0.90351713 1.9151199 4294967295
2.6916666 0.73354661 1.8826493 4294967295
2.6831665 -0.90915638 1.8877054 4294967295
2.6754999 0.73534846 1.8496461 4294967295
2.6822 -0.91194797 1.8561001 4294967295
2.6829998 0.73973542 1.8230288 4294967295
2.6831665 -0.90811706 1.8264757 4294967295
2.6862724 0.79213274 1.7855779 4294967295
2.6822143 0.76519614 1.7898514 4294967295
2.6849999 0.74729401 1.804529 4294967295
2.6841667 -0.90430152 1.7937406 4294967295
2.6709998 0.90840715 1.7567813 4294967295
2.6745999 0.88402528 1.7561212 4294967295
2.6834373 0.8511281 1.75669 4294967295
2.6826665 0.82651448 1.7655437 4294967295
2.678 0.8059324 1.7732162 4294967295
2.6786668 -0.89831674 1.7611121 4294967295
2.6795001 -0.90169483 1.7770267 4294967295
2.6990001 1.8345507 1.720432 4294967295
2.6990004 1.8147205 1.720432 4294967295
2.6990001 1.7938468 1.720432 4294967295
2.6833999 1.330229 1.7209461 4294967295
2.6844614 1.3060199 1.7264107 4294967295
2.6859286 1.2745746 1.7332982 4294967295
2.682909 1.2466849 1.7274024 4294967295
2.671 1.2236885 1.7203729 4294967295
2.6859999 1.1142186 1.7208604 4294967295
2.6835999 1.0955805 1.7229147 4294967295
2.6845996 1.0648528 1.7227328 4294967295
2.6745999 0.8790676 1.7455735 4294967295
2.6801 0.85224563 1.7368994 4294967295
2.6967998 0.83630544 1.7307153 4294967295
2.6786668 -0.89831674 1.7424594 4294967295
2.6865001 -0.90249306 1.7273324 4294967295
2.6847501 2.2250578 1.7012333 4294967295
2.6858573 2.2052855 1.7096672 4294967295
2.6829093 2.1758637 1.6979769 4294967295
2.6750002 2.1564851 1.693204 4294967295
2.6734004 2.0423052 1.6966377 4294967295
2.6792176 2.0220356 1.6983739 4294967295
2.6834738 1.9948643 1.6977721 4294967295
2.6846428 1.9666895 1.6962305 4294967295
2.68225 1.9367155 1.6953334 4294967295
2.6805835 1.9059783 1.692017 4294967295
2.6844616 1.8728024 1.696234 4294967295
2.68575 1.8450032 1.7106395 4294967295
2.6776671 1.8138241 1.7171563 4294967295
2.6822002 1.7826781 1.7166911 4294967295
2.6822727 1.7555341 1.7107056 4294967295
2.6816251 1.7278451 1.704915 4294967295
2.6820998 1.6948284 1.7010763 4294967295
2.6816251 1.6609551 1.6963581 4294967295
2.6830001 1.6358777 1.6925546 4294967295
2.6838751 1.60321 1.6911259 4294967295
2.6812727 1.575071 1.6927434 4294967295
2.6767695 1.5430672 1.6966864 4294967295
2.6827393 1.5140277 1.69965 4294967295
2.6810589 1.4866321 1.6992624 4294967295
2.674 1.4670242 1.693799 4294967295
2.6829 1.3586084 1.7001824 4294967295
2.6813333 1.3424755 1.7146403 4294967295
2.6958749 1.2425169 1.7076912 4294967295
2.6858821 1.2150992 1.7076072 4294967295
2.6816468 1.1871996 1.7031776 4294967295
2.6819446 1.154361 1.7000337 4294967295
2.6825554 1.128692 1.7096428 4294967295
2.6861537 1.0335832 1.7132614 4294967295
2.6843159 1.0049096 1.7050227 4294967295
2.6830711 0.97576731 1.6986543 4294967295
2.674 0.95828503 1.693799 4294967295
2.6790001 0.8469516 1.7028198 4294967295
2.6859999 0.83794594 1.7146455 4294967295
2.6829998 -0.90832388 1.7047442 4294967295
2.6812003 2.2236731 1.6838976 4294967295
2.6841669 2.2147138 1.6712722 4294967295
2.6990001 2.1664441 1.6859903 4294967295
2.6850717 2.1432524 1.6746154 4294967295
2.6745389 2.1179307 1.6718342 4294967295
2.6767397 2.0822585 1.6683897 4294967295
2.6820743 2.0554614 1.6801546 4294967295
2.6894286 2.0317204 1.6858586 4294967295
2.6850002 1.6038008 1.6892543 4294967295
2.6930771 1.5745902 1.6769394 4294967295
2.6804996 1.5449126 1.6770692 4294967295
2.6863043 1.5138561 1.6746707 4294967295
2.6944542 1.4867737 1.6843024 4294967295
2.6861997 1.4562429 1.6717069 4294967295
2.6888332 1.384689 1.6691202 4294967295
2.6823332 1.3709749 1.6818973 4294967295
2.6989999 1.2521716 1.6891214 4294967295
2.6947498 0.96572119 1.6872705 4294967295
2.681071 0.94438016 1.6831175 4294967295
2.6838999 0.91886294 1.6763353 4294967295
2.6787498 0.88540655 1.6772349 4294967295
2.6850002 0.86566103 1.686162 4294967295
2.6791108 -0.91365206 1.6756673 4294967295
2.6836193 2.2105515 1.6447872 4294967295
2.6953335 2.1718421 1.6395913 4294967295
2.6862729 2.1434848 1.6473514 4294967295
2.6763892 2.1120548 1.6427505 4294967295
2.6798007 2.0899484 1.6487179 4294967295
2.6911998 1.5676215 1.6507623 4294967295
2.6810002 1.5432942 1.6469046 4294967295
2.6794376 1.5158345 1.6518844 4294967295
2.6787999 1.4261354 1.6579891 4294967295
2.6803331 1.3989776 1.6582259 4294967295
2.6989999 1.3429726 1.6327621 4294967295
2.6849997 -0.91496569 1.6467162 4294967295
2.678813 2.2248099 1.6127726 4294967295
2.6907938 2.2088082 1.6181743 4294967295
2.6845 2.1714072 1.6138018 4294967295
2.6826091 2.1463702 1.6143588 4294967295
2.6780834 2.1196074 1.624133 4294967295
2.6989996 1.3367106 1.6233689 4294967295
2.688 0.60781497 1.6219903 4294967295
2.6789999 0.5299437 1.6158139 4294967295
2.6831665 -0.91953492 1.6179239 4294967295
2.6762855 2.2262652 1.5852518 4294967295
2.6874142 2.2066936 1.5821725 4294967295
2.6837506 2.1739106 1.5859843 4294967295
2.6782503 2.1560011 1.5962427 4294967295
2.687 0.54420215 1.5862294 4294967295
2.6831665 -0.92368376 1.585745 4294967295
2.686667 2.2318943 1.5556303 4294967295
2.6877501 2.2166467 1.5673093 4294967295
2.677 0.53700554 1.5553697 4294967295
2.6823332 -0.91405493 1.5546609 4294967295
2.6827729 2.2328815 1.5273303 4294967295
2.6890001 2.2114201 1.5150859 4294967295
2.6855998 -0.8919009 1.5250306 4294967295
2.671 -0.90194285 1.5344577 4294967295
2.6710005 2.2317624 1.5096689 4294967295
2.6836405 2.203768 1.4959089 4294967295
2.671 -0.88335127 1.4972746 4294967295
2.6826475 2.205837 1.4678409 4294967295
2.6803331 -0.88954741 1.4664729 4294967295
2.6811428 2.2111952 1.4369874 4294967295
2.688 0.53297555 1.4224186 4294967295
2.6847775 -0.89689285 1.4351622 4294967295
2.6857696 2.223139 1.4015362 4294967295
2.6775 2.2164812 1.411638 4294967295
2.6786664 0.5207653 1.4027153 4294967295
2.6851666 -0.89840913 1.4121194 4294967295
2.6859999 -0.90284181 1.3947318 4294967295
2.679143 2.2228587 1.3821523 4294967295
2.6848462 2.2070448 1.3696034 4294967295
2.6786668 0.51248002 1.3757936 4294967295
2.688 0.50802904 1.3600523 4294967295
2.6845999 -0.91524684 1.374553 4294967295
2.6766672 2.1950865 1.3565104 4294967295
2.6845882 2.1740847 1.3439586 4294967295
2.6847141 -0.91990983 1.3447747 4294967295
2.6838183 2.173214 1.3117507 4294967295
2.6710002 2.159462 1.3237537 4294967295
2.6799998 -0.91243941 1.314023 4294967295
2.6858752 2.1808252 1.284605 4294967295
2.681 -0.91153997 1.2863195 4294967295
2.6847777 2.1712725 1.2572858 4294967295
2.6710002 2.159462 1.2431904 4294967295
2.6833334 -0.92166662 1.2589771 4294967295
2.6833999 2.1744583 1.2247531 4294967295
2.6844001 -0.92016095 1.2243838 4294967295
2.6822858 2.1916738 1.1920249 4294967295
2.6758337 2.1861334 1.1958621 4294967295
2.6845996 -0.90652508 1.1920592 4294967295
2.6842501 2.1946762 1.1646376 4294967295
2.6767502 -0.89767396 1.1609149 4294967295
2.688 -0.90144676 1.1791904 4294967295
2.6821537 2.1943116 1.1341933 4294967295
2.6849999 -0.89576024 1.1332753 4294967295
2.6990001 2.2259345 1.094218 4294967295
2.6826158 2.2085762 1.1050942 4294967295
2.6828182 -0.88272315 1.1037941 4294967295
2.6848571 2.2222674 1.0769613 4294967295
2.6780002 2.2163684 1.0695345 4294967295
2.681 -0.88473284 1.0779366 4294967295
2.6849999 -0.90353924 1.0631897 4294967295
2.6832504 2.2082562 1.0452082 4294967295
2.6841109 -0.91397363 1.0502187 4294967295
2.6808751 2.1977513 1.0145475 4294967295
2.6833999 -0.91608495 1.0161775 4294967295
2.6828887 2.2022536 0.98392367 4294967295
2.6849997 -0.90977317 0.98531991 4294967295
2.6838336 2.2030261 0.95503485 4294967295
2.684 0.5010457 0.95404696 4294967295
2.6813333 -0.90646505 0.95567071 4294967295
2.681818 2.1976092 0.92538857 4294967295
2.6822 0.49572602 0.92884398 4294967295
2.6872497 -0.90508181 0.925717 4294967295
2.6833997 2.200604 0.89477414 4294967295
2.6778002 0.49367538 0.89709365 4294967295
2.6839998 -0.91379571 0.89484799 4294967295
2.6989999 2.2259345 0.85625672 4294967295
2.683727 2.2127614 0.8673659 4294967295
2.688 0.49762625 0.86946392 4294967295
2.6844997 -0.91427463 0.86612129 4294967295
2.6989999 2.2259345 0.84686351 4294967295
2.6818998 2.2111902 0.8342011 4294967295
2.6860001 0.50141907 0.84215617 4294967295
2.679714 -0.90665603 0.83786172 4294967295
2.688 2.1950154 0.81121075 4294967295
2.6822 2.1846793 0.79938722 4294967295
2.6989999 0.51010799 0.80302846 4294967295
2.6824999 0.50698954 0.8137396 4294967295
2.6823332 -0.90991449 0.80647141 4294967295
2.6824999 2.1967607 0.76084322 4294967295
2.6808748 2.1814253 0.77625608 4294967295
2.688 0.51426572 0.76444256 4294967295
2.677 -0.91639113 0.7851938 4294967295
2.688 -0.93262982 0.76133698 4294967295
2.6953335 2.227077 0.73698092 4294967295
2.6850002 2.2133212 0.74758822 4294967295
2.671 -0.93292868 0.75361353 4294967295
2.6889999 2.2273819 0.71636003 4294967295
2.671 -0.95152026 0.70403612 4294967295
2.6842003 2.2228363 0.68460202 4294967295
2.6819999 2.218137 0.68301457 4294967295
2.6989999 0.54141873 0.6746546 4294967295
2.6821663 -0.95445448 0.68405932 4294967295
2.6850834 2.2232594 0.65983605 4294967295
2.6807499 2.2170935 0.64406562 4294967295
2.6864998 0.53891128 0.65679115 4294967295
2.6857498 -0.94430387 0.65364349 4294967295
2.6833999 2.2068243 0.62395597 4294967295
2.6989999 0.54141873 0.6370818 4294967295
2.6885624 0.5291732 0.62143451 4294967295
2.6989996 0.096024014 0.63160241 4294967295
2.6989996 0.074889287 0.63395071 4294967295
2.6989996 -0.79469424 0.61772609 4294967295
2.6818664 -0.93670595 0.62389624 4294967295
2.6824999 2.1967604 0.59279907 4294967295
2.6789997 0.51519239 0.60159063 4294967295
2.6879165 0.49812382 0.58879369 4294967295
2.6919999 -0.4999097 0.58056504 4294967295
2.684 -0.52750677 0.58142877 4294967295
2.6866 -0.55189824 0.58169597 4294967295
2.6901999 -0.58385664 0.58052456 4294967295
2.6923997 -0.61558354 0.58057404 4294967295
2.6989996 -0.64659876 0.58340633 4294967295
2.6962497 -0.77597034 0.58927113 4294967295
2.6968002 -0.79489976 0.59318459 4294967295
2.6989999 -0.81276911 0.58698469 4294967295
2.6897776 -0.91866201 0.58259678 4294967295
2.681071 -0.93554354 0.59454298 4294967295
2.6827497 2.2042146 0.56323951 4294967295
2.671 0.48002741 0.57389539 4294967295
2.6847141 0.46291089 0.57151055 4294967295
2.6919999 0.43693924 0.56807327 4294967295
2.6710002 0.3994641 0.56150109 4294967295
2.6849999 0.37657431 0.56484967 4294967295
2.6924 0.34645334 0.56808043 4294967295
2.6752501 0.31631604 0.56777412 4294967295
2.6777999 0.25757062 0.56781965 4294967295
2.6855998 0.22717543 0.56795895 4294967295
2.6878331 0.19410555 0.56904256 4294967295
2.6884999 0.16504575 0.57114184 4294967295
2.6831429 0.13626163 0.5697006 4294967295
2.6822 0.1024218 0.56789827 4294967295
2.6907499 0.074663572 0.56805092 4294967295
2.6819999 0.046415459 0.5678947 4294967295
2.6745999 0.015262533 0.56776255 4294967295
2.6911998 -0.015894061 0.56805897 4294967295
2.6710002 -0.052929722 0.56150109 4294967295
2.671 -0.074619845 0.56150109 4294967295
2.679857 -0.10374926 0.56431514 4294967295
2.6855714 -0.13688847 0.56618583 4294967295
2.6878331 -0.16342808 0.56280631 4294967295
2.6767502 -0.19277073 0.56159043 4294967295
2.6906664 -0.22496954 0.5670166 4294967295
2.6889999 -0.25293756 0.56303316 4294967295
2.6824999 -0.27411094 0.55545592 4294967295
2.6990001 -0.36659163 0.55567396 4294967295
2.6860001 -0.44581994 0.55550218 4294967295
2.685333 -0.46580249 0.56726998 4294967295
2.6766 -0.48898962 0.57276899 4294967295
2.671 -0.5858869 0.57389539 4294967295
2.6756666 -0.61691952 0.57192385 4294967295
2.6822221 -0.64297992 0.57066739 4294967295
2.6878181 -0.67290926 0.56631434 4294967295
2.6872997 -0.70478839 0.56177241 4294967295
2.6861997 -0.73566318 0.56423956 4294967295
2.6804998 -0.76520085 0.57036233 4294967295
2.6794167 -0.79702556 0.56889552 4294967295
2.6843073 -0.82546198 0.56795585 4294967295
2.6862998 -0.85411668 0.5711 4294967295
2.6857498 -0.88200116 0.57186913 4294967295
2.6799998 -0.91118187 0.57407701 4294967295
2.6879997 2.2230821 0.52955121 4294967295
2.6814997 2.2161498 0.54378408 4294967295
2.674 -0.29185191 0.54913938 4294967295
2.684 -0.30851281 0.5492484 4294967295
2.683857 -0.34762639 0.54570359 4294967295
2.6844997 -0.37396222 0.54615128 4294967295
2.6835001 -0.40495822 0.54301673 4294967295
2.6846001 -0.42941025 0.54676819 4294967295
2.688 2.2230992 0.50875396 4294967295
2.6728332 2.2157199 0.50364244 4294967295
2.6989999 2.2259345 0.47426614 4294967295
2.6764998 2.216687 0.4746474 4294967295
2.6989999 2.2259345 0.44295546 4294967295
2.6804442 2.2154605 0.44210798 4294967295
2.6816664 2.2282133 0.41373682 4294967295
2.6811111 2.231216 0.38610014 4294967295
2.6916666 2.2261147 0.3661359 4294967295
2.6811998 2.2093706 0.35325998 4294967295
2.6824284 0.84571534 0.35185698 4294967295
2.6835382 2.2045453 0.32462013 4294967295
2.6904998 0.84246111 0.33395576 4294967295
2.688 0.83856988 0.3247737 4294967295
2.6797335 2.2038126 0.29429185 4294967295
2.6788001 2.2254212 0.25458992 4294967295
2.6815624 2.2068644 0.26729631 4294967295
2.6989999 2.250983 0.22378054 4294967295
2.6831424 2.2368546 0.23798451 4294967295
2.6778748 2.2419016 0.20513573 4294967295
2.6990001 2.250983 0.17994553 4294967295
2.6788666 2.2424603 0.17459917 4294967295
2.6830711 2.2301221 0.1454913 4294967295
2.6989999 2.2259345 0.1235863 4294967295
2.6794999 2.2137306 0.11634687 4294967295
2.6829998 2.2096181 0.085487098 4294967295
2.6828179 2.2057881 0.054676324 4294967295
2.6862724 2.1967201 0.026298434 4294967295
2.6764998 2.1856372 0.015112102 4294967295
2.6855998 2.194288 -0.0077700019 4294967295
2.6766 2.1863413 0.0039146543 4294967295
2.6828461 2.2111542 -0.035390615 4294967295
2.6935 2.2245169 -0.066192806 4294967295
2.6751249 2.2163243 -0.062982738 4294967295
2.6953332 2.2249894 -0.088507175 4294967295
2.6799164 2.2163968 -0.097459733 4294967295
2.6830666 2.2082095 -0.12266314 4294967295
2.68225 2.2069173 -0.155545 4294967295
2.6817999 2.2136087 -0.18499964 4294967295
2.6828332 2.2056689 -0.21638668 4294967295
2.6799166 2.1925571 -0.24408197 4294967295
2.677 2.1891575 -0.24274272 4294967295
2.6836665 2.2023709 -0.27628338 4294967295
2.6822724 2.2115569 -0.3050577 4294967295
2.6839287 2.214823 -0.33365917 4294967295
2.6835001 2.213135 -0.3566578 4294967295
2.721 -0.89357406 2.0395632 4294967295
2.7119999 0.73908788 1.996774 4294967295
2.7125001 -0.89707619 2.0064857 4294967295
2.7160001 0.74017805 1.9737549 4294967295
2.7079999 -0.90187097 1.9725958 4294967295
2.7119999 0.73908788 1.9464539 4294967295
2.7172499 -0.90495157 1.9460495 4294967295
2.7153332 0.73578751 1.9166583 4294967295
2.7136669 -0.91005427 1.9158274 4294967295
2.7156003 -0.91700333 1.8853183 4294967295
2.7080002 0.73799783 1.8532186 4294967295
2.7080002 -0.91443694 1.8563879 4294967295
2.7165999 0.74411923 1.822807 4294967295
2.7142498 -0.91024995 1.8248413 4294967295
2.7155001 0.7912358 1.7860417 4294967295
2.7136667 0.76472217 1.7899053 4294967295
2.704 0.74945521 1.8042146 4294967295
2.7136669 -0.90584946 1.7940904 4294967295
2.7133892 0.82584578 1.7635459 4294967295
2.71 0.80770725 1.7787628 4294967295
2.7154999 0.77626604 1.7765861 4294967295
2.7064004 -0.90133804 1.7613882 4294967295
2.7185004 1.841495 1.7227976 4294967295
2.7136672 1.8151342 1.7227504 4294967295
2.7160003 1.7988441 1.7216916 4294967295
2.7160001 1.3514317 1.7216916 4294967295
2.7117779 1.3318455 1.7226118 4294967295
2.7151537 1.3044851 1.7266364 4294967295
2.7139997 1.2787465 1.7290331 4294967295
2.704 1.2576283 1.7226559 4294967295
2.7142501 1.1175495 1.7224858 4294967295
2.7144003 1.0949278 1.7247562 4294967295
2.7121997 1.0676233 1.7225198 4294967295
2.7175 0.83147776 1.7386386 4294967295
2.7155001 -0.90593714 1.7372319 4294967295
2.7122004 2.2248521 1.6986023 4294967295
2.7138462 2.20717 1.69699 4294967295
2.7120001 2.1842172 1.6905516 4294967295
2.7136669 2.0218527 1.6912696 4294967295
2.7120001 1.9943839 1.6947526 4294967295
2.7140002 1.9612401 1.6966646 4294967295
2.7146254 1.9325522 1.6919439 4294967295
2.7135005 1.9015716 1.692772 4294967295
2.7136672 1.8728423 1.7052654 4294967295
2.7153335 1.857181 1.7150966 4294967295
2.7210002 1.8021556 1.7175907 4294967295
2.7161252 1.7823739 1.714646 4294967295
2.7120001 1.7552764 1.7094285 4294967295
2.7160003 1.7263759 1.7090884 4294967295
2.7132003 1.6962491 1.704077 4294967295
2.715667 1.6631452 1.6973846 4294967295
2.7118757 1.6325127 1.6915433 4294967295
2.7080004 1.6134292 1.6909195 4294967295
2.7139001 1.3636053 1.7062745 4294967295
2.721 1.33498 1.7175907 4294967295
2.7210002 1.2964696 1.7087522 4294967295
2.713625 1.2754931 1.7017492 4294967295
2.7084618 1.240355 1.6970724 4294967295
2.7126667 1.2154998 1.6971284 4294967295
2.7146251 1.1830436 1.6982422 4294967295
2.7142224 1.1546106 1.6992068 4294967295
2.7176666 1.1305178 1.7119187 4294967295
2.7183003 1.0580437 1.7113477 4294967295
2.7151539 1.0355396 1.7038584 4294967295
2.7128999 1.0036952 1.6970233 4294967295
2.7136669 0.98299229 1.6912696 4294967295
2.7185001 0.87646526 1.6912608 4294967295
2.714 0.85208017 1.7064068 4294967295
2.704 0.8372876 1.7163821 4294967295
2.7128334 -0.91292101 1.7045466 4294967295
2.7160006 2.2210503 1.6775805 4294967295
2.7188339 2.2100356 1.6721226 4294967295
2.7115715 2.1769919 1.6738909 4294967295
2.7165003 2.0785918 1.6725346 4294967295
2.7142229 2.0558479 1.6810173 4294967295
2.7040002 2.0355723 1.6850135 4294967295
2.7210002 1.8652875 1.6670853 4294967295
2.7210004 1.8488731 1.6651912 4294967295
2.7125335 1.6018738 1.6752497 4294967295
2.7115715 1.5038085 1.6711886 4294967295
2.7123337 1.4852446 1.6767061 4294967295
2.7153332 1.4539787 1.6667875 4294967295
2.7160001 1.4396539 1.6649774 4294967295
2.7177694 1.3930495 1.6705711 4294967295
2.704 1.3768294 1.6850135 4294967295
2.7184999 1.2717317 1.682849 4294967295
2.7142227 1.2511761 1.6838086 4294967295
2.7156 0.96688712 1.6837027 4294967295
2.7155001 0.94401646 1.6797236 4294967295
2.7124999 0.91230428 1.6792257 4294967295
2.7136669 0.89065945 1.6849735 4294967295
2.7179999 -0.91781384 1.6721197 4294967295
2.7076926 2.2050657 1.6464976 4294967295
2.7100003 2.1799932 1.6561604 4294967295
2.7160003 2.132828 1.6334695 4294967295
2.7136669 2.1120939 1.641957 4294967295
2.7080004 2.0898886 1.6532259 4294967295
2.7210002 1.8652875 1.6544588 4294967295
2.7203755 1.8439516 1.6467028 4294967295
2.7198892 1.819649 1.639974 4294967295
2.7185004 1.5923562 1.6565673 4294967295
2.7155001 1.5756243 1.6466383 4294967295
2.7122855 1.5482408 1.6436307 4294967295
2.7088337 1.5186006 1.6535734 4294967295
2.7039998 1.4207456 1.6599185 4294967295
2.704 1.4081981 1.6599185 4294967295
2.7180002 1.3650438 1.6455549 4294967295
2.7168 1.3360646 1.6432562 4294967295
2.721 0.60265058 1.6418325 4294967295
2.7193334 0.5265696 1.6411415 4294967295
2.7119999 -0.92208004 1.6381127 4294967295
2.7167501 2.166502 1.6085637 4294967295
2.7112505 2.1463816 1.6205193 4294967295
2.7040002 2.1296785 1.6285498 4294967295
2.7210002 1.8358258 1.6271017 4294967295
2.7170002 1.8121095 1.6244235 4294967295
2.7132001 1.3563358 1.6247582 4294967295
2.7155001 1.3346376 1.6230197 4294967295
2.704 0.54242176 1.6097286 4294967295
2.704 0.53301114 1.6191392 4294967295
2.7124999 -0.92538685 1.6163206 4294967295
2.7125559 2.2007411 1.5719129 4294967295
2.7150002 2.1806371 1.5889584 4294967295
2.721 0.54583192 1.5850137 4294967295
2.7116668 -0.92405134 1.5844797 4294967295
2.7140002 2.228847 1.5530341 4294967295
2.7132003 2.2124417 1.565585 4294967295
2.7176666 -0.91139185 1.5584835 4294967295
2.7100003 2.2239928 1.5335509 4294967295
2.7140005 2.2123153 1.5224478 4294967295
2.7096665 -0.89194351 1.5302827 4294967295
2.7135 2.2010036 1.4952776 4294967295
2.7088335 -0.88957858 1.4953814 4294967295
2.7180002 2.2239461 1.4589732 4294967295
2.7120006 2.2121024 1.470746 4294967295
2.7165999 -0.89843214 1.463517 4294967295
2.7154291 2.2277737 1.4307292 4294967295
2.7040002 2.2175107 1.4403377 4294967295
2.7157145 2.2316148 1.4047234 4294967295
2.7096665 0.52050221 1.4066362 4294967295
2.7136669 -0.90586257 1.4037333 4294967295
2.7120001 2.2240622 1.3843293 4294967295
2.7147145 2.2028954 1.3729032 4294967295
2.7160003 2.1832409 1.3625014 4294967295
2.7136669 0.51287997 1.3806792 4294967295
2.7154999 -0.92012328 1.3780839 4294967295
2.7139003 2.177767 1.3454692 4294967295
2.7136669 -0.92264664 1.3491983 4294967295
2.7197502 2.1972973 1.3100257 4294967295
2.7125003 2.1835639 1.3236549 4294967295
2.7184999 -0.91798264 1.3159773 4294967295
2.7210002 2.1998863 1.2914507 4294967295
2.7100003 2.1878421 1.2757497 4294967295
2.7146001 -0.91918075 1.2864926 4294967295
2.7155004 2.1844075 1.2583759 4294967295
2.7160001 -0.92974162 1.2616761 4294967295
2.721 -0.93145317 1.2504151 4294967295
2.7155001 2.1970053 1.2205961 4294967295
2.7040002 2.1830051 1.2301673 4294967295
2.7119999 -0.92207074 1.2228113 4294967295
2.7130003 2.2033019 1.19611 4294967295
2.7185001 -0.90851861 1.189815 4294967295
2.7160003 2.2084472 1.1671523 4294967295
2.7129998 -0.9035362 1.1633005 4294967295
2.7148335 2.2095942 1.1343324 4294967295
2.7080002 -0.89349675 1.1275573 4294967295
2.704 -0.90053874 1.1454718 4294967295
2.7190001 2.2310724 1.100996 4294967295
2.7040002 2.2143738 1.1109662 4294967295
2.714 -0.87777793 1.1028085 4294967295
2.7112503 2.2305229 1.0747969 4294967295
2.7167499 -0.88901192 1.0775161 4294967295
2.7185001 -0.90852445 1.0636733 4294967295
2.7185004 2.2230947 1.0510643 4294967295
2.7096667 2.2137666 1.0419966 4294967295
2.7129998 -0.92084461 1.0436888 4294967295
2.712889 2.2087057 1.0167429 4294967295
2.7142501 -0.91969132 1.0155849 4294967295
2.7142224 2.2097931 0.98549086 4294967295
2.7153332 -0.91270447 0.9821617 4294967295
2.7112224 2.2087507 0.95631945 4294967295
2.7080002 0.50133419 0.95580584 4294967295
2.7136667 -0.90794992 0.95147514 4294967295
2.7070003 2.2074096 0.92321122 4294967295
2.7142498 0.49409774 0.92428851 4294967295
2.7132001 -0.90611213 0.92350525 4294967295
2.7185001 2.2230947 0.88706648 4294967295
2.7136669 2.214937 0.90216649 4294967295
2.721 0.49532649 0.9095031 4294967295
2.7128334 -0.91396654 0.89679313 4294967295
2.7164285 2.2285979 0.86203229 4294967295
2.704 2.2175107 0.87570083 4294967295
2.7136667 0.50028771 0.86436701 4294967295
2.7148335 -0.91359174 0.86452818 4294967295
2.7156 2.2282763 0.84068322 4294967295
2.7136669 2.2149372 0.82450259 4294967295
2.7160001 0.50701946 0.83316839 4294967295
2.7082498 -0.90823776 0.83540177 4294967295
2.7136669 2.2044454 0.80771077 4294967295
2.704 0.51105303 0.79414225 4294967295
2.7136669 -0.91845107 0.80560482 4294967295
2.7137144 2.2020791 0.7735495 4294967295
2.721 0.51426601 0.78955257 4294967295
2.7160001 -0.9360432 0.77015251 4294967295
2.7155998 2.2320561 0.74492097 4294967295
2.704 0.52987427 0.73767859 4294967295
2.7165 2.239315 0.71138453 4294967295
2.704 0.53614801 0.72513109 4294967295
2.7160001 -0.96124953 0.70398587 4294967295
2.7122002 2.2292657 0.68421882 4294967295
2.7125001 -0.95685416 0.67856508 4294967295
2.7160001 -0.96124953 0.69138271 4294967295
2.7132857 2.2314157 0.65568781 4294967295
2.704 0.54242176 0.6498462 4294967295
2.7133751 0.53406608 0.65109104 4294967295
2.721 0.29014799 0.64434934 4294967295
2.721 0.12284862 0.64434934 4294967295
2.71275 0.1012399 0.64633834 4294967295
2.7106249 0.075209677 0.64702743 4294967295
2.7179999 0.048434451 0.64701807 4294967295
2.7201664 0.013419198 0.64536345 4294967295
2.7150002 -0.016570294 0.64809155 4294967295
2.7129998 -0.044327047 0.64713454 4294967295
2.7202857 -0.068334863 0.64702237 4294967295
2.721 -0.091799654 0.64434934 4294967295
2.721 -0.29382154 0.64434934 4294967295
2.7210002 -0.31416404 0.64715517 4294967295
2.721 -0.33170065 0.64750594 4294967295
2.721 -0.77678013 0.64434934 4294967295
2.7197499 -0.79535562 0.64429224 4294967295
2.721 -0.81150264 0.64434934 4294967295
2.7155001 -0.94374174 0.65433979 4294967295
2.7176666 2.2245135 0.63158613 4294967295
2.7119999 2.2156694 0.6208508 4294967295
2.7110002 0.51928937 0.62754536 4294967295
2.7193334 0.50553727 0.61483097 4294967295
2.7210002 0.30863658 0.62991923 4294967295
2.7184 0.28671858 0.62530816 4294967295
2.7206156 0.26267201 0.62539399 4294967295
2.721 0.15441453 0.62856638 4294967295
2.7193334 0.13479628 0.62774807 4294967295
2.7102349 0.10682962 0.62165225 4294967295
2.7126667 0.07526502 0.61877996 4294967295
2.7133179 0.047803793 0.62682039 4294967295
2.7177389 0.014682419 0.62637389 4294967295
2.7159545 -0.015145744 0.62692189 4294967295
2.7155385 -0.043641943 0.63051963 4294967295
2.721 -0.067809559 0.63677353 4294967295
2.721 -0.26856881 0.61594003 4294967295
2.7168748 -0.2875872 0.62472367 4294967295
2.7159998 -0.31533715 0.62521613 4294967295
2.7200003 -0.33957544 0.62200636 4294967295
2.721 -0.6599862 0.61278343 4294967295
2.721 -0.66945601 0.61278343 4294967295
2.7160954 -0.76831323 0.62552249 4294967295
2.7058463 -0.7915296 0.62965727 4294967295
2.7139411 -0.82274014 0.62366551 4294967295
2.721 -0.84780353 0.6143617 4294967295
2.7191253 -0.92607641 0.6206066 4294967295
2.7105718 -0.93236846 0.6277194 4294967295
2.7115557 2.2083187 0.5921846 4294967295
2.7142224 0.49408263 0.59785736 4294967295
2.7153332 0.47538167 0.58109003 4294967295
2.7210004 0.28010428 0.59556568 4294967295
2.721 0.26805183 0.60331362 4294967295
2.721 0.22385956 0.58121753 4294967295
2.7201664 0.19328889 0.58330315 4294967295
2.7185004 0.16688743 0.58431786 4294967295
2.7202857 0.13814177 0.58300519 4294967295
2.721 0.10864394 0.60015702 4294967295
2.718857 0.011007809 0.58387494 4294967295
2.72 -0.010989639 0.58245766 4294967295
2.7201669 -0.13805276 0.58225095 4294967295
2.721 -0.15808807 0.58121753 4294967295
2.7201664 -0.22640833 0.58225095 4294967295
2.7210002 -0.25531113 0.59005594 4294967295
2.7193332 -0.28592545 0.60361141 4294967295
2.7205837 -0.31639397 0.60014379 4294967295
2.7204003 -0.34425017 0.59382802 4294967295
2.7169521 -0.37383235 0.59163678 4294967295
2.7195716 -0.40093839 0.58479124 4294967295
2.717 -0.46594825 0.58349347 4294967295
2.7117779 -0.49416679 0.58731055 4294967295
2.7125001 -0.52261508 0.59047633 4294967295
2.7134447 -0.55530995 0.59085047 4294967295
2.7122858 -0.58413655 0.58911818 4294967295
2.7123334 -0.61802876 0.5915218 4294967295
2.7136474 -0.6444971 0.59847188 4294967295
2.7151577 -0.6738283 0.59303176 4294967295
2.7197502 -0.69675708 0.58671343 4294967295
2.721 -0.74837083 0.58121753 4294967295
2.7126112 -0.76597559 0.59466374 4294967295
2.7107499 -0.82614285 0.59514111 4294967295
2.7188637 -0.85359108 0.59235996 4294967295
2.7146153 -0.88662893 0.58641398 4294967295
2.7144666 -0.91703546 0.59535456 4294967295
2.704 -0.93190747 0.6027931 4294967295
2.7160001 2.2210503 0.55589867 4294967295
2.7131999 2.2124574 0.56845182 4294967295
2.71 0.45244732 0.57468235 4294967295
2.7125001 0.43402085 0.57159591 4294967295
2.7131999 0.40575171 0.56845182 4294967295
2.7080002 0.37987489 0.56835896 4294967295
2.721 0.3311837 0.57490432 4294967295
2.71 0.31413963 0.57468235 4294967295
2.7064004 0.28544036 0.5746097 4294967295
2.72 0.25533623 0.57488412 4294967295
2.7160001 0.22659901 0.57480341 4294967295
2.7069998 0.20072879 0.5746218 4294967295
2.7039998 0.12835483 0.5745613 4294967295
2.7169998 0.10375167 0.57482362 4294967295
2.721 0.076551929 0.57490432 4294967295
2.7197499 0.045496274 0.57487911 4294967295
2.7064004 0.015452318 0.5746097 4294967295
2.7122002 -0.016010907 0.57472676 4294967295
2.7121999 -0.042424195 0.56969661 4294967295
2.7064004 -0.072458021 0.56833041 4294967295
2.7121999 -0.104105 0.57221723 4294967295
2.7088001 -0.13538221 0.57465816 4294967295
2.7112501 -0.16695195 0.57157069 4294967295
2.7161112 -0.19385526 0.57201117 4294967295
2.7098 -0.22343162 0.5746783 4294967295
2.7093334 -0.25625464 0.57187748 4294967295
2.7161112 -0.28348938 0.56291044 4294967295
2.721 -0.3159177 0.55596477 4294967295
2.7165294 -0.34598187 0.56481564 4294967295
2.7103529 -0.37552762 0.56693137 4294967295
2.7160587 -0.4045018 0.5648033 4294967295
2.7159336 -0.43399292 0.56388617 4294967295
2.7108333 -0.45728767 0.57260329 4294967295
2.7039998 -0.68095779 0.5745613 4294967295
2.7108335 -0.7088846 0.57260793 4294967295
2.7140002 -0.73563921 0.57386684 4294967295
2.704 -0.75624269 0.5745613 4294967295
2.7127502 2.2286096 0.5361923 4294967295
2.704 2.2175107 0.54946631 4294967295
2.704 -0.32649142 0.54946631 4294967295
2.704 -0.33590204 0.54946631 4294967295
2.704 -0.40491319 0.54946631 4294967295
2.704 -0.42373443 0.54946631 4294967295
2.7120001 2.2335007 0.50550508 4294967295
2.7160001 2.2336535 0.4739781 4294967295
2.7130001 2.2284803 0.44435626 4294967295
2.7128334 2.2404802 0.41739291 4294967295
2.7160001 2.2525582 0.38890672 4294967295
2.7080002 2.2438226 0.38404155 4294967295
2.7160001 2.2305026 0.35739881 4294967295
2.71 2.2129929 0.34203887 4294967295
2.7112224 0.84231228 0.35314411 4294967295
2.7160003 2.2210503 0.3164385 4294967295
2.7154999 2.2159095 0.32907394 4294967295
2.7160001 0.84100342 0.33219245 4294967295
2.7125001 0.83676302 0.3293075 4294967295
2.7160001 2.2210503 0.30068454 4294967295
2.7112503 2.2140121 0.28848845 4294967295
2.7160001 2.2210503 0.25342268 4294967295
2.7115002 2.2116945 0.26707682 4294967295
2.7193334 2.2553229 0.23626807 4294967295
2.7122002 2.2380545 0.24499342 4294967295
2.7112 2.2611582 0.20357022 4294967295
2.7197499 2.2619786 0.17418042 4294967295
2.7193334 2.2511139 0.15214255 4294967295
2.7136669 2.2443137 0.14239874 4294967295
2.7121999 2.2317832 0.11535707 4294967295
2.717 2.2281721 0.083123744 4294967295
2.7176666 2.2245135 0.053585202 4294967295
2.704 2.2143738 0.050703853 4294967295
2.7130003 2.2091515 0.023959875 4294967295
2.7173331 2.204272 -0.0072911978 4294967295
2.7136669 2.2254252 -0.042255163 4294967295
2.7108333 2.21157 -0.028051734 4294967295
2.7128892 2.2317832 -0.064475656 4294967295
2.7149 2.2302208 -0.095431209 4294967295
2.704 2.2175107 -0.10927653 4294967295
2.7179999 2.2226858 -0.12514007 4294967295
2.704 2.2175107 -0.11555028 4294967295
2.7172499 2.2220724 -0.15334362 4294967295
2.704 2.2175107 -0.16574019 4294967295
2.71275 2.2254608 -0.1852482 4294967295
2.704 2.2175107 -0.17201394 4294967295
2.7146001 2.2249355 -0.20621842 4294967295
2.7139094 2.2095904 -0.22091448 4294967295
2.7123337 2.2026608 -0.24196136 4294967295
2.7155998 2.2131541 -0.27578199 4294967295
2.7185001 2.2262454 -0.30502039 4294967295
2.704 2.2175107 -0.29748875 4294967295
2.7140002 2.227504 -0.33648133 4294967295
2.7136667 2.2275295 -0.36127049 4294967295
2.756 0.7446847 2.0591092 4294967295
2.7346666 -0.89806223 2.0345016 4294967295
2.75 -0.90309763 2.0270393 4294967295
2.7367499 -0.90509611 2.0007315 4294967295
2.756 0.7446847 1.9727849 4294967295
2.7460001 -0.9081552 1.9738729 4294967295
2.7397499 0.74029386 1.9451602 4294967295
2.7427499 -0.91184551 1.9403548 4294967295
2.733 0.73846996 1.9109894 4294967295
2.7427497 -0.91980767 1.9085057 4294967295
2.737 0.73955077 1.8833857 4294967295
2.75 -0.92223901 1.8866899 4294967295
2.7476001 0.74241495 1.8567739 4294967295
2.7408001 -0.91660154 1.8534714 4294967295
2.7445002 0.75111556 1.8170817 4294967295
2.7383335 0.74626446 1.8268654 4294967295
2.743 -0.91224837 1.8227309 4294967295
2.7350001 0.80373758 1.7846681 4294967295
2.741538 0.75936168 1.7946291 4294967295
2.7393999 -0.90724063 1.7956018 4294967295
2.7420001 0.8172313 1.7630365 4294967295
2.7424998 0.7951197 1.7743053 4294967295
2.7408574 0.77237964 1.7753798 4294967295
2.7421665 -0.90688741 1.7618724 4294967295
2.7440002 1.8619547 1.7213471 4294967295
2.7436001 1.8457569 1.7224276 4294967295
2.7330003 1.819615 1.7228723 4294967295
2.7483337 1.359012 1.721095 4294967295
2.733 1.3329412 1.7228723 4294967295
2.733 1.115761 1.7228723 4294967295
2.7376249 1.0962138 1.7241088 4294967295
2.75 0.84195375 1.723974 4294967295
2.7408333 0.82801038 1.7358593 4294967295
2.7451427 -0.91241395 1.7309382 4294967295
2.7330003 2.2127585 1.6911671 4294967295
2.7483339 2.0497987 1.693475 4294967295
2.7391429 2.0257015 1.6947054 4294967295
2.7390001 1.9951854 1.69691 4294967295
2.7437003 1.9648476 1.6957364 4294967295
2.7416003 1.939199 1.6935735 4294967295
2.7338336 1.9036824 1.6925811 4294967295
2.7393999 1.87331 1.7048432 4294967295
2.7414734 1.84216 1.7051768 4294967295
2.7417617 1.8131773 1.7058177 4294967295
2.7442005 1.7873725 1.7095351 4294967295
2.7376666 1.7560257 1.7111566 4294967295
2.7406669 1.7250742 1.7113975 4294967295
2.7427502 1.6932621 1.7040848 4294967295
2.7447782 1.6685961 1.6954932 4294967295
2.7346668 1.639899 1.6918813 4294967295
