# .PCD v0.7 - Point Cloud Data file format
VERSION 0.7
FIELDS x y z rgb
SIZE 4 4 4 4
TYPE F F F U
COUNT 1 1 1 1
WIDTH 1042
HEIGHT 1
VIEWPOINT 0 0 0 1 0 0 0
POINTS 1042
DATA ascii
0.44592351 -0.89165449 -0.050075032 4278190080
1.1371933 -2.3544946 -0.13457665 4278190080
1.124656 -2.3494422 -0.13405503 4278190080
1.1143076 -2.3488426 -0.13379423 4278190080
1.1039776 -2.3481989 -0.13353342 4278190080
1.0936656 -2.347512 -0.1332726 4278190080
1.0833715 -2.346782 -0.1330118 4278190080
1.0730963 -2.3460085 -0.13275099 4278190080
1.0632488 -2.3450067 -0.13249019 4278190080
1.0530107 -2.3441491 -0.13222937 4278190080
1.0427915 -2.3432488 -0.13196857 4278190080
1.0325916 -2.3423054 -0.13170776 4278190080
1.0224108 -2.3413198 -0.13144696 4278190080
1.0122496 -2.3402915 -0.13118614 4278190080
1.0021082 -2.3392208 -0.13092534 4278190080
0.99198627 -2.3381081 -0.13066453 4278190080
0.98188478 -2.3369532 -0.13040373 4278190080
0.97372109 -2.3403664 -0.13040373 4278190080
0.96364391 -2.3391342 -0.13014291 4278190080
0.95358729 -2.3378603 -0.12988211 4278190080
0.94395876 -2.33638 -0.1296213 4278190080
0.93394339 -2.3350248 -0.1293605 4278190080
0.92394859 -2.3336279 -0.12909968 4278190080
0.91397536 -2.33219 -0.12883888 4278190080
0.90402305 -2.3307109 -0.12857807 4278190080
0.89588195 -2.3338523 -0.12857807 4278190080
0.8841837 -2.3276298 -0.12805645 4278190080
0.87956685 -2.3400497 -0.12857807 4278190080
0.87139332 -2.3431058 -0.12857807 4278190080
0.24074551 -0.67571867 -0.035469815 4278190080
0.24004474 -0.68126434 -0.035730623 4278190080
0.25573727 -0.73396492 -0.038599506 4278190080
0.23528279 -0.68292356 -0.035730623 4278190080
0.22001778 -0.6459285 -0.033644162 4278190080
0.21138796 -0.62776411 -0.032600932 4278190080
0.79100043 -2.4030139 -0.13014291 4278190080
0.76656479 -2.3847096 -0.12883888 4278190080
0.7431215 -2.3397813 -0.12623081 4278190080
0.72897011 -2.3233044 -0.12518758 4278190080
0.71937776 -2.3210654 -0.12492677 4278190080
0.7098096 -2.3187878 -0.12466596 4278190080
0.70211655 -2.3211288 -0.12466596 4278190080
0.69400984 -2.3235657 -0.12466596 4278190080
0.68589497 -2.325974 -0.12466596 4278190080
0.67637622 -2.32356 -0.12440515 4278190080
0.66826117 -2.3259068 -0.12440515 4278190080
0.65877622 -2.3234212 -0.12414435 4278190080
0.65066177 -2.3257067 -0.12414435 4278190080
0.64121121 -2.3231506 -0.12388355 4278190080
0.63440979 -2.3301926 -0.12414435 4278190080
0.62238729 -2.3179259 -0.12336193 4278190080
0.61557055 -2.3249109 -0.12362273 4278190080
0.60745114 -2.3270457 -0.12362273 4278190080
0.23848008 -0.9679994 -0.050075032 4278190080
0.23392223 -0.96397352 -0.049814224 4278190080
0.22359262 -0.93564546 -0.048249379 4278190080
0.20888926 -0.88781565 -0.045641307 4278190080
0.21029545 -0.90799707 -0.046684533 4278190080
0.4806115 -2.331027 -0.1223187 4278190080
0.47048917 -2.3229029 -0.12179708 4278190080
0.46042973 -2.3147366 -0.12127547 4278190080
0.4523471 -2.3163297 -0.12127547 4278190080
0.44331872 -2.3129904 -0.12101465 4278190080
0.42806596 -2.3209395 -0.12127547 4278190080
0.11257508 -0.64769548 -0.032340124 4278190080
0.11625734 -0.6977185 -0.034948196 4278190080
0.11783858 -0.72276068 -0.036252238 4278190080
0.11138353 -0.69851309 -0.034948196 4278190080
0.10894462 -0.69889766 -0.034948196 4278190080
0.098234281 -0.64497477 -0.032079317 4278190080
0.095247656 -0.6403749 -0.031818509 4278190080
0.093011782 -0.6407035 -0.031818509 4278190080
0.0908866 -0.64100838 -0.031818509 4278190080
0.30682775 -2.340055 -0.12127547 4278190080
0.29486614 -2.3113933 -0.11971062 4278190080
0.28618166 -2.3074534 -0.11944982 4278190080
0.27852818 -2.3083897 -0.11944982 4278190080
0.27046883 -2.3093479 -0.11944982 4278190080
0.26184267 -2.3053164 -0.119189 4278190080
0.25379381 -2.3062165 -0.119189 4278190080
0.2457422 -2.3070884 -0.119189 4278190080
0.23768727 -2.3079321 -0.119189 4278190080
0.22962977 -2.3087478 -0.119189 4278190080
0.22156945 -2.3095353 -0.119189 4278190080
0.21350613 -2.3102946 -0.119189 4278190080
0.2049984 -2.3060522 -0.1189282 4278190080
0.19692439 -2.3017442 -0.11866739 4278190080
0.18848047 -2.2974412 -0.11840659 4278190080
0.18006867 -2.2931073 -0.11814577 4278190080
0.17542489 -2.3385348 -0.12049304 4278190080
0.16726063 -2.3391328 -0.12049304 4278190080
0.1587559 -2.3347208 -0.12023224 4278190080
0.05135211 -0.89060676 -0.044598073 4278190080
0.047162827 -0.87083709 -0.043554842 4278190080
0.045035318 -0.88594896 -0.044337265 4278190080
0.040998109 -0.86615032 -0.043294039 4278190080
0.038193144 -0.87127656 -0.043554842 4278190080
0.034950264 -0.86641544 -0.043294039 4278190080
0.031925745 -0.86653215 -0.043294039 4278190080
0.028734412 -0.8616479 -0.043033231 4278190080
0.025577456 -0.85675198 -0.042772423 4278190080
0.022586722 -0.85683602 -0.042772423 4278190080
0.019481448 -0.8519178 -0.042511616 4278190080
0.016507626 -0.85198063 -0.042511616 4278190080
0.013533603 -0.85203302 -0.042511616 4278190080
0.010621176 -0.85706788 -0.042772423 4278190080
0.0077789417 -0.8570984 -0.042772423 4278190080
0.0048149955 -0.86211342 -0.043033231 4278190080
0.0018161322 -0.86711818 -0.043294039 4278190080
-0.0012177273 -0.87211239 -0.043554842 4278190080
-0.0042619137 -0.87210286 -0.043554842 4278190080
-0.0073479954 -0.87707567 -0.04381565 4278190080
-0.010409469 -0.87704468 -0.04381565 4278190080
-0.013547503 -0.88199562 -0.044076458 4278190080
-0.016532116 -0.87695062 -0.04381565 4278190080
-0.019593097 -0.87688756 -0.04381565 4278190080
-0.022244705 -0.8668347 -0.043294039 4278190080
-0.025124826 -0.86176068 -0.043033231 4278190080
-0.027644036 -0.84669614 -0.042250808 4278190080
-0.031861838 -0.88152403 -0.044076458 4278190080
-0.034740917 -0.87641817 -0.04381565 4278190080
-0.043593071 -0.72100085 -0.035730623 4278190080
-0.049970064 -0.74060637 -0.036773849 4278190080
-0.051847875 -0.73046613 -0.036252238 4278190080
-0.051679667 -0.69543391 -0.034426581 4278190080
-0.052169748 -0.6703586 -0.033122547 4278190080
-0.053295095 -0.65524215 -0.032340124 4278190080
-0.05431547 -0.64012611 -0.031557702 4278190080
-0.054791544 -0.62003738 -0.030514471 4278190080
-0.067920759 -0.73917627 -0.036773849 4278190080
-0.079036802 -0.82840586 -0.041468382 4278190080
-0.085027359 -0.85792375 -0.043033231 4278190080
-0.089041099 -0.86755592 -0.043554842 4278190080
-0.092595972 -0.87220508 -0.04381565 4278190080
-0.096031427 -0.87685674 -0.044076458 4278190080
-0.099091597 -0.87651616 -0.044076458 4278190080
-0.10215068 -0.87616497 -0.044076458 4278190080
-0.1052084 -0.87580305 -0.044076458 4278190080
-0.10811213 -0.87544936 -0.044076458 4278190080
-0.1111673 -0.87506664 -0.044076458 4278190080
-0.11486781 -0.87962437 -0.044337265 4278190080
-0.11793753 -0.8792181 -0.044337265 4278190080
-0.1210058 -0.87880105 -0.044337265 4278190080
-0.12407272 -0.87837327 -0.044337265 4278190080
-0.12769963 -0.88289881 -0.044598073 4278190080
-0.13004869 -0.8775084 -0.044337265 4278190080
-0.13311093 -0.87704915 -0.044337265 4278190080
-0.13617165 -0.87657911 -0.044337265 4278190080
-0.13923061 -0.87609845 -0.044337265 4278190080
-0.14148709 -0.87067854 -0.044076458 4278190080
-0.14452542 -0.87017941 -0.044076458 4278190080
-0.14756198 -0.86966962 -0.044076458 4278190080
-0.15144934 -0.87406909 -0.044337265 4278190080
-0.15449944 -0.8735351 -0.044337265 4278190080
-0.15739538 -0.87301797 -0.044337265 4278190080
-0.16134484 -0.87737411 -0.044598073 4278190080
-0.16440654 -0.87680554 -0.044598073 4278190080
-0.16652878 -0.87132192 -0.044337265 4278190080
-0.16956919 -0.87073529 -0.044337265 4278190080
-0.17260766 -0.87013811 -0.044337265 4278190080
-0.17564392 -0.86953026 -0.044337265 4278190080
-0.17867814 -0.86891186 -0.044337265 4278190080
-0.18155849 -0.86831456 -0.044337265 4278190080
-0.18577965 -0.872527 -0.044598073 4278190080
-0.18882427 -0.8718732 -0.044598073 4278190080
-0.19186647 -0.87120879 -0.044598073 4278190080
-0.19490646 -0.8705337 -0.044598073 4278190080
-0.19794396 -0.86984807 -0.044598073 4278190080
-0.20082742 -0.86918688 -0.044598073 4278190080
-0.20386018 -0.86848056 -0.044598073 4278190080
-0.20673908 -0.86779976 -0.044598073 4278190080
-0.20976697 -0.86707282 -0.044598073 4278190080
-0.21279241 -0.86633527 -0.044598073 4278190080
-0.2170231 -0.87043214 -0.04485888 4278190080
-0.21883525 -0.86482865 -0.044598073 4278190080
-0.22309455 -0.86889583 -0.04485888 4278190080
-0.22612615 -0.86811179 -0.04485888 4278190080
-0.22915512 -0.86731714 -0.04485888 4278190080
-0.23218118 -0.866512 -0.04485888 4278190080
-0.23651358 -0.87051481 -0.045119692 4278190080
-0.23939906 -0.8697257 -0.045119692 4278190080
-0.24377538 -0.87369424 -0.045380499 4278190080
-0.24682373 -0.87283796 -0.045380499 4278190080
-0.24986896 -0.87197107 -0.045380499 4278190080
-0.25291124 -0.87109357 -0.045380499 4278190080
-0.22134547 -0.66655397 -0.034687389 4278190080
-0.24275257 -0.72257596 -0.03781708 4278190080
-0.23563336 -0.69335842 -0.036252238 4278190080
-0.2331828 -0.67836565 -0.035469815 4278190080
-0.21587378 -0.62095177 -0.032340124 4278190080
-0.21141571 -0.60135216 -0.031296894 4278190080
-0.21685854 -0.6100201 -0.031818509 4278190080
-0.34616834 -0.87610805 -0.047206149 4278190080
-0.35107556 -0.87953174 -0.047466956 4278190080
-0.35601076 -0.88293183 -0.047727764 4278190080
-0.34952378 -0.85862291 -0.046423726 4278190080
-0.35821494 -0.87125194 -0.047206149 4278190080
-0.35550955 -0.85616189 -0.046423726 4278190080
-0.356565 -0.85031098 -0.046162918 4278190080
-0.9948408 -2.2825277 -0.12805645 4278190080
-0.99274713 -2.2561896 -0.12675242 4278190080
-0.99656266 -2.2435839 -0.12623081 4278190080
-1.0080814 -2.2493799 -0.12675242 4278190080
-1.015927 -2.2458475 -0.12675242 4278190080
-1.0258342 -2.2468297 -0.12701322 4278190080
-1.0357605 -2.2477701 -0.12727404 4278190080
-1.0457059 -2.2486684 -0.12753484 4278190080
-1.0535488 -2.2450047 -0.12753484 4278190080
-1.0635159 -2.2458262 -0.12779565 4278190080
-1.0735017 -2.2466052 -0.12805645 4278190080
-1.0835056 -2.2473423 -0.12831727 4278190080
-1.0913439 -2.2435462 -0.12831727 4278190080
-1.1009766 -2.2443979 -0.12857807 4278190080
-1.1110193 -2.2450163 -0.12883888 4278190080
-1.1210791 -2.2455916 -0.12909968 4278190080
-1.128911 -2.2416646 -0.12909968 4278190080
-1.1389904 -2.2421622 -0.1293605 4278190080
-1.1490868 -2.2426167 -0.1296213 4278190080
-1.1592007 -2.2430277 -0.12988211 4278190080
-1.1693311 -2.2433953 -0.13014291 4278190080
-1.1790867 -2.2439256 -0.13040373 4278190080
-1.1892501 -2.2442081 -0.13066453 4278190080
-1.1994302 -2.244447 -0.13092534 4278190080
-1.2096261 -2.244642 -0.13118614 4278190080
-1.219838 -2.2447934 -0.13144696 4278190080
-1.2300658 -2.2449005 -0.13170776 4278190080
-1.2403091 -2.2449636 -0.13196857 4278190080
-1.2505679 -2.2449825 -0.13222937 4278190080
-1.2608418 -2.2449572 -0.13249019 4278190080
-1.2711306 -2.2448874 -0.13275099 4278190080
-1.2814347 -2.2447729 -0.1330118 4278190080
-1.2917529 -2.2446139 -0.1332726 4278190080
-1.2991893 -2.2403178 -0.1332726 4278190080
-1.3095214 -2.2400801 -0.13353342 4278190080
-1.3198681 -2.2397971 -0.13379423 4278190080
-1.4934875 -2.3085799 -0.14161845 4278190080
-1.4927229 -2.2733178 -0.1400536 4278190080
-1.4868729 -2.2472723 -0.13874955 4278190080
-1.4947085 -2.2420683 -0.13874955 4278190080
-1.5053098 -2.2409823 -0.13901037 4278190080
-1.5159216 -2.2398491 -0.13927117 4278190080
-1.5265442 -2.2386694 -0.13953198 4278190080
-1.5371766 -2.2374425 -0.13979279 4278190080
-1.5478195 -2.2361686 -0.1400536 4278190080
-1.5613278 -2.2389436 -0.14057522 4278190080
-1.572004 -2.2375658 -0.14083603 4278190080
-1.5822994 -2.2364166 -0.14109683 4278190080
-1.5929947 -2.2349455 -0.14135765 4278190080
-1.6036985 -2.2334273 -0.14161845 4278190080
-1.6144112 -2.2318616 -0.14187926 4278190080
-1.6280733 -2.2342834 -0.14240088 4278190080
-1.638817 -2.2326121 -0.14266168 4278190080
-1.6495692 -2.2308927 -0.14292249 4278190080
-1.6633116 -2.23313 -0.14344411 4278190080
-1.674093 -2.2313044 -0.14370491 4278190080
-1.6878928 -2.2334142 -0.14422652 4278190080
-1.7017273 -2.2354548 -0.14474814 4278190080
-1.7125586 -2.2334633 -0.14500895 4278190080
-1.7264485 -2.2353756 -0.14553057 4278190080
-1.7373066 -2.2332766 -0.14579137 4278190080
-1.7477822 -2.2314339 -0.14605217 4278190080
-1.7617458 -2.2331598 -0.14657378 4278190080
-1.7726364 -2.230906 -0.14683458 4278190080
-1.7897726 -2.2364004 -0.14761701 4278190080
-1.7975681 -2.2301393 -0.14761701 4278190080
-1.8116363 -2.2316039 -0.14813863 4278190080
-1.8335195 -2.2266111 -0.14866024 4278190080
-1.9976926 -2.2303767 -0.15439802 4278190080
-2.00881 -2.2270977 -0.15465882 4278190080
-2.0199289 -2.2237685 -0.15491962 4278190080
-2.0344193 -2.2240727 -0.15544124 4278190080
-2.0489361 -2.2243028 -0.15596285 4278190080
-2.0634799 -2.2244582 -0.15648447 4278190080
-2.0746405 -2.2208905 -0.15674527 4278190080
-2.0892227 -2.2209091 -0.15726689 4278190080
-2.1038301 -2.2208526 -0.1577885 4278190080
-2.1180749 -2.2210908 -0.15831012 4278190080
-2.1327322 -2.2208869 -0.15883173 4278190080
-2.1474135 -2.2206078 -0.15935335 4278190080
-2.1621194 -2.2202523 -0.15987496 4278190080
-2.1764605 -2.2202022 -0.16039659 4278190080
-2.1912134 -2.219698 -0.16091821 4278190080
-2.2095087 -2.2226591 -0.16170062 4278190080
-2.2243187 -2.2219908 -0.16222224 4278190080
-2.239151 -2.2212462 -0.16274385 4278190080
-2.250448 -2.2169209 -0.16300467 4278190080
-2.2724507 -2.2230179 -0.1640479 4278190080
-2.283778 -2.2185514 -0.1643087 4278190080
-2.2983084 -2.2179005 -0.16483031 4278190080
-2.3318217 -2.2190123 -0.16613434 4278190080
-2.6226072 -2.2470522 -0.17839229 4278190080
-2.6304348 -2.237884 -0.17839229 4278190080
-2.6496735 -2.2383554 -0.17917472 4278190080
-2.6417816 -2.216718 -0.17813149 4278190080
-2.6801927 -2.2330525 -0.18021795 4278190080
-2.7033603 -2.2364147 -0.18126118 4278190080
-2.7111509 -2.226964 -0.18126118 4278190080
-2.7537947 -2.229979 -0.18308683 4278190080
-3.084475 -2.2418244 -0.19717044 4278190080
-3.0679858 -2.213515 -0.19560559 4278190080
-3.0838125 -2.2086072 -0.19612721 4278190080
-3.0996423 -2.2036157 -0.19664882 4278190080
-3.1032355 -2.1899037 -0.19638801 4278190080
-3.1394892 -2.1991103 -0.19821367 4278190080
-3.138947 -2.1824374 -0.19769205 4278190080
-3.1547651 -2.1771395 -0.19821367 4278190080
-3.2680647 -2.2059979 -0.20395142 4278190080
-3.2715969 -2.191798 -0.20369062 4278190080
-3.3041759 -2.1969516 -0.20525546 4278190080
-3.3326623 -2.1991553 -0.20655949 4278190080
-3.4538848 -2.1107428 -0.20942838 4278190080
-3.4441531 -2.0883183 -0.20838515 4278190080
-3.4428642 -2.0711358 -0.20786354 4278190080
-3.4414976 -2.0539875 -0.20734192 4278190080
-3.4357567 -2.0343301 -0.20655949 4278190080
-3.4428372 -2.0223238 -0.20655949 4278190080
-3.4498754 -2.010294 -0.20655949 4278190080
-3.4482257 -1.9932419 -0.20603788 4278190080
-1.1857606 -0.66895986 -0.06911397 4278190080
-1.1706589 -0.65506369 -0.068070747 4278190080
-1.1423773 -0.63401222 -0.066245094 4278190080
-2.9636226 -1.5910786 -0.17369777 4278190080
-2.9338984 -1.5619524 -0.17161131 4278190080
-2.9128387 -1.5377154 -0.17004646 4278190080
-2.8869584 -1.5118326 -0.1682208 4278190080
-2.7814322 -1.4442221 -0.16170062 4278190080
-2.7642593 -1.4230771 -0.16039659 4278190080
-2.7692103 -1.4134188 -0.16039659 4278190080
-2.8938878 -1.3157717 -0.1640479 4278190080
-3.3346744 -1.3785411 -0.18647732 4278190080
-3.3024976 -1.35176 -0.18439086 4278190080
-3.2516644 -1.3177202 -0.18126118 4278190080
-1.6221508 -0.61814189 -0.08867453 4278190080
-1.6056103 -0.60542905 -0.0876313 4278190080
-3.5344405 -1.2773565 -0.19430155 4278190080
-3.4918594 -1.2482042 -0.19169348 4278190080
-3.4397032 -1.2160364 -0.18856379 4278190080
-3.4926631 -1.1537355 -0.19012864 4278190080
-3.4586959 -1.1291401 -0.18804218 4278190080
-3.4483602 -1.1124612 -0.18725975 4278190080
-3.5065134 -1.0774047 -0.18960702 4278190080
-3.4624722 -1.0506598 -0.18699895 4278190080
-3.4565523 -1.0356998 -0.18647732 4278190080
-3.42663 -1.0137129 -0.18465167 4278190080
-3.4885235 -0.97926545 -0.18725975 4278190080
-3.453424 -0.9564209 -0.18517329 4278190080
-3.4133914 -0.93251759 -0.18282603 4278190080
-2.2113142 -0.59583044 -0.11762416 4278190080
-2.1940777 -0.58297908 -0.11658093 4278190080
-3.5147431 -0.92076391 -0.18778136 4278190080
-3.4645989 -0.89536142 -0.18491247 4278190080
-2.3734741 -0.58693588 -0.12570919 4278190080
-2.3802588 -0.58024442 -0.12597001 4278190080
-3.4491715 -0.78996533 -0.18282603 4278190080
-3.4275529 -0.77243221 -0.181522 4278190080
-3.4253533 -0.75938255 -0.18126118 4278190080
-3.4328618 -0.74848515 -0.181522 4278190080
-3.425689 -0.7344045 -0.18100038 4278190080
-3.428232 -0.72244138 -0.18100038 4278190080
-3.4258432 -0.70945781 -0.18073957 4278190080
-3.4234059 -0.69649982 -0.18047877 4278190080
-3.4258163 -0.68454581 -0.18047877 4278190080
-3.423285 -0.67162222 -0.18021795 4278190080
-3.4256086 -0.65966791 -0.18021795 4278190080
-3.4229839 -0.64677936 -0.17995714 4278190080
-3.4252207 -0.63482714 -0.17995714 4278190080
-3.4225032 -0.62197441 -0.17969634 4278190080
-3.424547 -0.61062145 -0.17969634 4278190080
-3.4217389 -0.59780467 -0.17943552 4278190080
-3.4238045 -0.58585709 -0.17943552 4278190080
-3.4209044 -0.57307655 -0.17917472 4278190080
-3.422884 -0.56113201 -0.17917472 4278190080
-3.4198916 -0.54839009 -0.17891391 4278190080
-3.4217849 -0.53644931 -0.17891391 4278190080
-3.4236364 -0.52450198 -0.17891391 4278190080
-3.4205086 -0.51180845 -0.17865311 4278190080
-3.4222741 -0.49986568 -0.17865311 4278190080
-3.4239981 -0.48791686 -0.17865311 4278190080
-3.4207346 -0.47527492 -0.17839229 4278190080
-3.4223728 -0.46333161 -0.17839229 4278190080
-3.4190192 -0.45072916 -0.17813149 4278190080
-3.4205716 -0.43879199 -0.17813149 4278190080
-3.4171276 -0.42623144 -0.17787068 4278190080
-3.4185946 -0.41430104 -0.17787068 4278190080
-3.415061 -0.40178216 -0.17760988 4278190080
-3.4164429 -0.38985819 -0.17760988 4278190080
-3.4177828 -0.37793037 -0.17760988 4278190080
-3.4190812 -0.36599797 -0.17760988 4278190080
-3.4203379 -0.3540611 -0.17760988 4278190080
-3.4165845 -0.34162313 -0.17734906 4278190080
-3.4177561 -0.32969421 -0.17734906 4278190080
-3.4138591 -0.31789652 -0.17708826 4278190080
-3.414948 -0.30597726 -0.17708826 4278190080
-3.4159951 -0.29405519 -0.17708826 4278190080
-3.4120736 -0.28112346 -0.17682745 4278190080
-3.4130342 -0.26921067 -0.17682745 4278190080
-3.4139531 -0.25729549 -0.17682745 4278190080
-3.4147875 -0.24597286 -0.17682745 4278190080
-3.4106438 -0.23371036 -0.17656665 4278190080
-3.4114389 -0.22180375 -0.17656665 4278190080
-3.4122291 -0.20929831 -0.17656665 4278190080
-3.4079537 -0.19709802 -0.17630583 4278190080
-3.4086211 -0.18520102 -0.17630583 4278190080
-3.4042299 -0.1736421 -0.17604503 4278190080
-3.4048152 -0.16175824 -0.17604503 4278190080
-3.4003706 -0.14965287 -0.17578422 4278190080
-3.4008722 -0.13778263 -0.17578422 4278190080
-3.3963428 -0.12572511 -0.17552342 4278190080
-3.3967609 -0.11386907 -0.17552342 4278190080
-3.3971379 -0.10201165 -0.17552342 4278190080
-3.4024646 -0.090285435 -0.17578422 4278190080
-3.3977673 -0.078293227 -0.17552342 4278190080
-3.3980198 -0.066431604 -0.17552342 4278190080
-3.398231 -0.054570075 -0.17552342 4278190080
-3.3984008 -0.042707883 -0.17552342 4278190080
-3.3985291 -0.030845173 -0.17552342 4278190080
-3.3986161 -0.018982084 -0.17552342 4278190080
-3.3936684 -0.0071074036 -0.1752626 4278190080
-3.3936725 0.0047385721 -0.1752626 4278190080
-3.3936353 0.016584489 -0.1752626 4278190080
-3.3935566 0.028430207 -0.1752626 4278190080
-3.3934438 0.039683633 -0.1752626 4278190080
-3.3932846 0.05152854 -0.1752626 4278190080
-3.393084 0.063373722 -0.1752626 4278190080
-3.3928289 0.075809069 -0.1752626 4278190080
-3.3925438 0.08765161 -0.1752626 4278190080
-3.3922172 0.099493079 -0.1752626 4278190080
-3.391849 0.11133424 -0.1752626 4278190080
-3.3914397 0.12317315 -0.1752626 4278190080
-3.3909891 0.13501056 -0.1752626 4278190080
-3.3904972 0.14684631 -0.1752626 4278190080
-3.3899641 0.15868028 -0.1752626 4278190080
-3.3893895 0.17051321 -0.1752626 4278190080
-3.3888054 0.18175204 -0.1752626 4278190080
-3.3881502 0.1935799 -0.1752626 4278190080
-3.387454 0.20540538 -0.1752626 4278190080
-3.3867164 0.21722837 -0.1752626 4278190080
-3.3859375 0.22904871 -0.1752626 4278190080
-3.3851173 0.24086717 -0.1752626 4278190080
-3.3842559 0.25268179 -0.1752626 4278190080
-3.3883314 0.26488248 -0.17552342 4278190080
-3.3874342 0.2761173 -0.17552342 4278190080
-3.3863995 0.2885305 -0.17552342 4278190080
-3.3853717 0.30035019 -0.17552342 4278190080
-3.3843026 0.31216535 -0.17552342 4278190080
-3.3831923 0.32397667 -0.17552342 4278190080
-3.382041 0.33578408 -0.17552342 4278190080
-3.3808482 0.34758738 -0.17552342 4278190080
-3.3796144 0.35938734 -0.17552342 4278190080
-3.3784039 0.37059182 -0.17552342 4278190080
-3.382051 0.38294488 -0.17578422 4278190080
-3.3806937 0.39474791 -0.17578422 4278190080
-3.3792953 0.40654615 -0.17578422 4278190080
-3.3778555 0.41833943 -0.17578422 4278190080
-3.3763747 0.43012762 -0.17578422 4278190080
-3.3798037 0.44255978 -0.17604503 4278190080
-3.3782382 0.45435461 -0.17604503 4278190080
-3.3766317 0.46614394 -0.17604503 4278190080
-3.374984 0.47792754 -0.17604503 4278190080
-3.3732953 0.48970535 -0.17604503 4278190080
-3.3715651 0.50147808 -0.17604503 4278190080
-3.3747303 0.51399559 -0.17630583 4278190080
-3.3729157 0.52577233 -0.17630583 4278190080
-3.3710599 0.53754258 -0.17630583 4278190080
-3.369163 0.54930633 -0.17630583 4278190080
-3.3672249 0.5610643 -0.17630583 4278190080
-3.3701684 0.57365239 -0.17656665 4278190080
-3.3681455 0.5854128 -0.17656665 4278190080
-3.3660815 0.59716606 -0.17656665 4278190080
-3.3639765 0.60891205 -0.17656665 4278190080
-3.3618305 0.62065154 -0.17656665 4278190080
-3.3645504 0.63330621 -0.17682745 4278190080
-3.3623192 0.64504659 -0.17682745 4278190080
-3.3600471 0.65677917 -0.17682745 4278190080
-3.3626313 0.66947877 -0.17708826 4278190080
-3.3602738 0.6812132 -0.17708826 4278190080
-3.3578756 0.69293839 -0.17708826 4278190080
-3.3555591 0.70406985 -0.17708826 4278190080
-3.353081 0.71577847 -0.17708826 4278190080
-3.3554416 0.7285378 -0.17734906 4278190080
-3.3527486 0.74083161 -0.17734906 4278190080
-3.3550143 0.7536245 -0.17760988 4278190080
-3.3523631 0.76533097 -0.17760988 4278190080
-3.354671 0.77757114 -0.17787068 4278190080
-3.3517985 0.7898609 -0.17787068 4278190080
-3.349021 0.80155677 -0.17787068 4278190080
-3.3462026 0.81324196 -0.17787068 4278190080
-3.3433435 0.82491726 -0.17787068 4278190080
-3.3452873 0.83779556 -0.17813149 4278190080
-3.3423426 0.84946752 -0.17813149 4278190080
-3.3200169 0.85614276 -0.17708826 4278190080
-3.2976856 0.86267161 -0.17604503 4278190080
-3.2801754 0.87033558 -0.1752626 4278190080
-3.2289007 0.86880624 -0.17265454 4278190080
-3.1632254 0.86298704 -0.16926403 4278190080
-3.1024432 0.85805202 -0.16613434 4278190080
-3.0417352 0.85270256 -0.16300467 4278190080
-3.0147245 0.85649192 -0.16170062 4278190080
-2.9781282 0.85734051 -0.15987496 4278190080
-2.9415634 0.85794425 -0.15804932 4278190080
-2.9050303 0.85830396 -0.15622365 4278190080
-2.8638976 0.85648668 -0.15413721 4278190080
-2.8226597 0.85490006 -0.15205075 4278190080
-2.7814686 0.85303533 -0.14996429 4278190080
-2.7450938 0.85237426 -0.14813863 4278190080
-2.7039945 0.84997249 -0.14605217 4278190080
-2.6677041 0.84880823 -0.14422652 4278190080
-2.6314552 0.84740192 -0.14240088 4278190080
-2.5998485 0.84775287 -0.14083603 4278190080
-2.5636811 0.84587109 -0.13901037 4278190080
-2.5322952 0.84532911 -0.13744552 4278190080
-2.5056753 0.84617525 -0.13614149 4278190080
-2.4743557 0.84523189 -0.13457665 4278190080
-2.4430735 0.84408033 -0.1330118 4278190080
-2.4165437 0.8443678 -0.13170776 4278190080
-2.3854809 0.84240085 -0.13014291 4278190080
-2.3590138 0.84232718 -0.12883888 4278190080
-2.3325763 0.84207958 -0.12753484 4278190080
-2.3108604 0.84336907 -0.12649162 4278190080
-2.289017 0.84491658 -0.12544839 4278190080
-2.2673407 0.84592056 -0.12440515 4278190080
-2.2458336 0.8463906 -0.12336193 4278190080
-2.2195342 0.84533936 -0.12205788 4278190080
-2.1932702 0.84411442 -0.12075385 4278190080
-2.1668947 0.84309447 -0.11944982 4278190080
-2.1407032 0.84151977 -0.11814577 4278190080
-2.1145496 0.83977216 -0.11684174 4278190080
-2.0932152 0.83934629 -0.11579851 4278190080
-2.0671327 0.83727509 -0.11449447 4278190080
-2.045712 0.83692288 -0.11345124 4278190080
-2.0197043 0.83452457 -0.1121472 4278190080
-1.9983466 0.83387798 -0.11110397 4278190080
-1.9770181 0.83309299 -0.11006074 4278190080
-1.9557198 0.83216888 -0.10901751 4278190080
-1.9390402 0.83307743 -0.1082351 4278190080
-1.9177973 0.83189261 -0.10719187 4278190080
-1.8965863 0.83056968 -0.10614863 4278190080
-1.879975 0.83112848 -0.10536622 4278190080
-1.8588235 0.82954609 -0.10432298 4278190080
-1.8422588 0.82987708 -0.10354056 4278190080
-1.8257145 0.8301025 -0.10275813 4278190080
-1.804653 0.8281402 -0.1017149 4278190080
-1.7881585 0.82813984 -0.10093249 4278190080
-1.7715418 0.82834309 -0.10015006 4278190080
-1.7505767 0.8259989 -0.099106833 4278190080
-1.7386661 0.82781196 -0.098585218 4278190080
-1.7312651 0.83171368 -0.098324411 4278190080
-1.719365 0.83339596 -0.097802795 4278190080
-1.7299021 0.84597319 -0.098585218 4278190080
-1.7000715 0.83875114 -0.097020373 4278190080
-1.6747824 0.83355659 -0.095716335 4278190080
-1.6496955 0.8279072 -0.094412297 4278190080
-1.628832 0.82492435 -0.093369067 4278190080
-1.6170493 0.82606184 -0.092847452 4278190080
-1.6008402 0.82484025 -0.092065029 4278190080
-1.5846592 0.82351601 -0.091282614 4278190080
-1.5729299 0.8244065 -0.090760998 4278190080
-1.5567992 0.82289171 -0.089978568 4278190080
-1.5451047 0.8236233 -0.089456953 4278190080
-1.5291697 0.82165247 -0.08867453 4278190080
-1.5173682 0.8224929 -0.088152915 4278190080
-1.5057251 0.82299483 -0.0876313 4278190080
-1.4940971 0.82342553 -0.087109685 4278190080
-1.4824846 0.82378519 -0.086588077 4278190080
-1.4708878 0.82407385 -0.086066462 4278190080
-1.459307 0.82429206 -0.085544847 4278190080
-1.4477429 0.82443911 -0.085023232 4278190080
-1.4361957 0.82451552 -0.084501617 4278190080
-1.420344 0.82202029 -0.083719194 4278190080
-1.4045274 0.81942451 -0.082936764 4278190080
-1.3930502 0.81926006 -0.082415156 4278190080
-1.3772964 0.81647897 -0.081632733 4278190080
-1.3658656 0.81615913 -0.081111118 4278190080
-1.3544538 0.81576949 -0.080589503 4278190080
-1.3473297 0.81790131 -0.080328695 4278190080
-1.3359479 0.81738776 -0.07980708 4278190080
-1.3245864 0.81680441 -0.079285465 4278190080
-1.3132453 0.8161518 -0.07876385 4278190080
-1.3019251 0.81542999 -0.078242235 4278190080
-1.290626 0.81463915 -0.07772062 4278190080
-1.2835612 0.81645972 -0.077459812 4278190080
-1.2722961 0.81554592 -0.076938204 4278190080
-1.2652472 0.81727272 -0.076677389 4278190080
-1.2540171 0.8162365 -0.076155774 4278190080
-1.2428099 0.81513184 -0.075634159 4278190080
-1.2316254 0.81395936 -0.075112544 4278190080
-1.2204647 0.81271839 -0.074590929 4278190080
-1.2093277 0.81140953 -0.074069314 4278190080
-1.1982148 0.8100329 -0.073547699 4278190080
-1.1912531 0.81139952 -0.073286891 4278190080
-1.1801794 0.80990249 -0.072765283 4278190080
-1.173238 0.81117743 -0.072504476 4278190080
-1.1622051 0.80955988 -0.071982861 4278190080
-1.155285 0.81074345 -0.071722053 4278190080
-1.1442937 0.80900615 -0.071200438 4278190080
-1.1373955 0.81009907 -0.07093963 4278190080
-1.1305039 0.81115341 -0.070678823 4278190080
-1.1236188 0.81216955 -0.070418015 4278190080
-1.1165985 0.81334269 -0.070157208 4278190080
-1.1057012 0.8113274 -0.069635585 4278190080
-1.098847 0.81221402 -0.069374777 4278190080
-1.0881366 0.80989099 -0.068853162 4278190080
-1.0811664 0.81087768 -0.068592355 4278190080
-1.0743451 0.8116371 -0.068331555 4278190080
-1.0715054 0.8153823 -0.068331555 4278190080
-1.0607269 0.81304234 -0.067809939 4278190080
-1.05393 0.81368858 -0.067549132 4278190080
-1.0433416 0.81105012 -0.067027517 4278190080
-1.036431 0.81178993 -0.066766709 4278190080
-1.0296708 0.8123101 -0.066505902 4278190080
-1.0229198 0.81279302 -0.066245094 4278190080
-1.0202187 0.81618071 -0.066245094 4278190080
-1.0172206 0.8199144 -0.066245094 4278190080
-1.0143522 0.82346034 -0.066245094 4278190080
-1.0113274 0.82717246 -0.066245094 4278190080
-1.0047243 0.82734764 -0.065984286 4278190080
-0.99798673 0.82766217 -0.065723479 4278190080
-0.99125934 0.82793981 -0.065462671 4278190080
-0.98454201 0.82818091 -0.065201864 4278190080
-0.97783536 0.82838494 -0.064941056 4278190080
-0.97113925 0.82855231 -0.064680248 4278190080
-0.964454 0.82868308 -0.064419441 4278190080
-0.80491382 0.87197113 -0.059985712 4278190080
-0.798491 0.87109488 -0.059724908 4278190080
-0.79880661 0.87756932 -0.059985712 4278190080
-0.74900794 0.82836223 -0.056334406 4278190080
-0.75611973 0.84211773 -0.057116836 4278190080
-0.7432068 0.83357096 -0.056334406 4278190080
-0.74029261 0.83616012 -0.056334406 4278190080
-0.73077571 0.83123899 -0.055812791 4278190080
-0.72786951 0.83378494 -0.055812791 4278190080
-0.7215389 0.83267349 -0.055551983 4278190080
-0.71862799 0.83518702 -0.055551983 4278190080
-0.71246457 0.83389425 -0.05529118 4278190080
-0.70631927 0.83256853 -0.055030372 4278190080
-0.70019192 0.83121008 -0.054769564 4278190080
-0.69728619 0.8336491 -0.054769564 4278190080
-0.69118184 0.83223677 -0.054508757 4278190080
-0.68509567 0.83079225 -0.054247949 4278190080
-0.68219155 0.83317858 -0.054247949 4278190080
-0.67612934 0.83168036 -0.053987142 4278190080
-0.67322218 0.8340354 -0.053987142 4278190080
-0.66718417 0.83248395 -0.053726334 4278190080
-0.66427398 0.83480793 -0.053726334 4278190080
-0.65826064 0.83320355 -0.053465527 4278190080
-0.65226656 0.83156741 -0.053204719 4278190080
-0.64921421 0.83395261 -0.053204719 4278190080
-0.64324582 0.83226293 -0.052943911 4278190080
-0.64033681 0.83450317 -0.052943911 4278190080
-0.63439417 0.83276129 -0.052683108 4278190080
-0.62847155 0.83098817 -0.0524223 4278190080
-0.62556684 0.83317697 -0.0524223 4278190080
-0.61967069 0.83135211 -0.052161492 4278190080
-0.61379492 0.82949626 -0.051900685 4278190080
-0.61089575 0.83163369 -0.051900685 4278190080
-0.60504717 0.82972652 -0.051639874 4278190080
-0.59921914 0.82778895 -0.051379066 4278190080
-0.59341228 0.82582062 -0.051118258 4278190080
-0.59052604 0.827887 -0.051118258 4278190080
-0.58474725 0.82586807 -0.050857451 4278190080
-0.58186096 0.82790416 -0.050857451 4278190080
-0.57611048 0.82583517 -0.050596647 4278190080
-0.57038176 0.82373595 -0.050335839 4278190080
-0.56750298 0.82572192 -0.050335839 4278190080
-0.56180346 0.82357293 -0.050075032 4278190080
-0.55892527 0.82552898 -0.050075032 4278190080
-0.55325514 0.82333064 -0.049814224 4278190080
-0.55037785 0.82525682 -0.049814224 4278190080
-0.54749382 0.82717294 -0.049814224 4278190080
-0.54460317 0.82907903 -0.049814224 4278190080
-0.53883463 0.82688618 -0.049553417 4278190080
-0.535945 0.82876199 -0.049553417 4278190080
-0.53035212 0.82642543 -0.049292609 4278190080
-0.52746415 0.82827169 -0.049292609 4278190080
-0.52190214 0.82588691 -0.049031802 4278190080
-0.51901615 0.8277036 -0.049031802 4278190080
-0.51348597 0.82527071 -0.048770994 4278190080
-0.51060212 0.82705808 -0.048770994 4278190080
-0.50510389 0.82457751 -0.048510186 4278190080
-0.50222236 0.82633573 -0.048510186 4278190080
-0.49675643 0.82380772 -0.048249379 4278190080
-0.49387783 0.82553667 -0.048249379 4278190080
-0.48844472 0.82296175 -0.047988571 4278190080
-0.48556912 0.82466167 -0.047988571 4278190080
-0.48016894 0.8220402 -0.047727764 4278190080
-0.47729659 0.82371128 -0.047727764 4278190080
-0.47427446 0.82545501 -0.047727764 4278190080
-0.46891761 0.8227675 -0.047466956 4278190080
-0.46604279 0.82439929 -0.047466956 4278190080
-0.46072024 0.82166582 -0.047206149 4278190080
-0.45784935 0.82326901 -0.047206149 4278190080
-0.45497286 0.82486212 -0.047206149 4278190080
-0.44969428 0.82206476 -0.046945341 4278190080
-0.44682205 0.82362944 -0.046945341 4278190080
-0.44157869 0.82078689 -0.046684533 4278190080
-0.43871096 0.82232326 -0.046684533 4278190080
-0.43350297 0.81943601 -0.046423726 4278190080
-0.43063977 0.82094431 -0.046423726 4278190080
-0.42777157 0.82244247 -0.046423726 4278190080
-0.42260957 0.81949282 -0.046162918 4278190080
-0.41974649 0.82096303 -0.046162918 4278190080
-0.41687828 0.82242316 -0.046162918 4278190080
-0.41176277 0.81941187 -0.045902111 4278190080
-0.40875685 0.82091552 -0.045902111 4278190080
-0.40588889 0.82233727 -0.045902111 4278190080
-0.40301594 0.82374907 -0.045902111 4278190080
-0.4001379 0.82515091 -0.045902111 4278190080
-0.39509222 0.82204223 -0.045641307 4278190080
-0.39222038 0.82341635 -0.045641307 4278190080
-0.38934377 0.8247804 -0.045641307 4278190080
-0.38434669 0.82161164 -0.045380499 4278190080
-0.38147619 0.82294834 -0.045380499 4278190080
-0.37845752 0.82434094 -0.045380499 4278190080
-0.37557778 0.82565695 -0.045380499 4278190080
-0.37269321 0.82696301 -0.045380499 4278190080
-0.36994904 0.82819426 -0.045380499 4278190080
-0.36503512 0.82491457 -0.045119692 4278190080
-0.36215344 0.82618374 -0.045119692 4278190080
-0.3572787 0.82286268 -0.04485888 4278190080
-0.35440424 0.82410479 -0.04485888 4278190080
-0.35152549 0.82533687 -0.04485888 4278190080
-0.34670162 0.8219583 -0.044598073 4278190080
-0.34383041 0.82316351 -0.044598073 4278190080
-0.34095496 0.82435864 -0.044598073 4278190080
-0.33793116 0.82560283 -0.044598073 4278190080
-0.33317193 0.82214969 -0.044337265 4278190080
-0.33015648 0.82336527 -0.044337265 4278190080
-0.32558128 0.81981498 -0.044076458 4278190080
-0.32271764 0.82094646 -0.044076458 4278190080
-0.31803933 0.81741464 -0.04381565 4278190080
-0.31518412 0.81851983 -0.04381565 4278190080
-0.31232509 0.81961501 -0.04381565 4278190080
-0.30931884 0.82075429 -0.04381565 4278190080
-0.30645204 0.82182896 -0.04381565 4278190080
-0.30185327 0.81820911 -0.043554842 4278190080
-0.29913831 0.81920558 -0.043554842 4278190080
-0.29627696 0.82024479 -0.043554842 4278190080
-0.293412 0.82127398 -0.043554842 4278190080
-0.2905435 0.82229316 -0.043554842 4278190080
-0.28767121 0.82330239 -0.043554842 4278190080
-0.28479564 0.82430154 -0.043554842 4278190080
-0.28191659 0.82529062 -0.043554842 4278190080
-0.27903411 0.82626963 -0.043554842 4278190080
-0.27456719 0.82250232 -0.043294039 4278190080
-0.27155063 0.8235032 -0.043294039 4278190080
-0.26867446 0.82444602 -0.043294039 4278190080
-0.26579499 0.82537884 -0.043294039 4278190080
-0.26139817 0.82154351 -0.043033231 4278190080
-0.25852889 0.82245094 -0.043033231 4278190080
-0.25565645 0.82334834 -0.043033231 4278190080
-0.25131691 0.819462 -0.042772423 4278190080
-0.24831164 0.82037765 -0.042772423 4278190080
-0.2454465 0.82123941 -0.042772423 4278190080
-0.2427218 0.82204884 -0.042772423 4278190080
-0.23970734 0.8229329 -0.042772423 4278190080
-0.23545346 0.81896585 -0.042511616 4278190080
-0.23395625 0.82458633 -0.042772423 4278190080
-0.23107652 0.82539797 -0.042772423 4278190080
-0.22686465 0.82138658 -0.042511616 4278190080
-0.22399613 0.82217342 -0.042511616 4278190080
-0.22112468 0.82295036 -0.042511616 4278190080
-0.21697189 0.81889057 -0.042250808 4278190080
-0.21396917 0.81968027 -0.042250808 4278190080
-0.21110646 0.82042223 -0.042250808 4278190080
-0.20824142 0.82115412 -0.042250808 4278190080
-0.20537382 0.82187599 -0.042250808 4278190080
-0.20250352 0.82258791 -0.042250808 4278190080
-0.19963118 0.82328975 -0.042250808 4278190080
-0.19675598 0.82398158 -0.042250808 4278190080
-0.19273606 0.81980264 -0.041990001 4278190080
-0.18987307 0.82047045 -0.041990001 4278190080
-0.18700776 0.82112831 -0.041990001 4278190080
-0.18304881 0.81690359 -0.041729189 4278190080
-0.180196 0.81753761 -0.041729189 4278190080
-0.17734142 0.81816155 -0.041729189 4278190080
-0.17448425 0.81877565 -0.041729189 4278190080
-0.17162496 0.81937975 -0.041729189 4278190080
-0.168764 0.81997383 -0.041729189 4278190080
-0.16575764 0.82058686 -0.041729189 4278190080
-0.16289207 0.8211605 -0.041729189 4278190080
-0.16002451 0.82172412 -0.041729189 4278190080
-0.15621811 0.81737322 -0.041468382 4278190080
-0.15336382 0.81791359 -0.041468382 4278190080
-0.15050809 0.81844389 -0.041468382 4278190080
-0.14676416 0.81405032 -0.041207578 4278190080
-0.14392154 0.81455773 -0.041207578 4278190080
-0.14107758 0.81505507 -0.041207578 4278190080
-0.13823147 0.81554258 -0.041207578 4278190080
-0.13538411 0.81602007 -0.041207578 4278190080
-0.13253468 0.81648773 -0.041207578 4278190080
-0.12968361 0.81694543 -0.041207578 4278190080
-0.12683141 0.81739306 -0.041207578 4278190080
-0.12308684 0.81291556 -0.04094677 4278190080
-0.12024874 0.81334025 -0.04094677 4278190080
-0.11740875 0.81375504 -0.04094677 4278190080
-0.11456776 0.81415993 -0.04094677 4278190080
-0.11172494 0.81455487 -0.04094677 4278190080
-0.10888076 0.81493992 -0.04094677 4278190080
-0.10603569 0.81531501 -0.04094677 4278190080
-0.10304682 0.81569815 -0.04094677 4278190080
-0.10019869 0.81605291 -0.04094677 4278190080
-0.097349353 0.81639773 -0.04094677 4278190080
-0.093925364 0.81177241 -0.040685963 4278190080
-0.091091 0.81209534 -0.040685963 4278190080
-0.088255964 0.81240833 -0.040685963 4278190080
-0.085419416 0.81271148 -0.040685963 4278190080
-0.082581833 0.81300473 -0.040685963 4278190080
-0.079743676 0.81328803 -0.040685963 4278190080
-0.076904111 0.81356144 -0.040685963 4278190080
-0.074064039 0.81382489 -0.040685963 4278190080
-0.071222641 0.81407851 -0.040685963 4278190080
-0.068380363 0.81432217 -0.040685963 4278190080
-0.065395392 0.81456727 -0.040685963 4278190080
-0.062551878 0.81479061 -0.040685963 4278190080
-0.059707176 0.81500399 -0.040685963 4278190080
-0.056861743 0.81520742 -0.040685963 4278190080
-0.054016054 0.81540096 -0.040685963 4278190080
-0.051169269 0.81558454 -0.040685963 4278190080
-0.048179779 0.81576657 -0.040685963 4278190080
-0.045331758 0.81592983 -0.040685963 4278190080
-0.042483613 0.81608307 -0.040685963 4278190080
-0.039392345 0.81123906 -0.040425155 4278190080
-0.036560178 0.81137168 -0.040425155 4278190080
-0.033728 0.81149435 -0.040425155 4278190080
-0.030894978 0.81160712 -0.040425155 4278190080
-0.028062012 0.81171 -0.040425155 4278190080
-0.025228271 0.81180304 -0.040425155 4278190080
-0.022394223 0.81188613 -0.040425155 4278190080
-0.019440083 0.80696762 -0.040164348 4278190080
-0.016622949 0.80703056 -0.040164348 4278190080
-0.013806043 0.80708367 -0.040164348 4278190080
-0.011056513 0.81211966 -0.040425155 4278190080
-0.0082214456 0.81215334 -0.040425155 4278190080
-0.0053867106 0.81217706 -0.040425155 4278190080
-0.0025514776 0.81219095 -0.040425155 4278190080
0.00028335379 0.81219488 -0.040425155 4278190080
0.0032605063 0.81218839 -0.040425155 4278190080
0.0060952934 0.81217206 -0.040425155 4278190080
0.0089304391 0.81214583 -0.040425155 4278190080
0.011765043 0.81210971 -0.040425155 4278190080
0.014599936 0.81206369 -0.040425155 4278190080
0.017434651 0.81200778 -0.040425155 4278190080
0.020268722 0.81194198 -0.040425155 4278190080
0.023102978 0.81186628 -0.040425155 4278190080
0.02593652 0.81178069 -0.040425155 4278190080
0.028770179 0.8116852 -0.040425155 4278190080
0.031603485 0.81157982 -0.040425155 4278190080
0.034435976 0.81146461 -0.040425155 4278190080
0.037410222 0.81133294 -0.040425155 4278190080
0.039994419 0.80621034 -0.040164348 4278190080
0.042808548 0.8060658 -0.040164348 4278190080
0.045481354 0.80591941 -0.040164348 4278190080
0.048434772 0.80574733 -0.040164348 4278190080
0.051247232 0.80557334 -0.040164348 4278190080
0.054058637 0.80538952 -0.040164348 4278190080
0.056869816 0.80519593 -0.040164348 4278190080
0.05967987 0.80499256 -0.040164348 4278190080
0.062489625 0.80477929 -0.040164348 4278190080
0.065298617 0.80455625 -0.040164348 4278190080
0.068106391 0.80432343 -0.040164348 4278190080
0.071053803 0.80406845 -0.040164348 4278190080
0.073860265 0.80381548 -0.040164348 4278190080
0.07714007 0.80852336 -0.040425155 4278190080
0.079820834 0.80826312 -0.040425155 4278190080
0.082782611 0.80796516 -0.040425155 4278190080
0.085602172 0.80767125 -0.040425155 4278190080
0.088421121 0.8073675 -0.040425155 4278190080
0.091238998 0.80705392 -0.040425155 4278190080
0.094055325 0.80673057 -0.040425155 4278190080
0.096870944 0.80639732 -0.040425155 4278190080
0.10029779 0.81100976 -0.040685963 4278190080
0.1031283 0.81065464 -0.040685963 4278190080
0.10609868 0.81027126 -0.040685963 4278190080
0.10892659 0.80989593 -0.040685963 4278190080
0.11175273 0.80951083 -0.040685963 4278190080
0.11457794 0.80911577 -0.040685963 4278190080
0.11740176 0.80871087 -0.040685963 4278190080
0.12022371 0.80829614 -0.040685963 4278190080
0.12304462 0.80787158 -0.040685963 4278190080
0.12586361 0.80743718 -0.040685963 4278190080
0.12882249 0.80697036 -0.040685963 4278190080
0.1316383 0.80651581 -0.040685963 4278190080
0.13445294 0.80605137 -0.040685963 4278190080
0.13796306 0.81052351 -0.04094677 4278190080
0.14079121 0.81003702 -0.04094677 4278190080
0.14361808 0.80954057 -0.04094677 4278190080
0.14658411 0.80900878 -0.04094677 4278190080
0.14940736 0.80849212 -0.04094677 4278190080
0.15222879 0.80796564 -0.04094677 4278190080
0.15598954 0.81233299 -0.041207578 4278190080
0.15896572 0.81175584 -0.041207578 4278190080
0.16179849 0.81119597 -0.041207578 4278190080
0.16462928 0.81062621 -0.041207578 4278190080
0.16745763 0.81004667 -0.041207578 4278190080
0.17028438 0.80945718 -0.041207578 4278190080
0.17310861 0.80885786 -0.041207578 4278190080
0.17593117 0.80824864 -0.041207578 4278190080
0.17875157 0.80762959 -0.041207578 4278190080
0.18156938 0.80700076 -0.041207578 4278190080
0.18549845 0.81122959 -0.041468382 4278190080
0.18832877 0.81057715 -0.041468382 4278190080
0.19115724 0.80991483 -0.041468382 4278190080
0.19398338 0.80924255 -0.041468382 4278190080
0.19680673 0.80856055 -0.041468382 4278190080
0.19857058 0.80298656 -0.041207578 4278190080
0.20137206 0.80228859 -0.041207578 4278190080
0.20417151 0.80158073 -0.041207578 4278190080
0.2082174 0.80569756 -0.041468382 4278190080
0.21102871 0.80496579 -0.041468382 4278190080
0.21383744 0.80422425 -0.041468382 4278190080
0.21808428 0.80825591 -0.041729189 4278190080
0.22090402 0.80748981 -0.041729189 4278190080
0.22372152 0.8067137 -0.041729189 4278190080
0.22639547 0.80596739 -0.041729189 4278190080
0.22934785 0.80513221 -0.041729189 4278190080
0.23354177 0.80912411 -0.041990001 4278190080
0.23636445 0.80830401 -0.041990001 4278190080
0.23918469 0.80747402 -0.041990001 4278190080
0.24343687 0.81141669 -0.042250808 4278190080
0.2462675 0.81056207 -0.042250808 4278190080
0.24762736 0.80492502 -0.041990001 4278190080
0.25043529 0.80405581 -0.041990001 4278190080
0.25324064 0.80317664 -0.041990001 4278190080
0.25604287 0.80228776 -0.041990001 4278190080
0.25898156 0.80134398 -0.041990001 4278190080
0.26332903 0.80518097 -0.042250808 4278190080
0.2661382 0.8042568 -0.042250808 4278190080
0.26894414 0.80332285 -0.042250808 4278190080
0.27174637 0.80237925 -0.042250808 4278190080
0.27616391 0.80614942 -0.042511616 4278190080
0.27911663 0.80513191 -0.042511616 4278190080
0.28192553 0.80415261 -0.042511616 4278190080
0.28473055 0.80316371 -0.042511616 4278190080
0.28753257 0.80216485 -0.042511616 4278190080
0.29033107 0.80115622 -0.042511616 4278190080
0.2948432 0.8048265 -0.042772423 4278190080
0.29779091 0.80374044 -0.042772423 4278190080
0.30059487 0.80269605 -0.042772423 4278190080
0.30516255 0.80631173 -0.043033231 4278190080
0.30797499 0.8052417 -0.043033231 4278190080
0.3107841 0.80416167 -0.043033231 4278190080
0.31358901 0.80307204 -0.043033231 4278190080
0.31639048 0.80197245 -0.043033231 4278190080
0.31918815 0.80086309 -0.043033231 4278190080
0.32198149 0.79974413 -0.043033231 4278190080
0.32477131 0.79861528 -0.043033231 4278190080
0.32959402 0.80203801 -0.043294039 4278190080
0.3323918 0.80088258 -0.043294039 4278190080
0.33518514 0.79971755 -0.043294039 4278190080
0.33783528 0.79860163 -0.043294039 4278190080
0.34272256 0.80194938 -0.043554842 4278190080
0.34551954 0.80074829 -0.043554842 4278190080
0.34831274 0.79953724 -0.043554842 4278190080
0.35311145 0.80288732 -0.04381565 4278190080
0.35591209 0.80164975 -0.04381565 4278190080
0.35870835 0.8004024 -0.04381565 4278190080
0.36149985 0.79914552 -0.04381565 4278190080
0.36428735 0.79787874 -0.04381565 4278190080
0.36706999 0.79660237 -0.04381565 4278190080
0.37195405 0.79984373 -0.044076458 4278190080
0.37474394 0.79854041 -0.044076458 4278190080
0.37966585 0.80174029 -0.044337265 4278190080
0.38246232 0.80041003 -0.044337265 4278190080
0.38742214 0.80356801 -0.044598073 4278190080
0.39036509 0.8021425 -0.044598073 4278190080
0.39536306 0.8052572 -0.04485888 4278190080
0.3983117 0.80380279 -0.04485888 4278190080
0.40320691 0.80694419 -0.045119692 4278190080
0.40616211 0.80546075 -0.045119692 4278190080
0.40897098 0.80403823 -0.045119692 4278190080
0.41405454 0.80704826 -0.045380499 4278190080
0.41672859 0.80567074 -0.045380499 4278190080
0.4196786 0.804138 -0.045380499 4278190080
0.42248318 0.80266809 -0.045380499 4278190080
0.42528218 0.80118859 -0.045380499 4278190080
0.43043289 0.80410129 -0.045641307 4278190080
0.43323684 0.80259401 -0.045641307 4278190080
0.43603596 0.80107677 -0.045641307 4278190080
0.44123217 0.80392694 -0.045902111 4278190080
0.44403547 0.80238205 -0.045902111 4278190080
0.4492667 0.8051874 -0.046162918 4278190080
0.45207432 0.80361444 -0.046162918 4278190080
0.45487687 0.8020314 -0.046162918 4278190080
0.45767391 0.80043858 -0.046162918 4278190080
0.46060446 0.79875582 -0.046162918 4278190080
0.46338999 0.79714304 -0.046162918 4278190080
0.46869394 0.79982883 -0.046423726 4278190080
0.47148317 0.79818785 -0.046423726 4278190080
0.47426623 0.79653734 -0.046423726 4278190080
0.47961339 0.79915822 -0.046684533 4278190080
0.48240024 0.79747909 -0.046684533 4278190080
0.48778003 0.80005378 -0.046945341 4278190080
0.49070898 0.79826069 -0.046945341 4278190080
0.4934926 0.79654282 -0.046945341 4278190080
0.49891472 0.79905063 -0.047206149 4278190080
0.50170064 0.79730439 -0.047206149 4278190080
0.50448084 0.7955482 -0.047206149 4278190080
0.50994325 0.79798996 -0.047466956 4278190080
0.51272583 0.79620498 -0.047466956 4278190080
0.51822013 0.79859889 -0.047727764 4278190080
0.52100438 0.79678524 -0.047727764 4278190080
0.52652985 0.79913116 -0.047988571 4278190080
0.52945518 0.79719603 -0.047988571 4278190080
0.53501183 0.79949266 -0.048249379 4278190080
0.54059052 0.80176049 -0.048510186 4278190080
0.54338604 0.79986846 -0.048510186 4278190080
0.54899526 0.80208713 -0.048770994 4278190080
0.55179143 0.80016607 -0.048770994 4278190080
0.55458134 0.798235 -0.048770994 4278190080
0.55736411 0.79629445 -0.048770994 4278190080
0.56301796 0.7984246 -0.049031802 4278190080
0.56580174 0.79645431 -0.049031802 4278190080
0.57162362 0.79843521 -0.049292609 4278190080
0.57440692 0.79643524 -0.049292609 4278190080
0.57732248 0.79432434 -0.049292609 4278190080
0.58290237 0.79643476 -0.049553417 4278190080
0.5856787 0.79439539 -0.049553417 4278190080
0.5914253 0.79635465 -0.049814224 4278190080
0.59420121 0.79428554 -0.049814224 4278190080
0.59997535 0.79619414 -0.050075032 4278190080
0.60275108 0.79409486 -0.050075032 4278190080
0.60551906 0.79198623 -0.050075032 4278190080
0.61132663 0.79382366 -0.050335839 4278190080
0.61409366 0.7916851 -0.050335839 4278190080
0.6199277 0.79347128 -0.050596647 4278190080
0.62269384 0.79130232 -0.050596647 4278190080
0.62855345 0.79303724 -0.050857451 4278190080
0.63443315 0.7947405 -0.051118258 4278190080
0.64047104 0.79630077 -0.051379066 4278190080
0.64324695 0.79406011 -0.051379066 4278190080
0.64917105 0.79567903 -0.051639874 4278190080
0.6519447 0.79340804 -0.051639874 4278190080
0.65789348 0.79497451 -0.051900685 4278190080
0.66066462 0.79267305 -0.051900685 4278190080
0.66342771 0.79036188 -0.051900685 4278190080
0.66940588 0.79185474 -0.052161492 4278190080
0.67216605 0.78951311 -0.052161492 4278190080
0.6781677 0.7909528 -0.0524223 4278190080
0.68092465 0.7885806 -0.0524223 4278190080
0.68694985 0.78996664 -0.052683108 4278190080
0.6898405 0.78744364 -0.052683108 4278190080
0.69258511 0.78503066 -0.052683108 4278190080
