# .PCD v0.7 - Point Cloud Data file format
VERSION 0.7
FIELDS x y z rgb
SIZE 4 4 4 4
TYPE F F F U
COUNT 1 1 1 1
WIDTH 1114
HEIGHT 1
VIEWPOINT 0 0 0 1 0 0 0
POINTS 1114
DATA ascii
1.7255884 0.80585229 0.14457297 4294967295
1.7285624 -0.9463858 0.14606172 4294967295
1.716 0.81005448 0.10870719 4294967295
1.7239166 0.80710429 0.11647472 4294967295
1.7284211 -0.95068789 0.11355516 4294967295
1.7130001 0.81102026 0.09352839 4294967295
1.7224582 0.80625683 0.084530801 4294967295
1.73175 0.54761469 0.083852917 4294967295
1.7272424 0.52437544 0.086123407 4294967295
1.728189 0.49459189 0.083594322 4294967295
1.73365 0.46922672 0.074719548 4294967295
1.7309656 0.43447456 0.080487996 4294967295
1.7274445 0.4055903 0.082083583 4294967295
1.7300003 0.37788627 0.073502541 4294967295
1.7287858 0.34276682 0.073006153 4294967295
1.7264001 0.31625551 0.076983094 4294967295
1.7276876 0.28643006 0.075850964 4294967295
1.7296002 0.25786635 0.073625594 4294967295
1.738 0.2135551 0.071174532 4294967295
1.7296665 0.19291028 0.072449267 4294967295
1.7291249 0.16449241 0.073314101 4294967295
1.7294667 0.13480274 0.073801458 4294967295
1.7311175 0.10603883 0.071545511 4294967295
1.7315835 0.077497318 0.070834309 4294967295
1.738 0.044191927 0.071174532 4294967295
1.7313848 0.010510098 0.07227397 4294967295
1.7262144 -0.010753489 0.072804332 4294967295
1.738 -0.082254395 0.074054837 4294967295
1.738 -0.092239529 0.072518677 4294967295
1.7336364 -0.22851031 0.074871004 4294967295
1.7278637 -0.25399327 0.075996727 4294967295
1.7295625 -0.28406858 0.081387341 4294967295
1.7285626 -0.31497693 0.082149327 4294967295
1.7287142 -0.34442803 0.074544817 4294967295
1.7376666 -0.37108186 0.071260631 4294967295
1.7253333 -0.65600115 0.070463449 4294967295
1.727722 -0.67449307 0.073397368 4294967295
1.7282857 -0.70485187 0.074080378 4294967295
1.7309445 -0.73376507 0.072116941 4294967295
1.7376 -0.75688404 0.072084308 4294967295
1.7296667 -0.8348704 0.073004812 4294967295
1.7281786 -0.85519743 0.079453886 4294967295
1.7279565 -0.88294333 0.086156815 4294967295
1.728609 -0.91483927 0.091746241 4294967295
1.7329999 -0.93835956 0.097934276 4294967295
1.7228094 0.80468565 0.055124462 4294967295
1.7275455 0.46168706 0.068049639 4294967295
1.717 0.44601613 0.068630159 4294967295
1.7309999 0.36330304 0.068966031 4294967295
1.7337999 0.35182813 0.06823644 4294967295
1.7299999 0.24588466 0.067626119 4294967295
1.7285624 0.22391839 0.065353811 4294967295
1.7210001 0.20680542 0.068915814 4294967295
1.7165 0.14320898 0.068761587 4294967295
1.71975 0.11355603 0.068910122 4294967295
1.727 0.067091882 0.06829831 4294967295
1.727762 0.044597767 0.066197008 4294967295
1.7244445 0.024062637 0.067130506 4294967295
1.7275999 -0.024615929 0.066655189 4294967295
1.7295384 -0.040132448 0.058557153 4294967295
1.7292501 -0.077636063 0.060911655 4294967295
1.7310455 -0.10275938 0.065134376 4294967295
1.7275001 -0.13595121 0.065372229 4294967295
1.72975 -0.16471662 0.057754427 4294967295
1.7296667 -0.20079838 0.055268317 4294967295
1.7278888 -0.22108075 0.065108359 4294967295
1.716 -0.35649946 0.068893045 4294967295
1.7254375 -0.37622249 0.067673564 4294967295
1.729619 -0.40499502 0.064754128 4294967295
1.7287273 -0.43097901 0.061546654 4294967295
1.7243845 -0.46686786 0.063928813 4294967295
1.7276669 -0.49319848 0.064500511 4294967295
1.7281429 -0.52341712 0.065700918 4294967295
1.7275 -0.55174232 0.064379752 4294967295
1.7287778 -0.5837357 0.065533936 4294967295
1.7258888 -0.61615074 0.064970225 4294967295
1.7314166 -0.64423579 0.066517532 4294967295
1.7212501 -0.74198151 0.068515807 4294967295
1.7302001 -0.7657057 0.064969808 4294967295
1.7302173 -0.79437488 0.065172106 4294967295
1.7314167 -0.81965214 0.06685394 4294967295
1.7273915 0.80513334 0.025301963 4294967295
1.7239544 0.82088017 -0.013381064 4294967295
1.7275625 0.80597001 0.00072777271 4294967295
1.7293751 0.81935811 -0.022393882 4294967295
1.727 0.7992025 -0.027875364 4294967295
1.7242 0.76755029 -0.038052142 4294967295
1.711 0.74814701 -0.044917047 4294967295
1.7256 0.75692677 -0.12821031 4294967295
1.7359999 0.7550506 -0.14178318 4294967295
1.7533749 -0.92564517 1.4910405 4294967295
1.7505161 -0.91456848 1.4649581 4294967295
1.7507371 -0.91313314 1.4362298 4294967295
1.7515367 -0.91336089 1.4051615 4294967295
1.7508886 -0.9160226 1.375458 4294967295
1.7509998 -0.92076677 1.3445618 4294967295
1.751308 -0.91063243 1.3152374 4294967295
1.7498975 -0.91568559 1.2852756 4294967295
1.7508488 -0.91741705 1.2557478 4294967295
1.7524548 -0.91874993 1.2248769 4294967295
1.7524284 -0.92732447 1.1960115 4294967295
1.762 -0.93021935 1.1892154 4294967295
1.7532965 -0.92620426 1.1646481 4294967295
1.7542727 -0.9230265 1.1332268 4294967295
1.7527301 -0.92353481 1.1063232 4294967295
1.7514689 -0.91980797 1.0767548 4294967295
1.7518001 -0.91844594 1.0433445 4294967295
1.75275 -0.92354846 1.0148863 4294967295
1.7410001 -0.93125105 1.0055249 4294967295
1.7542999 0.50372487 0.9835906 4294967295
1.7530001 -0.92068958 0.98569721 4294967295
1.7410001 -0.93125105 0.99946576 4294967295
1.7510833 0.49853322 0.95448816 4294967295
1.752926 -0.91591722 0.95528722 4294967295
1.7445 0.49228334 0.92420506 4294967295
1.7527647 -0.92041624 0.92387092 4294967295
1.7523887 0.49856603 0.89575404 4294967295
1.7516582 -0.92344606 0.89619315 4294967295
1.7504739 0.49327779 0.86462319 4294967295
1.7520335 -0.91720802 0.86482799 4294967295
1.7488823 0.48566934 0.83310056 4294967295
1.753087 -0.91806668 0.83637571 4294967295
1.7490501 0.79176271 0.80140287 4294967295
1.7497504 0.487598 0.80395287 4294967295
1.7509501 -0.92294788 0.80556667 4294967295
1.751875 0.82171911 0.77449727 4294967295
1.7504444 0.80599022 0.78680563 4294967295
1.7510999 0.49264044 0.77491695 4294967295
1.7514542 -0.91354793 0.77347469 4294967295
1.753 0.82954884 0.74857539 4294967295
1.7527647 0.48890164 0.74624771 4294967295
1.7500968 -0.91395783 0.74444914 4294967295
1.7521819 0.48785129 0.71908069 4294967295
1.7483751 -0.91574448 0.71719557 4294967295
1.7537085 -0.91513777 0.68338215 4294967295
1.7505002 -0.91916329 0.65437049 4294967295
1.7436922 0.78515428 0.6167981 4294967295
1.755 0.77960205 0.61241895 4294967295
1.748 0.49259645 0.62422627 4294967295
1.7531716 -0.91797411 0.62463784 4294967295
1.7510525 0.79234797 0.60045457 4294967295
1.7418001 0.49084923 0.59636664 4294967295
1.7531751 -0.91718769 0.59574676 4294967295
1.75525 0.81193388 0.56052566 4294967295
1.7475001 0.80768669 0.57350397 4294967295
1.7529413 0.49325523 0.56230813 4294967295
1.7504065 -0.91087818 0.56546921 4294967295
1.7495624 0.81396222 0.53653044 4294967295
1.753222 0.49337411 0.53368676 4294967295
1.7503502 -0.91459543 0.53348893 4294967295
1.755625 0.81551462 0.49839401 4294967295
1.7539586 0.49425888 0.50452888 4294967295
1.7521927 -0.92065901 0.50477636 4294967295
1.7420769 -0.93462402 0.49918482 4294967295
1.75625 0.81274354 0.48207495 4294967295
1.7467144 0.80833817 0.47071242 4294967295
1.7522629 0.49549413 0.47426742 4294967295
1.7523258 -0.91949588 0.47508466 4294967295
1.743 -0.93232083 0.48642126 4294967295
1.7690001 0.81044739 0.4465183 4294967295
1.7494003 0.80714184 0.44489068 4294967295
1.75345 0.49797723 0.44614303 4294967295
1.75 -0.91535902 0.44490272 4294967295
1.7506001 0.80525422 0.42778611 4294967295
1.7515599 0.49472049 0.41440505 4294967295
1.7530625 -0.91530913 0.41505754 4294967295
1.7486999 0.80924964 0.37757504 4294967295
1.7527001 0.49350792 0.38619584 4294967295
1.7516841 -0.91329807 0.38293445 4294967295
1.7690001 0.81044739 0.35868454 4294967295
1.7484998 0.80645216 0.35581848 4294967295
1.7572 0.49680477 0.35815409 4294967295
1.7507893 -0.90898746 0.3575716 4294967295
1.752059 0.80243421 0.32483768 4294967295
1.7533333 -0.90889716 0.32350463 4294967295
1.75135 0.8035627 0.29345956 4294967295
1.7529445 -0.92270249 0.29010737 4294967295
1.7488571 0.80468732 0.27039301 4294967295
1.7448 0.5078876 0.25969198 4294967295
1.7531558 -0.91340601 0.26513451 4294967295
1.7690001 0.51082754 0.22323993 4294967295
1.7642002 0.49818802 0.23059481 4294967295
1.7672354 0.4673835 0.22691402 4294967295
1.7537839 -0.91749656 0.23710856 4294967295
1.7515185 -0.94484591 0.22931844 4294967295
1.7474999 -0.96512288 0.2254909 4294967295
1.7506366 0.80755889 0.19826758 4294967295
1.743 0.54173583 0.19120505 4294967295
1.7561364 0.51893735 0.20132738 4294967295
1.7680805 0.49693656 0.2138761 4294967295
1.7681433 0.46545467 0.21722907 4294967295
1.7690001 0.44926178 0.21708333 4294967295
1.7640001 -0.92542374 0.19661254 4294967295
1.7545 -0.94597226 0.20277914 4294967295
1.7472082 -0.96749014 0.21339068 4294967295
1.7508003 0.81184912 0.17430452 4294967295
1.7589999 0.80994719 0.18818685 4294967295
1.7625 0.54778671 0.18343735 4294967295
1.7585999 0.53148633 0.18581036 4294967295
1.7570655 -0.91609132 0.17464659 4294967295
1.7482001 -0.94468468 0.17330992 4294967295
1.7426364 -0.96410185 0.17362934 4294967295
1.752 0.81078893 0.15698782 4294967295
1.7451999 0.80925775 0.15272209 4294967295
1.7690001 0.43812135 0.13470256 4294967295
1.7610857 -0.91874325 0.14938527 4294967295
1.7479774 -0.93855739 0.14639038 4294967295
1.7690001 0.81044739 0.10010844 4294967295
1.74525 0.80817008 0.11283186 4294967295
1.7606877 0.57837635 0.10618344 4294967295
1.7633845 0.55830127 0.10333455 4294967295
1.7594445 0.52439624 0.10147327 4294967295
1.7653638 0.49599457 0.1020909 4294967295
1.7647144 0.46162689 0.10376275 4294967295
1.7661251 0.43794239 0.11002418 4294967295
1.7690001 0.40411356 0.10010844 4294967295
1.7690001 0.37538293 0.1001085 4294967295
1.7690001 0.34460002 0.1001085 4294967295
1.7690001 0.10859809 0.10010844 4294967295
1.7547725 -0.94746268 0.11330229 4294967295
1.7443751 0.80827004 0.089768231 4294967295
1.7501429 0.57499057 0.095311046 4294967295
1.7478787 0.55597049 0.094075769 4294967295
1.748095 0.52545255 0.096389085 4294967295
1.7485862 0.493597 0.094893843 4294967295
1.7470572 0.46403164 0.089206636 4294967295
1.7497188 0.43585381 0.093538374 4294967295
1.7525946 0.4040944 0.092049271 4294967295
1.751155 0.3743214 0.086450309 4294967295
1.7507403 0.34554696 0.087180495 4294967295
1.7547892 0.31550983 0.086843491 4294967295
1.755581 0.285285 0.085046053 4294967295
1.7532609 0.25478241 0.083187133 4294967295
1.7543159 0.22627297 0.078881681 4294967295
1.7554287 0.19456246 0.081016898 4294967295
1.7537106 0.16462554 0.08587262 4294967295
1.7553184 0.13431793 0.088212937 4294967295
1.7543859 0.10490905 0.084768414 4294967295
1.7553258 0.07546322 0.081318378 4294967295
1.7528638 0.04530894 0.080677807 4294967295
1.7538787 0.01469338 0.079803199 4294967295
1.7527001 -0.015517209 0.08154124 4294967295
1.7539806 -0.045524474 0.082152694 4294967295
1.7482601 -0.074801579 0.086001933 4294967295
1.7507404 -0.10391919 0.082703918 4294967295
1.7614287 -0.13125025 0.077104479 4294967295
1.7626314 -0.16944499 0.075797141 4294967295
1.7553875 -0.1965154 0.080923051 4294967295
1.7512499 -0.22344039 0.086679876 4294967295
1.7515521 -0.25415406 0.083533108 4294967295
1.7534167 -0.28442836 0.086025685 4294967295
1.7547781 -0.31660047 0.087673634 4294967295
1.7561466 -0.34614328 0.085507154 4294967295
1.7546813 -0.37517551 0.081197798 4294967295
1.7558572 -0.4052656 0.081560254 4294967295
1.7542448 -0.43477952 0.083282471 4294967295
1.7554317 -0.46382889 0.081971288 4294967295
1.7601429 -0.49168473 0.075192183 4294967295
1.7659999 -0.55945086 0.071556211 4294967295
1.7609476 -0.58602774 0.072782874 4294967295
1.7637001 -0.60825789 0.073137641 4294967295
1.7562728 -0.65304226 0.07202372 4294967295
1.7544285 -0.67528743 0.078145415 4294967295
1.7531902 -0.70482701 0.084035188 4294967295
1.7532681 -0.73409939 0.083738148 4294967295
1.7513515 -0.76577389 0.079178303 4294967295
1.7510219 -0.79492444 0.078354746 4294967295
1.7508147 -0.82530212 0.081894904 4294967295
1.752195 -0.85442513 0.090144664 4294967295
1.7514244 -0.88372976 0.093834698 4294967295
1.7526954 -0.91432863 0.096035749 4294967295
1.7485 -0.93457055 0.098218828 4294967295
1.7410001 0.80569839 0.048183024 4294967295
1.7420001 0.2403179 0.06812185 4294967295
1.7423334 0.23227963 0.068035781 4294967295
1.7460001 -0.046755351 0.062767506 4294967295
1.7433574 -0.070367098 0.064013839 4294967295
1.7436666 -0.11546691 0.069711149 4294967295
1.750941 -0.13771586 0.066885769 4294967295
1.7526132 -0.16537359 0.063219786 4294967295
1.7480748 -0.19371913 0.05975771 4294967295
1.7410001 -0.2122348 0.062320948 4294967295
1.743 -0.41005972 0.069306254 4294967295
1.7447367 -0.43640143 0.065816939 4294967295
1.7458948 -0.46355245 0.065728039 4294967295
1.7473749 -0.49630016 0.067238986 4294967295
1.7523811 -0.52533412 0.067477465 4294967295
1.7517081 -0.55560285 0.066800982 4294967295
1.7478002 -0.58505094 0.066755027 4294967295
1.7535788 -0.61656857 0.066734523 4294967295
1.7513334 -0.63985747 0.067741036 4294967295
1.7690001 0.81044739 0.034438342 4294967295
1.7508183 0.8045029 0.024471998 4294967295
1.757 0.81102276 -0.019311547 4294967295
1.7516 0.80489796 -0.0042626858 4294967295
1.7545999 0.81277728 -0.0259251 4294967295
1.7512308 0.79978102 -0.032884955 4294967295
1.7453333 0.771267 -0.044095874 4294967295
1.7596668 0.77079505 -0.052798092 4294967295
1.7466666 0.76238906 -0.13369566 4294967295
1.7587143 0.76084447 -0.14576632 4294967295
1.7878001 -0.93470097 1.5150847 4294967295
1.7844446 -0.92410445 1.4921322 4294967295
1.786 -0.93252444 1.5070399 4294967295
1.7846875 -0.91552955 1.464885 4294967295
1.7828667 -0.91695589 1.4345646 4294967295
1.7867222 -0.91401088 1.4054012 4294967295
1.7855788 -0.92281693 1.3741107 4294967295
1.7864445 -0.91385281 1.3460819 4294967295
1.783739 -0.90983921 1.3165758 4294967295
1.7823999 -0.91837442 1.2848908 4294967295
1.7831249 -0.9214499 1.2535914 4294967295
1.784706 -0.92465675 1.2258496 4294967295
1.7945 -0.93280077 1.2140497 4294967295
1.776 -0.92936921 1.1821709 4294967295
1.7851334 -0.93275762 1.1974388 4294967295
1.7858334 -0.92689103 1.160713 4294967295
1.7917999 -0.93181133 1.174758 4294967295
1.7858967 -0.92038047 1.136131 4294967295
1.7856841 -0.92483079 1.1061676 4294967295
1.786 -0.92439336 1.0752896 4294967295
1.7820715 -0.92220259 1.0459197 4294967295
1.7852944 -0.92423397 1.0155522 4294967295
1.79 0.50581235 0.98180652 4294967295
1.7868574 -0.92260009 0.98751068 4294967295
1.7878001 0.50381231 0.95844936 4294967295
1.7854288 -0.92186445 0.95370424 4294967295
1.783 0.49832276 0.91174769 4294967295
1.7853159 -0.92267537 0.92598224 4294967295
1.7858334 0.50083214 0.89408159 4294967295
1.7864375 -0.92626983 0.89514279 4294967295
1.7843751 0.49352497 0.86754423 4294967295
1.7863572 -0.92175204 0.86481023 4294967295
1.7788 0.48806036 0.83897293 4294967295
1.7844547 -0.92511749 0.83830965 4294967295
1.78775 -0.93240309 0.82464862 4294967295
1.7833334 0.80252379 0.79803777 4294967295
1.7821666 0.49050677 0.80542183 4294967295
1.7826667 -0.92733508 0.79310519 4294967295
1.7895 -0.93383127 0.81092936 4294967295
1.7855238 0.82648087 0.77282876 4294967295
1.78 0.8092851 0.78719139 4294967295
1.7811667 0.49367774 0.77704096 4294967295
1.7859999 -0.92008489 0.77357125 4294967295
1.793 0.84224308 0.73922205 4294967295
1.7844 0.83571148 0.75222385 4294967295
1.7843845 -0.92005658 0.7448442 4294967295
1.774 0.82920206 0.72866702 4294967295
1.7852501 -0.92418927 0.71514219 4294967295
1.7850001 -0.92256898 0.68669873 4294967295
1.7832632 -0.92117894 0.65419048 4294967295
1.787423 -0.91794181 0.62528527 4294967295
1.7904999 0.81405723 0.58105427 4294967295
1.787909 0.79796916 0.59568238 4294967295
1.7849 -0.91703606 0.59618515 4294967295
1.7857002 0.81808877 0.56308424 4294967295
1.7931999 0.49701297 0.56035113 4294967295
1.7850666 -0.9158814 0.56346202 4294967295
1.7850769 0.82194501 0.53530604 4294967295
1.7834285 0.49430469 0.53529972 4294967295
1.7854999 -0.91687161 0.53530502 4294967295
1.7822858 0.82421023 0.50633383 4294967295
1.7824286 0.4940275 0.50634265 4294967295
1.7858421 -0.91793001 0.50631464 4294967295
1.7854 0.82127142 0.48146757 4294967295
1.7844545 0.49608961 0.47357082 4294967295
1.7878889 -0.92013931 0.47772229 4294967295
1.7882501 0.81563199 0.44457793 4294967295
1.7898571 0.50023925 0.44399014 4294967295
1.7833751 -0.92235881 0.44787976 4294967295
1.7820001 0.81226861 0.42572021 4294967295
1.7852308 0.49447474 0.41582838 4294967295
1.787077 -0.92048562 0.4125337 4294967295
1.783 0.81686133 0.3780922 4294967295
1.7838001 0.4960582 0.39044699 4294967295
1.7850527 -0.91534424 0.38686115 4294967295
1.7846251 0.81501132 0.3603667 4294967295
1.776 0.80953377 0.34362403 4294967295
1.798 0.50668669 0.34769669 4294967295
1.7887999 -0.91336977 0.35577968 4294967295
1.795 0.81402957 0.33341524 4294967295
1.7782859 0.80821365 0.32482076 4294967295
1.7875625 -0.91259778 0.32406932 4294967295
1.79625 0.81146771 0.29682642 4294967295
1.7791251 0.8078593 0.29378048 4294967295
1.7834617 -0.92593575 0.29179901 4294967295
1.7902501 -0.93162954 0.29339856 4294967295
1.7928573 0.81305784 0.26500213 4294967295
1.7745001 0.80885005 0.26966614 4294967295
1.778 0.51342642 0.25474152 4294967295
1.7864283 -0.91310132 0.2647258 4294967295
1.791 0.81221563 0.24863729 4294967295
1.786 0.51159269 0.24732876 4294967295
1.7789999 0.49700612 0.24024364 4294967295
1.7813449 0.46407002 0.23472238 4294967295
1.7859162 0.43570969 0.22882301 4294967295
1.7826841 0.40440544 0.22890097 4294967295
1.7906857 0.37557781 0.22803855 4294967295
1.7922729 0.34365505 0.22765413 4294967295
1.7902594 0.3148165 0.22967687 4294967295
1.7930001 0.28609884 0.22731605 4294967295
1.798 0.21049838 0.22671834 4294967295
1.7980002 0.19608718 0.22406366 4294967295
1.7980001 0.0072786049 0.22433451 4294967295
1.798 -0.0085141333 0.22393721 4294967295
1.7849499 -0.91540086 0.23485798 4294967295
1.7825 0.81455457 0.194103 4294967295
1.774 0.51295727 0.2025072 4294967295
1.7768571 0.49306157 0.19865409 4294967295
1.7785404 0.46495983 0.20132867 4294967295
1.774857 0.43427873 0.20578402 4294967295
1.7778033 0.40404832 0.20526314 4294967295
1.78494 0.37437063 0.20433709 4294967295
1.787794 0.34561577 0.20600954 4294967295
1.7855939 0.31493261 0.20607361 4294967295
1.7901354 0.28516793 0.20464349 4294967295
1.7967501 0.26662892 0.1967023 4294967295
1.798 0.21049838 0.21628916 4294967295
1.7975947 0.19230323 0.2088595 4294967295
1.7980002 0.16677313 0.20184284 4294967295
1.7968236 0.13482831 0.19454235 4294967295
1.7941211 0.1038376 0.19834477 4294967295
1.795607 0.080617227 0.20062888 4294967295
1.7977369 0.011355894 0.2131497 4294967295
1.7980001 -0.0085141333 0.21628913 4294967295
1.7875 -0.92424583 0.20468336 4294967295
1.7831035 -0.94019431 0.20632192 4294967295
1.7843848 0.81843799 0.17449695 4294967295
1.7754076 0.55173236 0.1699844 4294967295
1.7775713 0.52371264 0.17436245 4294967295
1.7812363 0.49548307 0.17595202 4294967295
1.7878371 0.46649468 0.17445087 4294967295
1.7814485 0.43589997 0.17567757 4294967295
1.7818921 0.40497887 0.17559043 4294967295
1.7878889 0.37579265 0.17553386 4294967295
1.7889796 0.34485903 0.1747373 4294967295
1.7884679 0.31523672 0.17590383 4294967295
1.7920234 0.28532296 0.17620116 4294967295
1.7978002 0.26002783 0.17619497 4294967295
1.7980001 0.1562667 0.18678954 4294967295
1.7963824 0.13443007 0.17953795 4294967295
1.7952905 0.10685062 0.17824462 4294967295
1.7980001 0.084156461 0.1850017 4294967295
1.798 0.0077553671 0.16497764 4294967295
1.7951154 -0.015705269 0.16680145 4294967295
1.7963333 -0.034208965 0.1663298 4294967295
1.7971668 -0.14541513 0.16500548 4294967295
1.7968888 -0.16346301 0.16506106 4294967295
1.798 -0.1816383 0.16414332 4294967295
1.7912 -0.89908135 0.16299871 4294967295
1.7835171 -0.90788496 0.17643619 4294967295
1.7878889 0.82047307 0.14678833 4294967295
1.7851361 0.57761127 0.14276597 4294967295
1.7863995 0.55446744 0.14469856 4294967295
1.7871606 0.52477968 0.14619952 4294967295
1.78304 0.49420026 0.14641124 4294967295
1.7803212 0.46453509 0.14493969 4294967295
1.7776935 0.43421799 0.14730296 4294967295
1.7815967 0.40530485 0.1451335 4294967295
1.7957749 0.37487561 0.14512318 4294967295
1.7979999 0.34367079 0.14521036 4294967295
1.797999 0.31511721 0.14443031 4294967295
1.7966843 0.28647414 0.13478744 4294967295
1.798 0.26751113 0.13216057 4294967295
1.7980001 0.21821597 0.14099059 4294967295
1.7911278 0.19449221 0.14261559 4294967295
1.7940645 0.16625462 0.1394138 4294967295
1.798 0.14792337 0.13077 4294967295
1.7980001 0.013238129 0.15520409 4294967295
1.7950968 -0.016355509 0.14926371 4294967295
1.7949994 -0.042979594 0.14567047 4294967295
1.7963333 -0.14048256 0.14807817 4294967295
1.7959542 -0.16391651 0.14664504 4294967295
1.798 -0.1816383 0.15580001 4294967295
1.7922778 -0.89744556 0.14909503 4294967295
1.7824849 -0.91004843 0.1401363 4294967295
1.7838572 0.81547409 0.11726397 4294967295
1.78575 0.57854128 0.11967668 4294967295
1.7904645 0.55447072 0.1148887 4294967295
1.7881293 0.52479875 0.11350515 4294967295
1.7836916 0.49470511 0.11629531 4294967295
1.7755713 0.46496379 0.1168941 4294967295
1.7758282 0.43191832 0.11555472 4294967295
1.7816136 0.4047403 0.11445317 4294967295
1.7845963 0.37483451 0.11480862 4294967295
1.7875333 0.34502646 0.11495844 4294967295
1.7879306 0.31459135 0.11417294 4294967295
1.7902062 0.28491411 0.11335805 4294967295
1.7944877 0.25820965 0.11053616 4294967295
1.7968367 0.2251962 0.11280069 4294967295
1.7903165 0.19465382 0.11443937 4294967295
1.7893155 0.16409829 0.11373517 4294967295
1.7905345 0.13543338 0.1100935 4294967295
1.7862382 0.10551003 0.11054981 4294967295
1.7919656 0.079317488 0.10685667 4294967295
1.798 0.0040008663 0.10156834 4294967295
1.798 -0.085689977 0.10156831 4294967295
1.7980001 -0.10654831 0.10156837 4294967295
1.798 -0.12740663 0.10156831 4294967295
1.7971667 -0.20170557 0.10315284 4294967295
1.793286 -0.22296776 0.10386398 4294967295
1.798 -0.25047082 0.10156837 4294967295
1.798 -0.28801581 0.10156837 4294967295
1.798 -0.31582692 0.10156837 4294967295
1.7919372 -0.34732658 0.1027272 4294967295
1.7919998 -0.37436318 0.10297358 4294967295
1.7913463 -0.40620306 0.10472831 4294967295
1.7895145 -0.43439919 0.10688365 4294967295
1.7916666 -0.45951983 0.10499132 4294967295
1.798 -0.73438418 0.10156834 4294967295
1.7925498 -0.85650146 0.10284537 4294967295
1.790579 -0.88429421 0.10286874 4294967295
1.79176 -0.91832274 0.11366665 4294967295
1.7849765 -0.94097024 0.11008999 4294967295
1.7850001 0.81639022 0.086659014 4294967295
1.774 0.40525579 0.098921657 4294967295
1.7751112 0.31306934 0.097743303 4294967295
1.7778001 0.28540134 0.096097916 4294967295
1.77955 0.25312853 0.094515204 4294967295
1.7834322 0.22433957 0.091783017 4294967295
1.7804074 0.19819804 0.092516005 4294967295
1.775286 0.16547316 0.096852154 4294967295
1.7753334 0.13507488 0.097690552 4294967295
1.7743335 0.099318445 0.097470552 4294967295
1.7807825 0.074093953 0.094449073 4294967295
1.7864 0.04486211 0.091297746 4294967295
1.788645 0.01355397 0.090244293 4294967295
1.7865174 -0.014247425 0.093540996 4294967295
1.7861481 -0.043528337 0.094370306 4294967295
1.7858502 -0.074536733 0.096951038 4294967295
1.783087 -0.1065646 0.096059978 4294967295
1.7873588 -0.13622794 0.089503944 4294967295
1.7870976 -0.1637827 0.08731243 4294967295
1.784793 -0.19314386 0.094235778 4294967295
1.7811766 -0.22564681 0.096255213 4294967295
1.7864059 -0.2563667 0.092633396 4294967295
1.7870322 -0.28444612 0.092908025 4294967295
1.7842962 -0.31364316 0.095112324 4294967295
1.7818825 -0.34318471 0.096085936 4294967295
1.77815 -0.37642062 0.094229221 4294967295
1.7772106 -0.40415412 0.094908923 4294967295
1.7753574 -0.43473542 0.096541494 4294967295
1.7808949 -0.46698409 0.094904721 4294967295
1.7856785 -0.49466211 0.085374236 4294967295
1.7865237 -0.52294332 0.074647903 4294967295
1.786375 -0.55572003 0.074930251 4294967295
1.7860587 -0.58592308 0.080238968 4294967295
1.786083 -0.6148591 0.082151234 4294967295
1.7856773 -0.64346862 0.075456262 4294967295
1.78628 -0.6739651 0.081268698 4294967295
1.7852221 -0.70545149 0.092283636 4294967295
1.7840455 -0.73525923 0.095611513 4294967295
1.7859583 -0.76329106 0.090233833 4294967295
1.7876956 -0.79606438 0.087209404 4294967295
1.7872413 -0.82570195 0.092219502 4294967295
1.7798462 -0.85099232 0.097223848 4294967295
1.7754287 -0.88375598 0.098582596 4294967295
1.7800001 -0.91659337 0.09832862 4294967295
1.7750001 -0.93502223 0.098684311 4294967295
1.7776667 0.81441796 0.044436783 4294967295
1.779 -0.53057039 0.068841726 4294967295
1.776 -0.54203063 0.069602549 4294967295
1.7875 0.81407386 0.027969867 4294967295
1.7817144 0.80799264 0.016773582 4294967295
1.79 0.81174892 -0.016996801 4294967295
1.7857999 0.8065269 -0.0010995269 4294967295
1.7878572 0.81611753 -0.033551872 4294967295
1.7869999 0.80416965 -0.045132935 4294967295
1.786 0.79130673 -0.051026583 4294967295
1.7750001 0.77201319 -0.13811696 4294967295
1.784 0.77075827 -0.14558029 4294967295
1.818278 -0.93741459 1.5246451 4294967295
1.8154998 -0.92310947 1.494319 4294967295
1.8073334 -0.93176657 1.5083393 4294967295
1.8161479 -0.91945577 1.4641483 4294967295
1.8148824 -0.91637266 1.4360461 4294967295
1.8164241 -0.91717237 1.4044955 4294967295
1.815487 -0.92138034 1.3751935 4294967295
1.819 -0.89911127 1.3416964 4294967295
1.8140624 -0.90519518 1.3440555 4294967295
1.813941 -0.91603136 1.3158782 4294967295
1.8146799 -0.9248336 1.283309 4294967295
1.8162501 -0.92195821 1.2548691 4294967295
1.8180299 -0.92513484 1.2281137 4294967295
1.8099999 -0.93187964 1.2162181 4294967295
1.822739 -0.92311156 1.1920624 4294967295
1.8092002 -0.93279231 1.1960576 4294967295
1.821 -0.89904475 1.1609235 4294967295
1.8122747 -0.91270268 1.1648656 4294967295
1.8077499 -0.93129945 1.1751357 4294967295
1.8133903 -0.91648334 1.1365783 4294967295
1.8155383 -0.92735869 1.1073062 4294967295
1.818 -0.93025714 1.0923785 4294967295
1.816655 -0.92693084 1.0746527 4294967295
1.814162 -0.92337161 1.0449749 4294967295
1.8158334 0.5180223 1.0095376 4294967295
1.8156343 -0.92295402 1.014869 4294967295
1.8150001 0.51147741 0.99878955 4294967295
1.819 0.50675279 0.98392928 4294967295
1.8149999 -0.92356372 0.98602301 4294967295
1.8173001 0.50621444 0.95935011 4294967295
1.8156998 -0.92442161 0.95360994 4294967295
1.813 0.50039184 0.91202354 4294967295
1.8166152 -0.92217165 0.92420751 4294967295
1.8155882 0.49973622 0.89461863 4294967295
1.8178887 -0.92502105 0.89527273 4294967295
1.8071998 -0.93059719 0.89526302 4294967295
1.8149998 0.49385697 0.86555463 4294967295
1.8162857 -0.92164719 0.86583841 4294967295
1.8108571 0.49139488 0.83533198 4294967295
1.8142856 -0.92592633 0.84374964 4294967295
1.8158947 -0.93425792 0.82938337 4294967295
1.8108 0.81194293 0.79349446 4294967295
1.8184999 0.80709225 0.80139959 4294967295
1.8169999 0.49555281 0.80616337 4294967295
1.812 -0.92925084 0.79199487 4294967295
1.8164544 -0.9357723 0.80530596 4294967295
1.8116977 0.82089692 0.77278984 4294967295
1.8221949 0.79727775 0.77321839 4294967295
1.8254 0.77614576 0.76689881 4294967295
1.813 0.4977642 0.77427357 4294967295
1.8155553 -0.92305565 0.77614224 4294967295
1.8126249 0.84251165 0.74107885 4294967295
1.816667 0.8252452 0.74594367 4294967295
1.8207757 0.79548138 0.74523532 4294967295
1.8038572 0.49578151 0.74473542 4294967295
1.8163104 -0.92443419 0.74554724 4294967295
1.8099999 -0.93036312 0.73290151 4294967295
1.826 0.81325984 0.72631025 4294967295
1.8256665 0.79898769 0.72556573 4294967295
1.808 0.49692014 0.72427654 4294967295
1.801 -0.92991567 0.71930707 4294967295
1.8191816 -0.93085116 0.71498293 4294967295
1.8155198 -0.92677575 0.68282914 4294967295
1.818 -0.93025714 0.69587994 4294967295
1.818 0.49965623 0.64315403 4294967295
1.8135945 -0.92001516 0.65382773 4294967295
1.8172631 0.49922785 0.62546372 4294967295
1.8129781 -0.91026843 0.62398118 4294967295
1.8102001 0.81335711 0.58340257 4294967295
1.8154444 0.79847234 0.58907032 4294967295
1.8263334 0.49772158 0.59710515 4294967295
1.8143809 -0.9134385 0.59549814 4294967295
1.8176943 0.8185612 0.56380802 4294967295
1.8245654 0.80387384 0.56729949 4294967295
1.8156999 0.49818289 0.56209886 4294967295
1.8166667 -0.91831261 0.56578279 4294967295
1.8197 0.82193804 0.53529185 4294967295
1.825684 0.80676162 0.53566098 4294967295
1.8122857 0.49598458 0.53555036 4294967295
1.8140397 -0.91979402 0.5355528 4294967295
1.8206931 0.82383597 0.50673157 4294967295
1.826846 0.80597293 0.50632143 4294967295
1.812 0.49590632 0.5061124 4294967295
1.8163664 -0.91886324 0.50523812 4294967295
1.8202366 0.82145572 0.47794086 4294967295
1.8244286 0.80499625 0.47437775 4294967295
1.8137997 0.49682051 0.47551724 4294967295
1.815829 -0.91760564 0.47638944 4294967295
1.8123122 0.81556511 0.44514182 4294967295
1.8186773 0.80175555 0.44536027 4294967295
1.8150909 0.49885392 0.4450351 4294967295
1.8148422 -0.92751455 0.44738108 4294967295
1.8206667 -0.93020326 0.44408536 4294967295
1.8135834 0.81577432 0.41735637 4294967295
1.8184999 0.80253148 0.42484009 4294967295
1.816 0.49522033 0.41695255 4294967295
1.817372 -0.91960901 0.41272008 4294967295
1.8228158 0.81938916 0.38227516 4294967295
1.8152001 0.50141662 0.3843767 4294967295
1.8156751 -0.91292346 0.38602531 4294967295
1.8202498 0.81736219 0.35436988 4294967295
1.8115 0.50628805 0.36531469 4294967295
1.8175457 -0.91697717 0.35483509 4294967295
1.8185925 0.81439823 0.32510439 4294967295
1.8262001 0.80783916 0.3161861 4294967295
1.8132333 -0.91068959 0.32450891 4294967295
1.8120558 0.81264633 0.29520297 4294967295
1.822381 0.80530018 0.29462752 4294967295
1.8157775 -0.91855234 0.29543072 4294967295
1.8066249 -0.93228906 0.29290068 4294967295
1.8135909 0.81422979 0.2654883 4294967295
1.8219522 0.80510938 0.26508445 4294967295
1.8143333 0.52040589 0.25563666 4294967295
1.8227501 -0.89673376 0.25546092 4294967295
1.8132728 -0.90993255 0.26688802 4294967295
1.8162223 0.81475317 0.24200112 4294967295
1.820375 0.80494273 0.24471697 4294967295
1.8096666 0.51276946 0.24861488 4294967295
1.8141764 0.4948906 0.2441462 4294967295
1.8147142 0.46419033 0.24054655 4294967295
1.8134288 0.43530026 0.23893461 4294967295
1.8124667 0.40450335 0.23922518 4294967295
1.8140768 0.37556618 0.23738158 4294967295
1.8132223 0.34525064 0.23663935 4294967295
1.8146923 0.31578031 0.23696136 4294967295
1.8108124 0.28420335 0.23409662 4294967295
1.8108858 0.25664949 0.22763246 4294967295
1.811 0.22510113 0.22679338 4294967295
1.8125457 0.1923133 0.23124939 4294967295
1.8093215 0.16563682 0.22698727 4294967295
1.8135481 0.13507925 0.22718653 4294967295
1.8136576 0.10424837 0.22805932 4294967295
1.8139284 0.073474698 0.22623932 4294967295
1.8140768 0.043866474 0.22573233 4294967295
1.8095236 0.016925884 0.22845343 4294967295
1.8090769 -0.017288376 0.22977668 4294967295
1.8124546 -0.043690454 0.22807536 4294967295
1.8134998 -0.073807269 0.22630182 4294967295
1.8155771 -0.10256976 0.22548342 4294967295
1.8220831 -0.1301793 0.22420451 4294967295
1.8200527 -0.16651012 0.22423881 4294967295
1.8153796 -0.19543928 0.22622359 4294967295
1.8142852 -0.22538088 0.22618002 4294967295
1.8142498 -0.25483736 0.22617623 4294967295
1.816357 -0.28464031 0.2258403 4294967295
1.8186295 -0.31452999 0.22524214 4294967295
1.8172662 -0.34492266 0.2254152 4294967295
1.8161174 -0.37605608 0.22736847 4294967295
1.8159428 -0.40590736 0.22801843 4294967295
1.8113228 -0.43566573 0.22672987 4294967295
1.810231 -0.46524632 0.2271603 4294967295
1.8151668 -0.49397522 0.22498229 4294967295
1.8185716 -0.5254848 0.22337216 4294967295
1.8156786 -0.55533361 0.22520328 4294967295
1.8165381 -0.58422244 0.22565618 4294967295
1.8201665 -0.6134029 0.22680873 4294967295
1.8218571 -0.64479464 0.22706008 4294967295
1.8226669 -0.67468429 0.22692999 4294967295
1.825333 -0.70531708 0.22649926 4294967295
1.8248125 -0.73342609 0.22525865 4294967295
1.8242667 -0.76528609 0.22441092 4294967295
1.8211365 -0.79721373 0.22602662 4294967295
1.8170587 -0.82598257 0.22709391 4294967295
1.8149513 -0.85587329 0.22941089 4294967295
1.8166983 -0.88664007 0.23473787 4294967295
1.8106755 -0.91071278 0.2343016 4294967295
1.8157779 0.81673455 0.20479321 4294967295
1.820238 0.80435503 0.20620093 4294967295
1.8031635 0.25327569 0.20615962 4294967295
1.8024046 0.22409773 0.20464835 4294967295
1.8011667 0.19868067 0.1962519 4294967295
1.8013633 0.16225675 0.21021286 4294967295
1.8031431 0.13579382 0.20914996 4294967295
1.802739 0.10957942 0.21176425 4294967295
1.8016001 0.070472166 0.20941374 4294967295
1.8022661 0.043736629 0.20511502 4294967295
1.8018003 0.016411021 0.20059499 4294967295
1.80222 -0.01603033 0.20307973 4294967295
1.8039393 -0.044121854 0.20482633 4294967295
1.8050206 -0.073461495 0.20464215 4294967295
1.8061455 -0.10467158 0.20421845 4294967295
1.8116322 -0.13649046 0.2057797 4294967295
1.8130577 -0.16585425 0.20450664 4294967295
1.8071426 -0.19513282 0.20426416 4294967295
1.8067957 -0.22445361 0.20432511 4294967295
1.811164 -0.25441113 0.20356351 4294967295
1.8130009 -0.28410888 0.20323935 4294967295
1.8100001 -0.31512931 0.20376658 4294967295
1.8083258 -0.34631124 0.20405799 4294967295
1.8095917 -0.37594712 0.20383811 4294967295
1.8107148 -0.40558016 0.20364347 4294967295
1.8052831 -0.43494573 0.2050609 4294967295
1.804654 -0.46606854 0.20421022 4294967295
1.8064563 -0.49602082 0.20384312 4294967295
1.8076346 -0.52555192 0.20466802 4294967295
1.8062855 -0.55546349 0.20440772 4294967295
1.8075306 -0.58521098 0.20418784 4294967295
1.8128158 -0.61675006 0.20483217 4294967295
1.8133402 -0.64598703 0.20528901 4294967295
1.8142689 -0.67578495 0.20512933 4294967295
1.8144649 -0.70532274 0.20510045 4294967295
1.8147682 -0.73491842 0.20504549 4294967295
1.8165003 -0.76512063 0.20474473 4294967295
1.81292 -0.79474127 0.20488769 4294967295
1.8072244 -0.82411075 0.20425385 4294967295
1.8104488 -0.85499191 0.20368412 4294967295
1.8140776 -0.88664937 0.20402384 4294967295
1.8098396 -0.91443527 0.20417306 4294967295
1.801 -0.93409431 0.20115724 4294967295
1.8166451 0.81880176 0.17459193 4294967295
1.8204666 0.80614859 0.17742926 4294967295
1.801 0.27352899 0.16354957 4294967295
1.8009995 0.24943228 0.17608547 4294967295
1.8026742 0.22359031 0.17576548 4294967295
1.804388 0.19450045 0.17543495 4294967295
1.802905 0.16645756 0.17402434 4294967295
1.8011667 0.13878199 0.16560593 4294967295
1.8019089 0.10415455 0.16488963 4294967295
1.8035535 0.073234253 0.17381245 4294967295
1.8033677 0.043766212 0.17563584 4294967295
1.8022732 0.015225553 0.17717591 4294967295
1.8011374 -0.014365143 0.18196779 4294967295
1.8023338 -0.045674346 0.17732614 4294967295
1.8030008 -0.073380776 0.17569789 4294967295
1.803197 -0.10476217 0.17566264 4294967295
1.8023407 -0.13503532 0.17707068 4294967295
1.8040571 -0.16550925 0.17969587 4294967295
1.8047501 -0.19514668 0.17563722 4294967295
1.8083466 -0.22464651 0.17468187 4294967295
1.8094487 -0.25416383 0.17447522 4294967295
1.8088044 -0.28410795 0.17419818 4294967295
1.8076849 -0.3152743 0.17520279 4294967295
1.8073872 -0.34613085 0.17486951 4294967295
1.8070812 -0.37542123 0.17492929 4294967295
1.8050413 -0.40430886 0.17531911 4294967295
1.803539 -0.43423453 0.17512238 4294967295
1.805151 -0.46589795 0.17577028 4294967295
1.8055511 -0.49659279 0.17521432 4294967295
1.8078767 -0.52659523 0.17476982 4294967295
1.809638 -0.5559597 0.17417201 4294967295
1.811393 -0.58579677 0.17435363 4294967295
1.8112049 -0.6158067 0.17414215 4294967295
1.8103675 -0.64493024 0.17430139 4294967295
1.8117762 -0.67485583 0.17403337 4294967295
1.8106735 -0.70384747 0.17423931 4294967295
1.8115922 -0.73363519 0.17406231 4294967295
1.8132049 -0.76373285 0.17375576 4294967295
1.8135097 -0.79514784 0.17392331 4294967295
1.8109001 -0.82544547 0.17393443 4294967295
1.8096526 -0.85461003 0.17443067 4294967295
1.809852 -0.88564253 0.17401409 4294967295
1.8045 -0.90659589 0.18193537 4294967295
1.8206663 0.82051659 0.14558047 4294967295
1.8254001 0.80550945 0.14516878 4294967295
1.801 0.36406592 0.14404935 4294967295
1.8010001 0.34745857 0.14072782 4294967295
1.801 0.30277938 0.15101367 4294967295
1.8012699 0.2855415 0.15028015 4294967295
1.8018203 0.25419098 0.14522493 4294967295
1.8012495 0.22798643 0.14848191 4294967295
1.8019229 0.19423458 0.1572575 4294967295
1.8027596 0.16253681 0.152832 4294967295
1.8032407 0.1359674 0.14603546 4294967295
1.8071265 0.1049116 0.14578938 4294967295
1.8052832 0.0729798 0.14476949 4294967295
1.8014319 0.043961413 0.14609063 4294967295
1.8017142 0.015353607 0.14086255 4294967295
1.8018571 -0.011814943 0.13620558 4294967295
1.801 -0.051011052 0.14312074 4294967295
1.8044 -0.073196374 0.14579666 4294967295
1.8072679 -0.10499144 0.14553234 4294967295
1.8019565 -0.13004743 0.14209247 4294967295
1.8009999 -0.17239024 0.13310528 4294967295
1.8021741 -0.19542642 0.14604649 4294967295
1.8073469 -0.22452371 0.1455242 4294967295
1.8085911 -0.25403845 0.14526051 4294967295
1.8042861 -0.28483343 0.14615369 4294967295
1.8043066 -0.31623957 0.1461499 4294967295
1.806102 -0.34588817 0.14577293 4294967295
1.8073056 -0.37546942 0.14551961 4294967295
1.8050206 -0.40430459 0.14599925 4294967295
1.802858 -0.43519676 0.14644936 4294967295
1.8040618 -0.46688393 0.14620063 4294967295
1.8050002 -0.49643856 0.14600626 4294967295
1.805245 -0.52582628 0.14595488 4294967295
1.8080608 -0.55601275 0.14536756 4294967295
1.8086935 -0.58558077 0.14523721 4294967295
1.807979 -0.61470956 0.14539158 4294967295
1.8053455 -0.64496404 0.14571136 4294967295
1.8075116 -0.67502838 0.14578086 4294967295
1.8118984 -0.70433044 0.14457595 4294967295
1.8123884 -0.73395288 0.14447883 4294967295
1.8132049 -0.76373369 0.14430693 4294967295
1.8145003 -0.7947191 0.14355469 4294967295
1.8122269 -0.8251152 0.14498872 4294967295
1.8093667 -0.85447407 0.14510521 4294967295
1.8070194 -0.88335776 0.14559063 4294967295
1.801 -0.90066528 0.13012055 4294967295
1.8180832 0.82096487 0.12028223 4294967295
1.823 0.80698907 0.1267679 4294967295
1.8010002 0.24762154 0.12092757 4294967295
1.801 0.23383206 0.12385261 4294967295
1.8021111 0.13316102 0.12500387 4294967295
1.8030001 0.10650205 0.12550741 4294967295
1.8016485 0.073097736 0.12004125 4294967295
1.8036302 0.043532215 0.11436257 4294967295
1.8031542 0.014791937 0.1150147 4294967295
1.8045006 -0.014433229 0.114173 4294967295
1.8036535 -0.044115253 0.11280426 4294967295
1.8063396 -0.073358573 0.11457455 4294967295
1.8061606 -0.10493261 0.1164397 4294967295
1.8029171 -0.13620554 0.11445615 4294967295
1.8022805 -0.16559607 0.11345226 4294967295
1.8029203 -0.19376379 0.11665675 4294967295
1.8043249 -0.22403778 0.11946371 4294967295
1.8042594 -0.25490373 0.11578205 4294967295
1.8039263 -0.28539994 0.11709204 4294967295
1.8040005 -0.31609988 0.11658555 4294967295
1.8055778 -0.34522989 0.11768791 4294967295
1.8072618 -0.37546033 0.1182929 4294967295
1.8042002 -0.40359581 0.11949319 4294967295
1.8021177 -0.43575534 0.12299395 4294967295
1.803488 -0.46765286 0.11836013 4294967295
1.806843 -0.49538592 0.11611274 4294967295
1.8086467 -0.52616018 0.11545932 4294967295
1.8107173 -0.55600667 0.11513984 4294967295
1.8110191 -0.58536053 0.11559004 4294967295
1.807959 -0.61469924 0.11603165 4294967295
1.806392 -0.64417052 0.11678335 4294967295
1.810362 -0.67486781 0.11503851 4294967295
1.8094639 -0.70539629 0.11472163 4294967295
1.8065387 -0.73448598 0.11539468 4294967295
1.8100612 -0.76386929 0.11437616 4294967295
1.8122005 -0.79510844 0.11531538 4294967295
1.8064499 -0.82612121 0.11477044 4294967295
1.804881 -0.85474759 0.11792383 4294967295
1.8051699 -0.88519114 0.11853254 4294967295
1.802676 -0.91404879 0.11370724 4294967295
1.8016667 -0.93304569 0.10628811 4294967295
1.8201109 0.81975591 0.07836023 4294967295
1.8022 0.039549425 0.09640944 4294967295
1.801 0.020722052 0.096691549 4294967295
1.801 -0.14433372 0.096691549 4294967295
1.8046668 -0.50100303 0.094671309 4294967295
1.8069998 -0.52715772 0.089154094 4294967295
1.8069996 -0.55520529 0.088336587 4294967295
1.804969 -0.58371395 0.092492342 4294967295
1.8031819 -0.61517185 0.095801324 4294967295
1.8048646 -0.64624929 0.090472162 4294967295
1.8074547 -0.67438686 0.0917539 4294967295
1.8066875 -0.69941288 0.095623225 4294967295
1.804111 -0.77199739 0.096428722 4294967295
1.8060454 -0.79499972 0.095320255 4294967295
1.8034999 -0.81780303 0.09694314 4294967295
1.8234499 0.8200385 0.055883974 4294967295
1.8279999 0.80778867 0.050053358 4294967295
1.8160909 0.81642556 0.028819561 4294967295
1.8213636 0.80523378 0.022779047 4294967295
1.8049999 0.81018871 -0.017322063 4294967295
1.8132569 0.80245423 -0.0039159656 4294967295
1.8153478 0.81811279 -0.035421669 4294967295
1.8226 0.80624139 -0.024253666 4294967295
1.822 0.81570101 -0.051974177 4294967295
1.8170999 0.79917246 -0.06139183 4294967295
1.8483999 -0.94494259 1.5488162 4294967295
1.8399999 -0.92868614 1.5133882 4294967295
1.8441 -0.93631905 1.528867 4294967295
1.8415452 -0.92325741 1.4944134 4294967295
1.8424 -0.91707355 1.4655213 4294967295
1.8418669 -0.91454089 1.4340515 4294967295
1.8420625 -0.91744858 1.4052608 4294967295
1.8421581 -0.91312307 1.3764286 4294967295
1.832 -0.89916587 1.3496953 4294967295
1.8427777 -0.90634769 1.342931 4294967295
1.84175 -0.92210662 1.3167094 4294967295
1.8431429 -0.92375827 1.2849908 4294967295
1.8397499 -0.91576177 1.255022 4294967295
1.8422999 -0.92058736 1.2253969 4294967295
1.8419131 -0.91663957 1.1963266 4294967295
1.8329999 -0.89965671 1.1672735 4294967295
1.8444 -0.90524149 1.1657245 4294967295
1.8434442 -0.92117476 1.134582 4294967295
1.8430909 -0.92791539 1.1033731 4294967295
1.8430001 -0.92357433 1.0737276 4294967295
1.8405497 -0.91957426 1.0448158 4294967295
1.8464999 0.51928759 1.0135388 4294967295
1.8380001 0.50942999 1.0005925 4294967295
1.8449045 -0.91852659 1.0152278 4294967295
1.8450834 0.50532037 0.9835391 4294967295
1.8428421 -0.92360127 0.98632383 4294967295
1.8386664 0.5029732 0.95906007 4294967295
1.8430998 -0.92234099 0.95444304 4294967295
1.831 0.49899337 0.91379738 4294967295
1.8431579 -0.91745687 0.92496109 4294967295
1.8456666 0.50012416 0.89836907 4294967295
1.8399284 -0.91737163 0.89512455 4294967295
1.8395 0.49419466 0.86369777 4294967295
1.8424215 -0.91889119 0.86450005 4294967295
1.8387144 0.49256343 0.83436954 4294967295
1.8418889 -0.9267928 0.8434912 4294967295
1.8436669 -0.9351747 0.82775831 4294967295
1.854 0.81067479 0.79829937 4294967295
1.8375715 0.80714631 0.80071497 4294967295
1.841 0.49914974 0.80319428 4294967295
1.8423334 -0.9277277 0.79440737 4294967295
1.8432943 -0.93563169 0.80977058 4294967295
1.831 0.80061787 0.78635043 4294967295
1.831 0.77512848 0.76086104 4294967295
1.8330001 0.49953845 0.77460122 4294967295
1.8421822 -0.92085207 0.77515882 4294967295
1.841 0.84343338 0.7322765 4294967295
1.8334999 0.83361918 0.7314117 4294967295
1.8414665 0.78352576 0.73944563 4294967295
1.839636 0.77683222 0.75345552 4294967295
1.834 0.49981096 0.74422163 4294967295
1.843909 -0.92424685 0.74543738 4294967295
1.854 0.8493892 0.72947383 4294967295
1.8424615 0.82205099 0.72190374 4294967295
1.8426 0.79825425 0.72276729 4294967295
1.8390001 0.50117356 0.72350997 4294967295
1.8441818 -0.92884713 0.71980816 4294967295
1.8460001 -0.93139172 0.7127521 4294967295
1.8411539 -0.9273026 0.6836465 4294967295
1.852 -0.93153763 0.69487226 4294967295
1.857 0.5017705 0.64364165 4294967295
1.8428823 -0.91832805 0.65503109 4294967295
1.8552001 0.50128412 0.63060725 4294967295
1.8419999 -0.90702343 0.62489307 4294967295
1.8395 0.79365712 0.58272511 4294967295
1.831 0.49899337 0.58243531 4294967295
1.8415999 -0.9101299 0.59505576 4294967295
1.842 0.79686153 0.56537133 4294967295
1.8395 0.4998748 0.5663169 4294967295
1.8426249 -0.91746312 0.56599116 4294967295
1.8435651 0.80144113 0.53730547 4294967295
1.8412857 0.49752441 0.53581846 4294967295
1.8418748 -0.92135686 0.53712559 4294967295
1.831 0.82525766 0.49916995 4294967295
1.8406874 0.80350876 0.5064252 4294967295
1.839 0.49690679 0.5059008 4294967295
1.8442669 -0.91915518 0.50530612 4294967295
1.831 0.82610726 0.48897418 4294967295
1.8382307 0.80081838 0.47670662 4294967295
1.8388751 0.49633446 0.4755044 4294967295
1.8437778 -0.91420102 0.47521368 4294967295
1.8397499 0.79803216 0.45255062 4294967295
1.8455714 0.49653113 0.44591185 4294967295
1.8411 -0.92667198 0.45123762 4294967295
1.846 -0.93233699 0.44222248 4294967295
1.839 0.49567673 0.4199816 4294967295
1.8426843 -0.91722357 0.41609636 4294967295
1.8451248 0.81160772 0.38492841 4294967295
1.8326668 0.80985087 0.38831085 4294967295
1.84375 0.50246811 0.38822514 4294967295
1.8413635 -0.90957588 0.38705087 4294967295
1.850125 0.81165731 0.35881078 4294967295
1.834 0.80958581 0.35531539 4294967295
1.841 0.51026148 0.36920458 4294967295
1.8422309 -0.91864312 0.35333163 4294967295
1.857 0.81198657 0.31188279 4294967295
1.8351817 0.80786294 0.32672319 4294967295
1.8405557 -0.91333175 0.32514614 4294967295
1.854 0.81067479 0.30361581 4294967295
1.8482499 0.8081606 0.28927714 4294967295
1.8362223 -0.91022426 0.28911462 4294967295
1.854 0.81067479 0.26920304 4294967295
1.849 0.80848855 0.2784594 4294967295
1.835 0.52137488 0.25474706 4294967295
1.8388571 -0.89399189 0.25419092 4294967295
1.842111 -0.90649563 0.269867 4294967295
1.846 0.51593035 0.24887004 4294967295
1.8466668 0.49680126 0.24448755 4294967295
1.8371999 0.45804852 0.24163732 4294967295
1.8383335 0.43488833 0.24146557 4294967295
1.8413751 0.40566659 0.24100474 4294967295
1.84375 0.37845087 0.23851961 4294967295
1.8535999 0.34345835 0.23915246 4294967295
1.8393332 0.3120831 0.23776343 4294967295
1.8528333 0.28783429 0.23496974 4294967295
1.8387998 0.24939123 0.23286223 4294967295
1.8444287 0.2245156 0.2319833 4294967295
1.8345 0.20412895 0.23353368 4294967295
1.8384285 0.16402401 0.2329202 4294967295
1.8418572 0.13441598 0.23361486 4294967295
1.8435713 0.10461488 0.23639455 4294967295
1.8422499 0.076210521 0.23286119 4294967295
1.831 0.046556622 0.22983199 4294967295
1.8444999 0.012691095 0.23197213 4294967295
1.8478 -0.01608146 0.23403916 4294967295
1.8477499 -0.043007907 0.23468968 4294967295
1.842 -0.074997835 0.23236248 4294967295
1.8334999 -0.11503597 0.2294358 4294967295
1.8416666 -0.13714866 0.22719753 4294967295
1.8364286 -0.16420238 0.22897169 4294967295
1.8510001 -0.19986108 0.23095715 4294967295
1.8491428 -0.22542875 0.23124713 4294967295
1.8382856 -0.25393033 0.23294252 4294967295
1.835143 -0.28332496 0.23343328 4294967295
1.8430001 -0.31501412 0.23167536 4294967295
1.8402499 -0.34598958 0.23263583 4294967295
1.831 -0.37331036 0.23408023 4294967295
1.8559999 -0.40280944 0.23448259 4294967295
1.8368 -0.43701065 0.23317456 4294967295
1.8380001 -0.46498948 0.23298714 4294967295
1.8395714 -0.49739313 0.23092043 4294967295
1.8405713 -0.5275721 0.22831514 4294967295
1.8334999 -0.54468745 0.2294358 4294967295
1.831 -0.59280235 0.22983199 4294967295
1.8487999 -0.61999714 0.23130068 4294967295
1.83875 -0.64436859 0.23287001 4294967295
1.8365716 -0.67556483 0.23321024 4294967295
1.8403333 -0.70471507 0.23262277 4294967295
1.8390907 -0.73582882 0.23127112 4294967295
1.842667 -0.76401657 0.22977409 4294967295
1.8431 -0.79513371 0.23091534 4294967295
1.8402001 -0.82633746 0.23478583 4294967295
1.8454547 -0.85555625 0.2384533 4294967295
1.8429999 -0.8821038 0.24343425 4294967295
1.831 0.80911434 0.072647393 4294967295
1.831 0.80628222 0.057070553 4294967295
1.831 0.80486614 0.03866154 4294967295
1.8428334 0.80008018 -0.0079144835 4294967295
1.84175 0.81598186 -0.04321295 4294967295
1.8421428 0.80608654 -0.028367698 4294967295
1.8467143 0.82032895 -0.057284892 4294967295
1.842 0.80116552 -0.072478473 4294967295
1.8529999 0.79949403 -0.083193004 4294967295
1.881 -0.95376533 1.5704587 4294967295
1.8764616 -0.94776636 1.5535169 4294967295
1.8757777 -0.9361158 1.5235302 4294967295
1.8740001 -0.92519528 1.4926181 4294967295
1.8835001 -0.93099487 1.5084864 4294967295
1.8763332 -0.91994202 1.4650403 4294967295
1.8745 -0.92191869 1.435782 4294967295
1.8740525 -0.92230237 1.4040717 4294967295
1.8729 -0.91357583 1.377753 4294967295
1.872375 -0.92006564 1.3462534 4294967295
1.886 -0.93223345 1.3369555 4294967295
1.8763334 -0.92815256 1.31093 4294967295
1.8756874 -0.93282998 1.3156191 4294967295
1.875227 -0.92214262 1.2846181 4294967295
1.8756667 -0.91847688 1.2536473 4294967295
1.8756669 -0.92122042 1.2256064 4294967295
