# .PCD v0.7 - Point Cloud Data file format
VERSION 0.7
FIELDS x y z rgb
SIZE 4 4 4 4
TYPE F F F U
COUNT 1 1 1 1
WIDTH 1054
HEIGHT 1
VIEWPOINT 0 0 0 1 0 0 0
POINTS 1054
DATA ascii
0.46622708 -2.3143134 -0.28517425 4278190080
0.45718282 -2.3110585 -0.28456491 4278190080
0.44911277 -2.3126402 -0.28456491 4278190080
0.44010845 -2.3093188 -0.28395557 4278190080
0.43204454 -2.3108408 -0.28395557 4278190080
0.42437935 -2.3122609 -0.28395557 4278190080
0.41630527 -2.3137281 -0.28395557 4278190080
0.4073647 -2.3102801 -0.28334624 4278190080
0.3988944 -2.3117576 -0.28334624 4278190080
0.39082226 -2.3131359 -0.28334624 4278190080
0.38193592 -2.3095896 -0.28273687 4278190080
0.37466437 -2.3158081 -0.28334624 4278190080
0.36657822 -2.3171017 -0.28334624 4278190080
0.36041108 -2.3281131 -0.28456491 4278190080
0.35079786 -2.3195431 -0.28334624 4278190080
0.34342408 -2.3256629 -0.28395557 4278190080
0.085221522 -0.69307333 -0.081043109 4278190080
0.0786824 -0.6588726 -0.076777689 4278190080
0.075810805 -0.65421349 -0.076168336 4278190080
0.073526748 -0.65447414 -0.076168336 4278190080
0.068020701 -0.62512511 -0.072512254 4278190080
0.065947317 -0.62534726 -0.072512254 4278190080
0.064496078 -0.65542567 -0.076168336 4278190080
0.22252324 -2.3453124 -0.28456491 4278190080
0.20614451 -2.3468089 -0.28456491 4278190080
0.19711749 -2.3376236 -0.28334624 4278190080
0.18895659 -2.3382976 -0.28334624 4278190080
0.18043473 -2.3290155 -0.28212753 4278190080
0.17267002 -2.3345802 -0.28273687 4278190080
0.1641708 -2.3302183 -0.28212753 4278190080
0.15603594 -2.3307772 -0.28212753 4278190080
0.14830585 -2.3312819 -0.28212753 4278190080
0.14046516 -2.3367391 -0.28273687 4278190080
0.13230737 -2.3372152 -0.28273687 4278190080
0.12441149 -2.3426185 -0.28334624 4278190080
0.1154956 -2.3281686 -0.28151819 4278190080
0.10622527 -2.3037701 -0.27847144 4278190080
0.097760528 -2.2942104 -0.27725273 4278190080
0.088005729 -2.2499075 -0.27176863 4278190080
0.078561738 -2.2055645 -0.2662845 4278190080
0.068790726 -2.1413431 -0.25836301 4278190080
0.061031681 -2.1316488 -0.2571443 4278190080
0.052592866 -2.0921595 -0.25226954 4278190080
0.033932209 -1.8691896 -0.22484893 4278190080
0.0094981147 -0.83719575 -0.09810482 4278190080
0.0066925609 -0.85211158 -0.099932864 4278190080
0.0036531792 -0.83724171 -0.09810482 4278190080
0.00072635157 -0.83228654 -0.097495466 4278190080
-0.0021789416 -0.83228403 -0.097495466 4278190080
-0.0050537824 -0.82730871 -0.096886121 4278190080
-0.0079416642 -0.82728601 -0.096886121 4278190080
-0.010829339 -0.82725328 -0.096886121 4278190080
-0.013716881 -0.82721043 -0.096886121 4278190080
-0.016604368 -0.8271575 -0.096886121 4278190080
-0.01960846 -0.83205587 -0.097495466 4278190080
-0.022378586 -0.82702142 -0.096886121 4278190080
-0.025265248 -0.82693827 -0.096886121 4278190080
-0.028151605 -0.82684505 -0.096886121 4278190080
-0.031037727 -0.82674176 -0.096886121 4278190080
-0.033576433 -0.82167566 -0.096276775 4278190080
-0.036664408 -0.82651132 -0.096886121 4278190080
-0.039549205 -0.82637829 -0.096886121 4278190080
-0.042433627 -0.82623523 -0.096886121 4278190080
-0.045589261 -0.83103734 -0.097495466 4278190080
-0.048489802 -0.83087313 -0.097495466 4278190080
-0.051083434 -0.82574558 -0.096886121 4278190080
-0.054289185 -0.83051437 -0.097495466 4278190080
-0.055682469 -0.81052554 -0.095058084 4278190080
-0.060298424 -0.8350755 -0.09810482 4278190080
-0.062089004 -0.82001418 -0.096276775 4278190080
-0.063775085 -0.80495077 -0.094448738 4278190080
-0.11742044 -0.80390584 -0.095058084 4278190080
-0.12096035 -0.8083992 -0.095667429 4278190080
-0.12302988 -0.80306655 -0.095058084 4278190080
-0.12660107 -0.80753499 -0.095667429 4278190080
-0.13099058 -0.81688845 -0.096886121 4278190080
-0.13751025 -0.82084858 -0.097495466 4278190080
-0.15204749 -0.85358989 -0.1017609 4278190080
-0.16035031 -0.8823505 -0.10541698 4278190080
-0.15528978 -0.83786869 -0.099932864 4278190080
-0.15544927 -0.82269222 -0.09810482 4278190080
-0.15738168 -0.81727135 -0.097495466 4278190080
-0.17270887 -0.84965038 -0.1017609 4278190080
-0.17567371 -0.8490423 -0.1017609 4278190080
-0.17352387 -0.82414269 -0.098714165 4278190080
-0.16926137 -0.78953379 -0.094448738 4278190080
-0.18364573 -0.84227508 -0.10115156 4278190080
-0.18121399 -0.8174035 -0.09810482 4278190080
-0.17956285 -0.79743201 -0.095667429 4278190080
-0.18677363 -0.81615108 -0.09810482 4278190080
-0.19802456 -0.83901095 -0.10115156 4278190080
-0.20095211 -0.83831459 -0.10115156 4278190080
-0.20739815 -0.85207385 -0.10297959 4278190080
-0.19846608 -0.80316651 -0.096886121 4278190080
-0.22647151 -0.85233992 -0.10358894 4278190080
-0.216534 -0.80362582 -0.097495466 4278190080
-0.21802996 -0.79807782 -0.096886121 4278190080
-0.23015928 -0.8204667 -0.099932864 4278190080
-0.23166484 -0.81488472 -0.099323511 4278190080
-0.2358816 -0.81883991 -0.099932864 4278190080
-0.23178649 -0.7941916 -0.096886121 4278190080
-0.2429994 -0.82193226 -0.10054221 4278190080
-0.24444336 -0.81632489 -0.099932864 4278190080
-0.25017181 -0.82496494 -0.10115156 4278190080
-0.24417046 -0.79566467 -0.097495466 4278190080
-0.26019877 -0.83746076 -0.10297959 4278190080
-0.25418633 -0.8081429 -0.099323511 4278190080
-0.26754451 -0.84035265 -0.10358894 4278190080
-0.99379468 -2.3153474 -0.30467334 4278190080
-0.9995895 -2.2857945 -0.30162662 4278190080
-0.99514288 -2.2552252 -0.29797053 4278190080
-1.003402 -2.2515626 -0.29797053 4278190080
-1.0071837 -2.2389944 -0.29675186 4278190080
-1.0170447 -2.239984 -0.2973612 4278190080
-1.0269251 -2.2409315 -0.29797053 4278190080
-1.0368242 -2.2418377 -0.2985799 4278190080
-1.0467422 -2.242702 -0.29918924 4278190080
-1.0566791 -2.2435241 -0.29979858 4278190080
-1.0645039 -2.2398221 -0.29979858 4278190080
-1.0744618 -2.2405672 -0.30040792 4278190080
-1.0840465 -2.2414596 -0.30101728 4278190080
-1.0918642 -2.2376618 -0.30101728 4278190080
-1.1018602 -2.2382894 -0.30162662 4278190080
-1.1118741 -2.2388744 -0.30223596 4278190080
-1.1219052 -2.2394166 -0.3028453 4278190080
-1.1319537 -2.2399161 -0.30345467 4278190080
-1.1420195 -2.2403724 -0.30406401 4278190080
-1.152102 -2.2407861 -0.30467334 4278190080
-1.1622015 -2.2411563 -0.30528268 4278190080
-1.1700175 -2.2370858 -0.30528268 4278190080
-1.1797441 -2.2375836 -0.30589205 4278190080
-1.1898773 -2.2378337 -0.30650139 4278190080
-1.2000266 -2.2380404 -0.30711076 4278190080
-1.2101921 -2.2382033 -0.30772007 4278190080
-1.220373 -2.2383225 -0.30832943 4278190080
-1.2305697 -2.2383976 -0.30893877 4278190080
-1.2407815 -2.2384293 -0.30954814 4278190080
-1.2510085 -2.2384164 -0.31015745 4278190080
-1.261251 -2.2383597 -0.31076682 4278190080
-1.2690564 -2.2339435 -0.31076682 4278190080
-1.2789232 -2.2340295 -0.31137615 4278190080
-1.2891941 -2.2338502 -0.31198552 4278190080
-1.2994797 -2.2336261 -0.31259486 4278190080
-1.3097789 -2.2333572 -0.3132042 4278190080
-1.3200923 -2.2330439 -0.31381357 4278190080
-1.3304195 -2.2326853 -0.31442291 4278190080
-1.3382049 -2.2280278 -0.31442291 4278190080
-1.3485442 -2.2275884 -0.31503224 4278190080
-1.3585076 -2.2273409 -0.31564158 4278190080
-1.3714722 -2.231041 -0.31686029 4278190080
-1.3818654 -2.2304587 -0.31746966 4278190080
-1.3922712 -2.229831 -0.31807896 4278190080
-1.4026892 -2.2291579 -0.31868833 4278190080
-1.4131194 -2.2284391 -0.31929767 4278190080
-1.4262344 -2.2318563 -0.32051635 4278190080
-1.4340161 -2.2268643 -0.32051635 4278190080
-1.5935071 -2.2447703 -0.33331263 4278190080
-1.6013329 -2.2391944 -0.33331263 4278190080
-1.6033375 -2.2255378 -0.33209395 4278190080
-1.6140115 -2.2239439 -0.33270332 4278190080
-1.6276224 -2.2263091 -0.333922 4278190080
-1.6383268 -2.2246099 -0.33453134 4278190080
-1.6490389 -2.2228634 -0.33514071 4278190080
-1.6597586 -2.2210689 -0.33575001 4278190080
-1.6730826 -2.2234838 -0.33696872 4278190080
-1.6838318 -2.221585 -0.33757809 4278190080
-1.6975992 -2.223583 -0.33879676 4278190080
-1.711401 -2.225512 -0.34001547 4278190080
-1.722198 -2.2234476 -0.34062481 4278190080
-1.7360539 -2.2252483 -0.34184349 4278190080
-1.7468774 -2.2230768 -0.34245285 4278190080
-1.7607864 -2.2247484 -0.34367153 4278190080
-1.7716349 -2.2224693 -0.3442809 4278190080
-1.7855958 -2.2240114 -0.3454996 4278190080
-1.7995895 -2.2254825 -0.34671828 4278190080
-1.8104807 -2.2230353 -0.34732762 4278190080
-1.824524 -2.2243762 -0.3485463 4278190080
-1.835438 -2.2218201 -0.34915566 4278190080
-1.8491427 -2.2233524 -0.35037437 4278190080
-1.8632655 -2.224493 -0.35159305 4278190080
-1.8774188 -2.2255623 -0.35281175 4278190080
-1.8883896 -2.2227769 -0.35342109 4278190080
-1.9025896 -2.2237134 -0.35463977 4278190080
-1.9135796 -2.2208185 -0.35524914 4278190080
-1.9245723 -2.2178736 -0.35585847 4278190080
-1.9323024 -2.2111421 -0.35585847 4278190080
-2.1288066 -2.2401605 -0.37474823 4278190080
-2.125932 -2.2223303 -0.37292019 4278190080
-2.1267903 -2.2077477 -0.37170148 4278190080
-2.1448505 -2.2109962 -0.37352952 4278190080
-2.1594911 -2.2105958 -0.37474823 4278190080
-2.1741548 -2.2101202 -0.37596694 4278190080
-2.1888413 -2.209569 -0.37718561 4278190080
-2.2031653 -2.2093265 -0.37840432 4278190080
-2.2214131 -2.2121279 -0.38023233 4278190080
-2.2361794 -2.2113388 -0.38145104 4278190080
-2.2474256 -2.2069972 -0.38206038 4278190080
-2.2622216 -2.2060683 -0.38327909 4278190080
-2.2770386 -2.2050631 -0.38449776 4278190080
-2.2918758 -2.2039814 -0.38571647 4278190080
-2.3067338 -2.2028222 -0.38693514 4278190080
-2.325212 -2.2050014 -0.38876319 4278190080
-2.3401203 -2.203676 -0.38998187 4278190080
-2.3546638 -2.2026844 -0.3912006 4278190080
-2.3696101 -2.2012069 -0.39241928 4278190080
-2.3845747 -2.199652 -0.39363798 4278190080
-2.4068763 -2.2047236 -0.39607537 4278190080
-2.4108868 -2.1929686 -0.395466 4278190080
-2.4556925 -2.2025933 -0.40034077 4278190080
-2.710171 -2.2182496 -0.42532402 4278190080
-2.7294514 -2.2181654 -0.42715204 4278190080
-2.7449024 -2.2148566 -0.42837071 4278190080
-2.7638493 -2.2150533 -0.43019879 4278190080
-2.7754481 -2.2084816 -0.4308081 4278190080
-2.7792461 -2.1957037 -0.43019879 4278190080
-3.049149 -2.0971899 -0.44969785 4278190080
-3.0482533 -2.0809376 -0.44847918 4278190080
-3.0472822 -2.0647163 -0.44726047 4278190080
-3.0421164 -2.045759 -0.44543245 4278190080
-3.0492387 -2.0351276 -0.44543245 4278190080
-3.0521865 -2.0217309 -0.44482309 4278190080
-3.055078 -2.0083387 -0.44421375 4278190080
-3.0537574 -1.9922384 -0.44299507 4278190080
-3.060693 -1.9815668 -0.44299507 4278190080
-3.0550654 -1.9628234 -0.441167 4278190080
-3.061898 -1.9521475 -0.441167 4278190080
-3.0686936 -1.9414477 -0.441167 4278190080
-3.0481431 -1.8995166 -0.43629223 4278190080
-3.0676742 -1.7804154 -0.4308081 4278190080
-3.0652688 -1.7647436 -0.42958942 4278190080
-3.0584817 -1.74665 -0.42776141 4278190080
-3.0645599 -1.7359633 -0.42776141 4278190080
-3.0662742 -1.7228247 -0.42715204 4278190080
-3.0633013 -1.7078137 -0.42593333 4278190080
-3.0692439 -1.6971107 -0.42593333 4278190080
-3.0795007 -1.6887732 -0.4265427 4278190080
-3.0779364 -1.5642292 -0.41923052 4278190080
-3.0700819 -1.5467771 -0.41740251 4278190080
-3.0976615 -1.5471377 -0.4204492 4278190080
-3.0585682 -1.5142962 -0.41435575 4278190080
-3.0772009 -1.51017 -0.4161838 4278190080
-3.0958416 -1.505932 -0.41801181 4278190080
-3.0787282 -1.4843402 -0.41496512 4278190080
-3.101265 -1.3394675 -0.41009033 4278190080
-3.0876706 -1.3208266 -0.40765294 4278190080
-3.0922623 -1.3100408 -0.40765294 4278190080
-3.0968165 -1.2992382 -0.40765294 4278190080
-3.1124294 -1.1798149 -0.40399686 4278190080
-3.0932958 -1.1602293 -0.40095013 4278190080
-3.083169 -1.1447827 -0.39912209 4278190080
-3.0824881 -1.1323025 -0.39851275 4278190080
-3.1137464 -1.0587929 -0.39912209 4278190080
-3.0986068 -1.0415926 -0.39668471 4278190080
-3.1009657 -0.97000062 -0.39424732 4278190080
-3.0994241 -0.95824617 -0.39363798 4278190080
-3.1027501 -0.94742149 -0.39363798 4278190080
-3.1396654 -0.91037458 -0.39668471 4278190080
-3.0854156 -0.88356298 -0.38937256 4278190080
-3.0932565 -0.87413716 -0.38998187 4278190080
-3.0676067 -0.85533708 -0.38632581 4278190080
-3.1099541 -0.83214599 -0.39059123 4278190080
-3.0983014 -0.81802768 -0.38876319 4278190080
-3.0819273 -0.80220735 -0.38632581 4278190080
-3.1094208 -0.77468956 -0.38876319 4278190080
-3.0976472 -0.7602815 -0.38693514 4278190080
-3.0375729 -0.73430485 -0.37901366 4278190080
-3.0789859 -0.68767047 -0.38266972 4278190080
-3.0910618 -0.67904848 -0.38388842 4278190080
-3.0885627 -0.66720676 -0.38327909 4278190080
-3.0860183 -0.6553908 -0.38266972 4278190080
-3.0882874 -0.64461392 -0.38266972 4278190080
-3.0905185 -0.63383007 -0.38266972 4278190080
-3.0878472 -0.62205839 -0.38206038 4278190080
-3.0898931 -0.61181515 -0.38206038 4278190080
-3.09201 -0.60102588 -0.38206038 4278190080
-3.0892141 -0.58929926 -0.38145104 4278190080
-3.0863743 -0.57759959 -0.3808417 4278190080
-3.088372 -0.56682199 -0.3808417 4278190080
-3.0854473 -0.55515939 -0.38023233 4278190080
-3.0873663 -0.54438597 -0.38023233 4278190080
-3.0843575 -0.53276122 -0.379623 4278190080
-3.081305 -0.52116406 -0.37901366 4278190080
-3.0831056 -0.51040447 -0.37901366 4278190080
-3.0848684 -0.49963948 -0.37901366 4278190080
-3.0865936 -0.48886842 -0.37901366 4278190080
-3.0882814 -0.47809136 -0.37901366 4278190080
-3.0899312 -0.46730852 -0.37901366 4278190080
-3.0866344 -0.45579419 -0.37840432 4278190080
-3.0832944 -0.44430935 -0.37779495 4278190080
-3.0799124 -0.43285346 -0.37718561 4278190080
-3.0764875 -0.42142653 -0.37657627 4278190080
-3.0730207 -0.41002885 -0.37596694 4278190080
-3.0744333 -0.39929885 -0.37596694 4278190080
-3.0708847 -0.38794279 -0.37535757 4278190080
-3.0722203 -0.37722123 -0.37535757 4278190080
-3.0685906 -0.36590743 -0.37474823 4278190080
-3.069849 -0.355194 -0.37474823 4278190080
-3.0710704 -0.34447539 -0.37474823 4278190080
-3.0722539 -0.33375344 -0.37474823 4278190080
-3.073344 -0.32356349 -0.37474823 4278190080
-3.0695174 -0.31233132 -0.37413886 4278190080
-3.0705888 -0.30161497 -0.37413886 4278190080
-3.0666821 -0.29042703 -0.37352952 4278190080
-3.0676773 -0.27972072 -0.37352952 4278190080
-3.0636914 -0.26857677 -0.37292019 4278190080
-3.0695553 -0.25829715 -0.37352952 4278190080
-3.0704813 -0.2470454 -0.37352952 4278190080
-3.0712838 -0.23686182 -0.37352952 4278190080
-3.0720918 -0.22613977 -0.37352952 4278190080
-3.0678744 -0.21560307 -0.37292019 4278190080
-3.068644 -0.20435694 -0.37292019 4278190080
-3.0643857 -0.19333181 -0.37231082 4278190080
-3.065042 -0.18263409 -0.37231082 4278190080
-3.0656607 -0.17193414 -0.37231082 4278190080
-3.0711982 -0.16149189 -0.37292019 4278190080
-3.0717432 -0.15077059 -0.37292019 4278190080
-3.0722508 -0.14004745 -0.37292019 4278190080
-3.0677626 -0.12911391 -0.37231082 4278190080
-3.0681944 -0.1184048 -0.37231082 4278190080
-3.0685892 -0.10769343 -0.37231082 4278190080
-3.0639863 -0.09682481 -0.37170148 4278190080
-3.0643055 -0.086129077 -0.37170148 4278190080
-3.0645876 -0.075432293 -0.37170148 4278190080
-3.0598705 -0.064629793 -0.37109214 4278190080
-3.0600774 -0.053947803 -0.37109214 4278190080
-3.0602469 -0.043265976 -0.37109214 4278190080
-3.0653419 -0.032636456 -0.37170148 4278190080
-3.0654373 -0.021936379 -0.37170148 4278190080
-3.065495 -0.011236036 -0.37170148 4278190080
-3.0655158 -0.00053473952 -0.37170148 4278190080
-3.0654988 0.010165747 -0.37170148 4278190080
-3.0654447 0.020866109 -0.37170148 4278190080
-3.0603907 0.031515114 -0.37109214 4278190080
-3.060262 0.042197518 -0.37109214 4278190080
-3.060096 0.05288022 -0.37109214 4278190080
-3.0598929 0.063561462 -0.37109214 4278190080
-3.0596523 0.074241929 -0.37109214 4278190080
-3.0593746 0.084921494 -0.37109214 4278190080
-3.0590594 0.095600024 -0.37109214 4278190080
-3.058707 0.1062782 -0.37109214 4278190080
-3.0632768 0.11714392 -0.37170148 4278190080
-3.062849 0.12783587 -0.37170148 4278190080
-3.0623841 0.13852628 -0.37170148 4278190080
-3.0569251 0.14897342 -0.37109214 4278190080
-3.0563865 0.15964381 -0.37109214 4278190080
-3.0558403 0.1697776 -0.37109214 4278190080
-3.0552289 0.18044409 -0.37109214 4278190080
-3.0496275 0.19079769 -0.3704828 4278190080
-3.048943 0.20144156 -0.3704828 4278190080
-3.0482213 0.21208295 -0.3704828 4278190080
-3.0474625 0.22272179 -0.3704828 4278190080
-3.0466664 0.2333587 -0.3704828 4278190080
-3.0458331 0.24399197 -0.3704828 4278190080
-3.0449629 0.25462225 -0.3704828 4278190080
-3.0489995 0.26568025 -0.37109214 4278190080
-3.0480535 0.27632147 -0.37109214 4278190080
-3.0470703 0.28696012 -0.37109214 4278190080
-3.0460501 0.29759446 -0.37109214 4278190080
-3.0449927 0.30822518 -0.37109214 4278190080
-3.0438983 0.31885216 -0.37109214 4278190080
-3.0427668 0.32947525 -0.37109214 4278190080
-3.0415981 0.34009513 -0.37109214 4278190080
-3.0403924 0.35071003 -0.37109214 4278190080
-3.0391498 0.3613207 -0.37109214 4278190080
-3.0427961 0.37253004 -0.37170148 4278190080
-3.0414772 0.38314897 -0.37170148 4278190080
-3.0401211 0.39376402 -0.37170148 4278190080
-3.0387282 0.40437344 -0.37170148 4278190080
-3.0372982 0.41497797 -0.37170148 4278190080
-3.0358312 0.42557743 -0.37170148 4278190080
-3.034327 0.43617171 -0.37170148 4278190080
-3.0327859 0.44676146 -0.37170148 4278190080
-3.0361152 0.45808536 -0.37231082 4278190080
-3.0344975 0.46868041 -0.37231082 4278190080
-3.0328431 0.47926977 -0.37231082 4278190080
-3.0311518 0.48985329 -0.37231082 4278190080
-3.0294232 0.50043166 -0.37231082 4278190080
-3.0325515 0.51182902 -0.37292019 4278190080
-3.0307465 0.52241135 -0.37292019 4278190080
-3.0289047 0.5329873 -0.37292019 4278190080
-3.0270257 0.54355669 -0.37292019 4278190080
-3.0251098 0.55412036 -0.37292019 4278190080
-3.0280354 0.56558758 -0.37352952 4278190080
-3.0260427 0.57615381 -0.37352952 4278190080
-3.024013 0.58671296 -0.37352952 4278190080
-3.0268154 0.59822726 -0.37413886 4278190080
-3.0247085 0.60878986 -0.37413886 4278190080
-3.0226731 0.61881691 -0.37413886 4278190080
-3.0204947 0.62936407 -0.37413886 4278190080
-3.0182793 0.63990355 -0.37413886 4278190080
-3.0160275 0.65043527 -0.37413886 4278190080
-3.0137386 0.66095906 -0.37413886 4278190080
-3.0161395 0.67308182 -0.37474823 4278190080
-3.0138907 0.68308008 -0.37474823 4278190080
-3.016324 0.69471002 -0.37535757 4278190080
-3.0138807 0.70523459 -0.37535757 4278190080
-3.0112755 0.71627659 -0.37535757 4278190080
-3.013581 0.72794867 -0.37596694 4278190080
-3.0110219 0.73846346 -0.37596694 4278190080
-3.0084257 0.74896926 -0.37596694 4278190080
-3.0057931 0.75946587 -0.37596694 4278190080
-3.0031235 0.76995409 -0.37596694 4278190080
-3.0004177 0.78043205 -0.37596694 4278190080
-2.9976752 0.79090059 -0.37596694 4278190080
-2.9996903 0.80264217 -0.37657627 4278190080
-2.9872911 0.81050897 -0.37535757 4278190080
-3.0083687 0.8275134 -0.37840432 4278190080
-3.0006814 0.83667642 -0.37779495 4278190080
-2.9661415 0.84940672 -0.37413886 4278190080
-2.9410939 0.86449581 -0.37170148 4278190080
-2.9285457 0.87192446 -0.3704828 4278190080
-2.8922243 0.87211245 -0.36621737 4278190080
-2.8274593 0.86336172 -0.35829586 4278190080
-2.753309 0.85123807 -0.34915566 4278190080
-2.7361121 0.85639709 -0.34732762 4278190080
-2.7047205 0.85694897 -0.34367153 4278190080
-2.6733587 0.85729223 -0.34001547 4278190080
-2.6373072 0.85589516 -0.33575001 4278190080
-2.6060135 0.8558054 -0.33209395 4278190080
-2.5747528 0.85550845 -0.32843786 4278190080
-2.5388224 0.85342175 -0.32417244 4278190080
-2.5076368 0.85269248 -0.32051635 4278190080
-2.4764876 0.85175604 -0.31686029 4278190080
-2.4453759 0.85061264 -0.3132042 4278190080
-2.4189839 0.85090995 -0.31015745 4278190080
-2.3926203 0.85103291 -0.30711076 4278190080
-2.3662853 0.85098219 -0.30406401 4278190080
-2.3399806 0.85075819 -0.30101728 4278190080
-2.3183644 0.85207295 -0.2985799 4278190080
-2.2921152 0.85151958 -0.29553315 4278190080
-2.2705448 0.85253733 -0.29309577 4278190080
-2.2443554 0.85165429 -0.29004902 4278190080
-2.2228341 0.85237581 -0.28761163 4278190080
-2.2013354 0.85295749 -0.28517425 4278190080
-2.1798596 0.85340017 -0.28273687 4278190080
-2.1537931 0.85187751 -0.27969012 4278190080
-2.1323724 0.85202479 -0.27725273 4278190080
-2.1063755 0.85017556 -0.27420601 4278190080
-2.0850129 0.85002887 -0.27176863 4278190080
-2.0590882 0.84785438 -0.26872188 4278190080
-2.037787 0.84741443 -0.2662845 4278190080
-2.0165141 0.84683627 -0.26384711 4278190080
-1.9952703 0.84611994 -0.26140973 4278190080
-1.9740562 0.84526575 -0.25897235 4278190080
-1.9528725 0.84427434 -0.25653496 4278190080
-1.9362684 0.84513015 -0.25470692 4278190080
-1.915141 0.84387934 -0.25226954 4278190080
-1.8940462 0.84249145 -0.24983215 4278190080
-1.8729846 0.84096664 -0.24739477 4278190080
-1.8564768 0.84135419 -0.24556671 4278190080
-1.8354768 0.83957207 -0.24312934 4278190080
-1.8190175 0.83973366 -0.24130128 4278190080
-1.8025798 0.8397907 -0.23947325 4278190080
-1.786164 0.83974326 -0.23764521 4278190080
-1.7697704 0.83959204 -0.23581718 4278190080
-1.7489238 0.83719343 -0.23337978 4278190080
-1.7325845 0.83681804 -0.23155175 4278190080
-1.7162693 0.83633882 -0.22972371 4278190080
-1.6999786 0.83575594 -0.22789568 4278190080
-1.6837128 0.83507007 -0.22606762 4278190080
-1.6719112 0.836501 -0.22484893 4278190080
-1.6556898 0.8356238 -0.2230209 4278190080
-1.6439177 0.83689505 -0.22180219 4278190080
-1.6277423 0.83582747 -0.21997416 4278190080
-1.616001 0.83693999 -0.21875547 4278190080
-1.5998734 0.83568269 -0.21692742 4278190080
-1.5837744 0.83432305 -0.21509939 4278190080
-1.5677046 0.8328613 -0.21327135 4278190080
-1.5516644 0.83129764 -0.21144332 4278190080
-1.5356539 0.82963258 -0.20961526 4278190080
-1.5240327 0.83023965 -0.20839657 4278190080
-1.5080763 0.82838655 -0.20656852 4278190080
-1.4964929 0.82883662 -0.20534983 4278190080
-1.4849248 0.82921606 -0.20413114 4278190080
-1.4732274 0.82978225 -0.20291245 4278190080
-1.461691 0.83001852 -0.20169376 4278190080
-1.450171 0.83018446 -0.20047507 4278190080
-1.4388126 0.83002919 -0.19925638 4278190080
-1.4316165 0.8325516 -0.19864702 4278190080
-1.4201388 0.83252448 -0.19742833 4278190080
-1.412806 0.83519822 -0.19681899 4278190080
-1.4056189 0.83758432 -0.19620964 4278190080
-1.398432 0.83993077 -0.1956003 4278190080
-1.3827554 0.83709669 -0.19377224 4278190080
-1.3713522 0.83674848 -0.19255355 4278190080
-1.3599684 0.83633089 -0.19133486 4278190080
-1.3486044 0.8358441 -0.19011617 4278190080
-1.3372601 0.83528858 -0.18889748 4278190080
-1.3259366 0.83466375 -0.18767878 4278190080
-1.3146337 0.83397013 -0.18646009 4278190080
-1.3033521 0.83320785 -0.1852414 4278190080
-1.2962638 0.83506459 -0.18463205 4278190080
-1.2850156 0.83418024 -0.18341336 4278190080
-1.2737898 0.83322728 -0.18219467 4278190080
-1.2625864 0.83220619 -0.18097597 4278190080
-1.2514057 0.83111709 -0.17975728 4278190080
-1.2402481 0.82996005 -0.17853858 4278190080
-1.2332284 0.83151013 -0.17792924 4278190080
-1.2221084 0.83023226 -0.17671055 4278190080
-1.2151076 0.83169001 -0.17610119 4278190080
-1.2040261 0.83029175 -0.1748825 4278190080
-1.1929693 0.82882631 -0.17366381 4278190080
-1.186003 0.83013994 -0.17305446 4278190080
-1.1749865 0.82855481 -0.17183577 4278190080
-1.1680415 0.82977706 -0.17122643 4278190080
-1.1611022 0.83096093 -0.17061707 4278190080
-1.154169 0.83210653 -0.17000774 4278190080
-1.1432264 0.83029789 -0.16878904 4278190080
-1.1323106 0.82842273 -0.16757035 4278190080
-1.1254171 0.82942587 -0.166961 4278190080
-1.1145457 0.82743281 -0.16574231 4278190080
-1.1076763 0.82834607 -0.16513297 4278190080
-1.1006694 0.82941383 -0.16452362 4278190080
-1.0938145 0.83025032 -0.16391426 4278190080
-1.0869672 0.83104903 -0.16330491 4278190080
-1.0801276 0.83181041 -0.16269556 4278190080
-1.0732962 0.83253396 -0.16208622 4278190080
-1.0664729 0.83321995 -0.16147687 4278190080
-1.0596581 0.83386856 -0.16086753 4278190080
-1.0529971 0.83429605 -0.16025817 4278190080
-1.0423205 0.83177561 -0.15903948 4278190080
-1.0355426 0.83229989 -0.15843014 4278190080
-1.0247715 0.82984358 -0.15721145 4278190080
-1.0180228 0.83027899 -0.1566021 4278190080
-1.0112835 0.83067745 -0.15599276 4278190080
-1.0045537 0.83103931 -0.15538341 4278190080
-0.99402124 0.82818735 -0.15416472 4278190080
-0.98352093 0.82527208 -0.15294603 4278190080
-0.97305322 0.82229364 -0.15172733 4278190080
-0.95883912 0.81603587 -0.14989929 4278190080
-0.94844848 0.81291884 -0.1486806 4278190080
-0.97565919 0.84216654 -0.15355538 4278190080
-0.9577319 0.83254367 -0.15111798 4278190080
-0.77523321 0.84928638 -0.13649367 4278190080
-0.76893109 0.84831023 -0.13588431 4278190080
-0.75600505 0.83992326 -0.13405629 4278190080
-0.75306839 0.84255725 -0.13405629 4278190080
-0.74353433 0.83775741 -0.13283759 4278190080
-0.73717821 0.83675307 -0.13222823 4278190080
-0.73098516 0.83558619 -0.13161889 4278190080
-0.728064 0.83813262 -0.13161889 4278190080
-0.72189254 0.83691102 -0.13100953 4278190080
-0.71573853 0.83565658 -0.1304002 4278190080
-0.71281725 0.83814985 -0.1304002 4278190080
-0.70668513 0.83684146 -0.12979084 4278190080
-0.70375973 0.83930314 -0.12979084 4278190080
-0.69765043 0.83794063 -0.1291815 4278190080
-0.69472122 0.84037077 -0.1291815 4278190080
-0.68863499 0.83895469 -0.12857215 4278190080
-0.68256682 0.83750659 -0.1279628 4278190080
-0.67637163 0.83614415 -0.12735346 4278190080
-0.66737849 0.83064508 -0.12613477 4278190080
-0.66138023 0.82909 -0.12552541 4278190080
-0.65540093 0.82750326 -0.12491608 4278190080
-0.64637297 0.82198399 -0.12369739 4278190080
-0.64044583 0.82032347 -0.12308803 4278190080
-0.63439536 0.81874228 -0.12247869 4278190080
-0.63153362 0.82095176 -0.12247869 4278190080
-0.62565178 0.81920731 -0.12186934 4278190080
-0.61979002 0.81743169 -0.12125999 4278190080
-0.61693293 0.81959015 -0.12125999 4278190080
-0.61109757 0.81776321 -0.12065064 4278190080
-0.60823935 0.81989127 -0.12065064 4278190080
-0.60243064 0.81801355 -0.1200413 4278190080
-0.59957165 0.82011145 -0.1200413 4278190080
-0.59379035 0.81818283 -0.11943195 4278190080
-0.58802992 0.81622392 -0.1188226 4278190080
-0.58229041 0.81423485 -0.11821326 4278190080
-0.57944453 0.81626254 -0.11821326 4278190080
-0.57373315 0.81422347 -0.11760391 4278190080
-0.56804317 0.81215441 -0.11699457 4278190080
-0.5652048 0.81413227 -0.11699457 4278190080
-0.55954367 0.81201375 -0.11638522 4278190080
-0.55670559 0.8139621 -0.11638522 4278190080
-0.55093205 0.81189048 -0.11577588 4278190080
-0.54809475 0.81380862 -0.11577588 4278190080
-0.54525048 0.81571698 -0.11577588 4278190080
-0.54254264 0.8175205 -0.11577588 4278190080
-0.5424152 0.82355398 -0.11638522 4278190080
-0.53953725 0.82544231 -0.11638522 4278190080
-0.53380835 0.82325023 -0.11577588 4278190080
-0.53093123 0.82510865 -0.11577588 4278190080
-0.52537704 0.82277417 -0.11516653 4278190080
-0.5198456 0.82041103 -0.11455718 4278190080
-0.51433712 0.81801933 -0.11394784 4278190080
-0.50885171 0.8155992 -0.11333849 4278190080
-0.50338924 0.81315094 -0.11272914 4278190080
-0.50054777 0.81490308 -0.11272914 4278190080
-0.49511757 0.81240761 -0.11211979 4278190080
-0.49227875 0.8141309 -0.11211979 4278190080
-0.48943397 0.8158443 -0.11211979 4278190080
-0.48404482 0.81328332 -0.11151045 4278190080
-0.48106086 0.81505191 -0.11151045 4278190080
-0.47821292 0.81672615 -0.11151045 4278190080
-0.47286633 0.81409919 -0.11090109 4278190080
-0.47002175 0.81574482 -0.11090109 4278190080
-0.46702886 0.81746197 -0.11090109 4278190080
-0.46172559 0.81476969 -0.11029175 4278190080
-0.45887873 0.81637645 -0.11029175 4278190080
-0.45602629 0.81797326 -0.11029175 4278190080
-0.4531683 0.81956005 -0.11029175 4278190080
-0.44791853 0.81678551 -0.1096824 4278190080
-0.44506451 0.81834418 -0.1096824 4278190080
-0.44220531 0.8198927 -0.1096824 4278190080
-0.43700013 0.81705517 -0.10907306 4278190080
-0.43414545 0.81857556 -0.10907306 4278190080
-0.4312855 0.820086 -0.10907306 4278190080
-0.42842007 0.82158655 -0.10907306 4278190080
-0.42554963 0.82307702 -0.10907306 4278190080
-0.422674 0.82455742 -0.10907306 4278190080
-0.41979322 0.82602781 -0.10907306 4278190080
-0.4146744 0.8230561 -0.10846371 4278190080
-0.40958121 0.82005888 -0.10785437 4278190080
-0.40451428 0.81703609 -0.10724502 4278190080
-0.40151709 0.81851315 -0.10724502 4278190080
-0.39648727 0.81544667 -0.10663567 4278190080
-0.39148399 0.81235504 -0.10602633 4278190080
-0.38864601 0.81371659 -0.10602633 4278190080
-0.38580328 0.81506824 -0.10602633 4278190080
-0.38295585 0.81640995 -0.10602633 4278190080
-0.38010353 0.81774181 -0.10602633 4278190080
-0.37724683 0.8190636 -0.10602633 4278190080
-0.37438551 0.82037544 -0.10602633 4278190080
-0.37151963 0.82167727 -0.10602633 4278190080
-0.36864921 0.82296914 -0.10602633 4278190080
-0.3637611 0.81971484 -0.10541698 4278190080
-0.3608976 0.8209796 -0.10541698 4278190080
-0.35604841 0.81768423 -0.10480763 4278190080
-0.35319203 0.81892204 -0.10480763 4278190080
-0.34838188 0.81558615 -0.10419828 4278190080
-0.34553266 0.81679732 -0.10419828 4278190080
-0.3407619 0.81342113 -0.10358894 4278190080
-0.33792052 0.81460565 -0.10358894 4278190080
-0.33318946 0.81118965 -0.10297959 4278190080
-0.33021396 0.81240547 -0.10297959 4278190080
-0.32552353 0.80894917 -0.10237025 4278190080
-0.32269782 0.81008053 -0.10237025 4278190080
-0.31986818 0.81120199 -0.10237025 4278190080
-0.31703466 0.81231362 -0.10237025 4278190080
-0.31419706 0.81341541 -0.10237025 4278190080
-0.31135583 0.81450719 -0.10237025 4278190080
-0.30851081 0.81558901 -0.10237025 4278190080
-0.30378056 0.8120662 -0.1017609 4278190080
-0.30108616 0.81306905 -0.1017609 4278190080
-0.29653892 0.80945522 -0.10115156 4278190080
-0.29202077 0.80581963 -0.10054221 4278190080
-0.28920621 0.80683404 -0.10054221 4278190080
-0.2863881 0.80783862 -0.10054221 4278190080
-0.28356653 0.80883336 -0.10054221 4278190080
-0.28074127 0.80981833 -0.10054221 4278190080
-0.2793797 0.81553668 -0.10115156 4278190080
-0.27653131 0.81650692 -0.10115156 4278190080
-0.27210379 0.81276131 -0.10054221 4278190080
-0.26926509 0.81370616 -0.10054221 4278190080
-0.26642314 0.81464106 -0.10054221 4278190080
-0.26205179 0.81084388 -0.099932864 4278190080
-0.26072952 0.81648117 -0.10054221 4278190080
-0.25787771 0.81738639 -0.10054221 4278190080
-0.25488022 0.818326 -0.10054221 4278190080
-0.25056297 0.81446737 -0.099932864 4278190080
-0.24771824 0.81533706 -0.099932864 4278190080
-0.24344464 0.81144339 -0.099323511 4278190080
-0.24061073 0.81228822 -0.099323511 4278190080
-0.2377739 0.81312317 -0.099323511 4278190080
-0.23493417 0.81394815 -0.099323511 4278190080
-0.23209134 0.81476331 -0.099323511 4278190080
-0.22924592 0.81556851 -0.099323511 4278190080
-0.22507147 0.81158149 -0.098714165 4278190080
-0.22092767 0.80757535 -0.09810482 4278190080
-0.2181074 0.80834162 -0.09810482 4278190080
-0.21528426 0.80909806 -0.09810482 4278190080
-0.21245871 0.80984461 -0.09810482 4278190080
-0.20948918 0.81061786 -0.09810482 4278190080
-0.20788309 0.81615335 -0.098714165 4278190080
-0.20503296 0.81687403 -0.098714165 4278190080
-0.2009892 0.81276709 -0.09810482 4278190080
-0.19815072 0.81346375 -0.09810482 4278190080
-0.19530982 0.81415051 -0.09810482 4278190080
-0.19132613 0.80999738 -0.097495466 4278190080
-0.18849738 0.81066036 -0.097495466 4278190080
-0.18552501 0.81134576 -0.097495466 4278190080
-0.18160224 0.80714673 -0.096886121 4278190080
-0.17878392 0.80777568 -0.096886121 4278190080
-0.175963 0.80839485 -0.096886121 4278190080
-0.17328125 0.80897397 -0.096886121 4278190080
-0.16943413 0.8047176 -0.096276775 4278190080
-0.16648324 0.80533326 -0.096276775 4278190080
-0.16367134 0.8059094 -0.096276775 4278190080
-0.16085702 0.80647588 -0.096276775 4278190080
-0.15804075 0.80703247 -0.096276775 4278190080
-0.15508188 0.80760628 -0.096276775 4278190080
-0.15226214 0.80814266 -0.096276775 4278190080
-0.15034191 0.81354934 -0.096886121 4278190080
-0.14750101 0.81406921 -0.096886121 4278190080
-0.14465874 0.81457907 -0.096886121 4278190080
-0.14181428 0.81507909 -0.096886121 4278190080
-0.13980211 0.82046133 -0.097495466 4278190080
-0.13693714 0.82094437 -0.097495466 4278190080
-0.13327108 0.8165195 -0.096886121 4278190080
-0.13042034 0.81697965 -0.096886121 4278190080
-0.12756757 0.81742996 -0.096886121 4278190080
-0.12396561 0.8129642 -0.096276775 4278190080
-0.1211269 0.81339204 -0.096276775 4278190080
-0.11828672 0.81380993 -0.096276775 4278190080
-0.11544553 0.81421781 -0.096276775 4278190080
-0.11260251 0.81461585 -0.096276775 4278190080
-0.10961615 0.81502306 -0.096276775 4278190080
-0.10677035 0.81540078 -0.096276775 4278190080
-0.10329653 0.81084549 -0.095667429 4278190080
-0.099855386 0.80627608 -0.095058084 4278190080
-0.096307784 0.80170935 -0.094448738 4278190080
-0.093508534 0.80204064 -0.094448738 4278190080
-0.090708576 0.80236214 -0.094448738 4278190080
-0.087907091 0.80267388 -0.094448738 4278190080
-0.085104525 0.80297589 -0.094448738 4278190080
-0.082301356 0.80326802 -0.094448738 4278190080
-0.079496756 0.80355042 -0.094448738 4278190080
-0.077162959 0.80876333 -0.095058084 4278190080
-0.074339204 0.80902773 -0.095058084 4278190080
-0.071951389 0.81422579 -0.095667429 4278190080
-0.069528617 0.81941694 -0.096276775 4278190080
-0.067070045 0.82460105 -0.096886121 4278190080
-0.064047404 0.82484132 -0.096886121 4278190080
-0.06153452 0.83000898 -0.097495466 4278190080
-0.058637138 0.83021873 -0.097495466 4278190080
-0.055738598 0.83041835 -0.097495466 4278190080
-0.052839823 0.83060783 -0.097495466 4278190080
-0.049939964 0.83078724 -0.097495466 4278190080
-0.047039494 0.83095652 -0.097495466 4278190080
-0.044138893 0.83111566 -0.097495466 4278190080
-0.040847063 0.82631516 -0.096886121 4278190080
-0.037962701 0.82645273 -0.096886121 4278190080
-0.035077434 0.82658017 -0.096886121 4278190080
-0.032192182 0.82669759 -0.096886121 4278190080
-0.029306097 0.82680494 -0.096886121 4278190080
-0.026419654 0.82690221 -0.096886121 4278190080
-0.023533329 0.82698935 -0.096886121 4278190080
-0.02064628 0.82706648 -0.096886121 4278190080
-0.017759416 0.82713354 -0.096886121 4278190080
-0.014871897 0.82719046 -0.096886121 4278190080
-0.011984197 0.82723737 -0.096886121 4278190080
-0.009096791 0.82727414 -0.096886121 4278190080
-0.0062088342 0.82730085 -0.096886121 4278190080
-0.0033212416 0.82731748 -0.096886121 4278190080
-0.00043316826 0.82732403 -0.096886121 4278190080
0.0024549104 0.82732052 -0.096886121 4278190080
0.0054870518 0.82730597 -0.096886121 4278190080
0.0083745904 0.82728177 -0.096886121 4278190080
0.011262468 0.8272475 -0.096886121 4278190080
0.014150209 0.82720315 -0.096886121 4278190080
0.016935136 0.82218701 -0.096276775 4278190080
0.019805176 0.82212287 -0.096276775 4278190080
0.022674538 0.82204878 -0.096276775 4278190080
0.02554406 0.82196462 -0.096276775 4278190080
0.028413272 0.82187045 -0.096276775 4278190080
0.031281698 0.82176626 -0.096276775 4278190080
0.034150183 0.82165205 -0.096276775 4278190080
0.037017815 0.82152784 -0.096276775 4278190080
0.039885432 0.82139361 -0.096276775 4278190080
0.04275256 0.82124937 -0.096276775 4278190080
0.045618735 0.82109517 -0.096276775 4278190080
0.048484787 0.8209309 -0.096276775 4278190080
0.051493201 0.82074767 -0.096276775 4278190080
0.054358006 0.8205629 -0.096276775 4278190080
0.057221714 0.82036817 -0.096276775 4278190080
0.060085159 0.82016343 -0.096276775 4278190080
0.062947869 0.81994867 -0.096276775 4278190080
0.065809384 0.81972402 -0.096276775 4278190080
0.068670526 0.8194893 -0.096276775 4278190080
0.071530394 0.81924462 -0.096276775 4278190080
0.07438983 0.81898987 -0.096276775 4278190080
0.077248365 0.81872523 -0.096276775 4278190080
0.080105513 0.81845063 -0.096276775 4278190080
0.082962126 0.81816602 -0.096276775 4278190080
0.085960172 0.81785643 -0.096276775 4278190080
0.088814676 0.81755137 -0.096276775 4278190080
0.09166766 0.81723642 -0.096276775 4278190080
0.094519965 0.81691146 -0.096276775 4278190080
0.097370684 0.81657654 -0.096276775 4278190080
0.10022064 0.81623167 -0.096276775 4278190080
0.10306939 0.81587684 -0.096276775 4278190080
0.10591644 0.81551212 -0.096276775 4278190080
0.10890462 0.81511843 -0.096276775 4278190080
0.11174942 0.81473333 -0.096276775 4278190080
0.11459286 0.81433827 -0.096276775 4278190080
0.11743447 0.81393331 -0.096276775 4278190080
0.12100092 0.8184278 -0.096886121 4278190080
0.12385676 0.81800044 -0.096886121 4278190080
0.12671153 0.81756312 -0.096886121 4278190080
0.12956476 0.81711578 -0.096886121 4278190080
0.13321029 0.82155734 -0.097495466 4278190080
0.13607742 0.8210873 -0.097495466 4278190080
0.13908581 0.82058305 -0.097495466 4278190080
0.1426518 0.82500756 -0.09810482 4278190080
0.14553092 0.82450455 -0.09810482 4278190080
0.14840783 0.8239916 -0.09810482 4278190080
0.15142722 0.82344204 -0.09810482 4278190080
0.15430039 0.82290846 -0.09810482 4278190080
0.15717211 0.82236481 -0.09810482 4278190080
0.16004148 0.82181126 -0.09810482 4278190080
0.16290934 0.82124758 -0.09810482 4278190080
0.16577521 0.82067382 -0.09810482 4278190080
0.16863863 0.82009023 -0.09810482 4278190080
0.17150043 0.81949657 -0.09810482 4278190080
0.17450276 0.8188625 -0.09810482 4278190080
0.17736022 0.81824833 -0.09810482 4278190080
0.18021511 0.81762433 -0.09810482 4278190080
0.18306823 0.8169902 -0.09810482 4278190080
0.18591867 0.81634629 -0.09810482 4278190080
0.1898862 0.82052726 -0.098714165 4278190080
0.1927494 0.81985939 -0.098714165 4278190080
0.19560979 0.81918162 -0.098714165 4278190080
0.19846825 0.81849378 -0.098714165 4278190080
0.20013757 0.81297719 -0.09810482 4278190080
0.20311624 0.81223816 -0.09810482 4278190080
0.20594999 0.81152421 -0.09810482 4278190080
0.20878166 0.81080037 -0.09810482 4278190080
0.21161078 0.81006658 -0.09810482 4278190080
0.21570794 0.81412023 -0.098714165 4278190080
0.21854861 0.8133623 -0.098714165 4278190080
0.22138618 0.81259453 -0.098714165 4278190080
0.2242215 0.81181675 -0.098714165 4278190080
0.22705407 0.81102908 -0.098714165 4278190080
0.22988345 0.81023163 -0.098714165 4278190080
0.2342235 0.81415296 -0.099323511 4278190080
0.23706418 0.81333035 -0.099323511 4278190080
0.24130729 0.8172574 -0.099932864 4278190080
0.24415833 0.81641018 -0.099932864 4278190080
0.24700682 0.81555289 -0.099932864 4278190080
0.24985187 0.81468582 -0.099932864 4278190080
0.25430894 0.81850374 -0.10054221 4278190080
0.25716424 0.8176111 -0.10054221 4278190080
0.26001686 0.81670839 -0.10054221 4278190080
0.26286584 0.8157959 -0.10054221 4278190080
0.26571208 0.81487328 -0.10054221 4278190080
0.26855507 0.81394076 -0.10054221 4278190080
0.27139437 0.81299847 -0.10054221 4278190080
0.27423078 0.81204611 -0.10054221 4278190080
0.27720511 0.81103557 -0.10054221 4278190080
0.28003463 0.81006294 -0.10054221 4278190080
0.28286031 0.8090806 -0.10054221 4278190080
0.28733712 0.81276721 -0.10115156 4278190080
0.29017264 0.81175917 -0.10115156 4278190080
0.29469094 0.81540871 -0.1017609 4278190080
0.29767746 0.81432319 -0.1017609 4278190080
0.30051833 0.81327903 -0.1017609 4278190080
0.30335557 0.81222504 -0.1017609 4278190080
0.30618864 0.81116128 -0.1017609 4278190080
0.30901843 0.8100875 -0.1017609 4278190080
0.31184402 0.80900395 -0.1017609 4278190080
0.31646734 0.81253481 -0.10237025 4278190080
0.31930187 0.81142509 -0.10237025 4278190080
0.32410777 0.81486076 -0.10297959 4278190080
0.32695037 0.81372434 -0.10297959 4278190080
0.33165485 0.81717664 -0.10358894 4278190080
0.33638781 0.82060581 -0.10419828 4278190080
0.33924994 0.81942672 -0.10419828 4278190080
0.3421084 0.81823742 -0.10419828 4278190080
0.34689298 0.82161015 -0.10480763 4278190080
0.34781229 0.81582922 -0.10419828 4278190080
0.35065812 0.81461006 -0.10419828 4278190080
0.35349926 0.8133812 -0.10419828 4278190080
0.3563365 0.81214219 -0.10419828 4278190080
0.36117923 0.81543088 -0.10480763 4278190080
0.36402315 0.81416529 -0.10480763 4278190080
0.36890453 0.81741303 -0.10541698 4278190080
0.37381256 0.82063669 -0.10602633 4278190080
0.37667501 0.81932676 -0.10602633 4278190080
0.37967533 0.81794071 -0.10602633 4278190080
0.38042316 0.81211627 -0.10541698 4278190080
0.38325539 0.81078351 -0.10541698 4278190080
0.38608339 0.80944067 -0.10541698 4278190080
0.38890669 0.808088 -0.10541698 4278190080
0.39172482 0.80672562 -0.10541698 4278190080
0.3967219 0.80980992 -0.10602633 4278190080
0.399546 0.8084203 -0.10602633 4278190080
0.40472177 0.81139123 -0.10663567 4278190080
0.40755132 0.80997372 -0.10663567 4278190080
0.41037634 0.80854607 -0.10663567 4278190080
0.41545746 0.81152624 -0.10724502 4278190080
0.41828784 0.81007099 -0.10724502 4278190080
0.42111313 0.80860591 -0.10724502 4278190080
0.42393288 0.80713111 -0.10724502 4278190080
0.42674789 0.8056463 -0.10724502 4278190080
0.43189552 0.80852926 -0.10785437 4278190080
0.43471536 0.80701667 -0.10785437 4278190080
0.44003972 0.80977851 -0.10846371 4278190080
0.44286385 0.80823743 -0.10846371 4278190080
0.44568262 0.80668652 -0.10846371 4278190080
0.45091057 0.80946147 -0.10907306 4278190080
0.45373353 0.80788249 -0.10907306 4278190080
0.45655054 0.8062939 -0.10907306 4278190080
0.45936242 0.80469525 -0.10907306 4278190080
0.46464407 0.80738807 -0.1096824 4278190080
0.46745929 0.8057614 -0.1096824 4278190080
0.47277457 0.80840856 -0.11029175 4278190080
0.47573423 0.80667037 -0.11029175 4278190080
0.47854733 0.80500478 -0.11029175 4278190080
0.48135415 0.80332953 -0.11029175 4278190080
0.48672116 0.80589241 -0.11090109 4278190080
0.48953104 0.80418867 -0.11090109 4278190080
0.4949306 0.80670494 -0.11151045 4278190080
0.49788389 0.80488557 -0.11151045 4278190080
0.50069058 0.80314267 -0.11151045 4278190080
0.50613129 0.80559212 -0.11211979 4278190080
0.50894004 0.80382061 -0.11211979 4278190080
0.51441234 0.80622274 -0.11272914 4278190080
0.51722318 0.80442238 -0.11272914 4278190080
0.52002817 0.80261189 -0.11272914 4278190080
0.52553988 0.8049472 -0.11333849 4278190080
0.52848655 0.80301565 -0.11333849 4278190080
0.53128612 0.80116618 -0.11333849 4278190080
0.53683674 0.803433 -0.11394784 4278190080
0.53963816 0.80155408 -0.11394784 4278190080
0.54243255 0.79966569 -0.11394784 4278190080
0.54802102 0.8018645 -0.11455718 4278190080
0.55081642 0.79994684 -0.11455718 4278190080
0.55643433 0.80209678 -0.11516653 4278190080
0.56207389 0.80421716 -0.11577588 4278190080
0.56487745 0.80225044 -0.11577588 4278190080
0.57054585 0.80432141 -0.11638522 4278190080
0.57334971 0.80232507 -0.11638522 4278190080
0.57918704 0.80424517 -0.11699457 4278190080
0.5819906 0.80221874 -0.11699457 4278190080
0.58771569 0.80418891 -0.11760391 4278190080
0.59051901 0.80213273 -0.11760391 4278190080
0.59331554 0.80006641 -0.11760391 4278190080
0.59907484 0.80196625 -0.11821326 4278190080
0.6018703 0.79987037 -0.11821326 4278190080
0.6046589 0.79776448 -0.11821326 4278190080
0.6074397 0.79564911 -0.11821326 4278190080
0.61323869 0.79745781 -0.1188226 4278190080
0.61601877 0.79531223 -0.1188226 4278190080
0.62184358 0.79707009 -0.11943195 4278190080
0.62768853 0.79879659 -0.1200413 4278190080
0.63047278 0.79660088 -0.1200413 4278190080
0.63634318 0.79827577 -0.12065064 4278190080
0.639126 0.79604954 -0.12065064 4278190080
0.64516038 0.79756021 -0.12125999 4278190080
0.64794064 0.79530317 -0.12125999 4278190080
0.65386057 0.79687333 -0.12186934 4278190080
0.65663832 0.79458594 -0.12186934 4278190080
0.6625824 0.79610366 -0.12247869 4278190080
0.66854542 0.79758912 -0.12308803 4278190080
0.67132562 0.79525048 -0.12308803 4278190080
0.67731172 0.79668349 -0.12369739 4278190080
0.6800887 0.79431421 -0.12369739 4278190080
0.68609774 0.79569411 -0.12430673 4278190080
0.6888712 0.79329419 -0.12430673 4278190080
0.69490325 0.79462034 -0.12491608 4278190080
0.69781089 0.79206812 -0.12491608 4278190080
0.70386481 0.79334003 -0.12552541 4278190080
0.70662999 0.79087806 -0.12552541 4278190080
0.71270591 0.79209566 -0.12613477 4278190080
0.71546626 0.78960329 -0.12613477 4278190080
0.7215634 0.79076678 -0.12674411 4278190080
0.72431904 0.78824347 -0.12674411 4278190080
0.73043692 0.78935266 -0.12735346 4278190080
0.73657125 0.7904287 -0.1279628 4278190080
0.73932564 0.787853 -0.1279628 4278190080
0.74561781 0.78874403 -0.12857215 4278190080
0.75165004 0.78986257 -0.1291815 4278190080
0.7578364 0.79081696 -0.12979084 4278190080
0.76403862 0.79173774 -0.1304002 4278190080
0.76679736 0.78906614 -0.1304002 4278190080
0.77301824 0.78993148 -0.13100953 4278190080
0.77939212 0.79062724 -0.13161889 4278190080
0.78214735 0.7879017 -0.13161889 4278190080
0.78840119 0.78867674 -0.13222823 4278190080
0.7946704 0.78941733 -0.13283759 4278190080
0.79742134 0.78663844 -0.13283759 4278190080
0.80370724 0.78732324 -0.13344693 4278190080
0.81014526 0.78783214 -0.13405629 4278190080
0.81289053 0.78499925 -0.13405629 4278190080
0.82278967 0.78902662 -0.13527498 4278190080
0.81835091 0.77930522 -0.13405629 4278190080
0.84630692 0.80031246 -0.1383217 4278190080
0.82738906 0.77697039 -0.13466562 4278190080
0.83735538 0.78084648 -0.13588431 4278190080
1.0886697 0.79561931 -0.16086753 4278190080
1.0954574 0.79472828 -0.16147687 4278190080
1.110306 0.79960048 -0.16330491 4278190080
1.0969416 0.78417528 -0.16086753 4278190080
1.1037197 0.7832132 -0.16147687 4278190080
1.098332 0.77364039 -0.16025817 4278190080
1.1011602 0.76960975 -0.16025817 4278190080
1.10384 0.76576108 -0.16025817 4278190080
1.1065065 0.76190305 -0.16025817 4278190080
1.1132563 0.76083654 -0.16086753 4278190080
1.1241195 0.76251745 -0.16208622 4278190080
1.1308908 0.76136076 -0.16269556 4278190080
1.137668 0.76016551 -0.16330491 4278190080
1.1444508 0.75893223 -0.16391426 4278190080
1.1513706 0.75746024 -0.16452362 4278190080
1.1581628 0.75615001 -0.16513297 4278190080
1.1607955 0.75210238 -0.16513297 4278190080
1.1675882 0.75072962 -0.16574231 4278190080
1.1743851 0.74931914 -0.16635166 4278190080
1.1811866 0.74786973 -0.166961 4278190080
1.1879919 0.74638259 -0.16757035 4278190080
1.199013 0.74748176 -0.16878904 4278190080
1.2058355 0.74590236 -0.16939838 4278190080
1.2168908 0.74688101 -0.17061707 4278190080
1.227968 0.74779081 -0.17183577 4278190080
1.2390658 0.74863303 -0.17305446 4278190080
1.2501848 0.7494061 -0.17427315 4278190080
1.2570586 0.74757397 -0.1748825 4278190080
1.2682087 0.74822539 -0.17610119 4278190080
1.2750961 0.74630052 -0.17671055 4278190080
1.2776932 0.74184543 -0.17671055 4278190080
1.2845755 0.73985755 -0.17731988 4278190080
1.2915879 0.73760563 -0.17792924 4278190080
1.298473 0.73553842 -0.17853858 4278190080
1.3053594 0.73343205 -0.17914793 4278190080
1.3165815 0.7337032 -0.18036664 4278190080
1.3278216 0.73390406 -0.18158533 4278190080
1.3390787 0.73403603 -0.18280402 4278190080
1.3504813 0.73386168 -0.18402271 4278190080
1.3617719 0.73385215 -0.1852414 4278190080
1.3730793 0.73377198 -0.18646009 4278190080
1.3844023 0.73362249 -0.18767878 4278190080
1.3957411 0.73340207 -0.18889748 4278190080
1.4070952 0.73311144 -0.19011617 4278190080
1.4184637 0.73275113 -0.19133486 4278190080
1.4298472 0.73231953 -0.19255355 4278190080
1.4412445 0.73181814 -0.19377224 4278190080
1.4570888 0.73347676 -0.1956003 4278190080
1.4685215 0.73281759 -0.19681899 4278190080
1.4799668 0.73208827 -0.19803768 4278190080
1.4869694 0.72910231 -0.19864702 4278190080
1.5028956 0.7304157 -0.20047507 4278190080
1.5099072 0.72731858 -0.20108442 4278190080
1.5213941 0.72631937 -0.20230311 4278190080
1.5373778 0.72737205 -0.20413114 4278190080
1.5488943 0.72621435 -0.20534983 4278190080
1.5605476 0.72471327 -0.20656852 4278190080
1.5720847 0.72341031 -0.20778722 4278190080
1.5881466 0.72409523 -0.20961526 4278190080
1.5997101 0.72263288 -0.21083397 4278190080
1.6158123 0.72312576 -0.21266201 4278190080
1.6274002 0.72150445 -0.2138807 4278190080
1.6435404 0.72180563 -0.21570873 4278190080
1.6551512 0.72002411 -0.21692742 4278190080
1.6713277 0.72013313 -0.21875547 4278190080
1.6875248 0.72013795 -0.2205835 4278190080
1.7037418 0.72003931 -0.22241154 4278190080
1.7199789 0.71983522 -0.22423959 4278190080
1.7363604 0.71922404 -0.22606762 4278190080
1.7526354 0.7188077 -0.22789568 4278190080
1.7689279 0.71828735 -0.22972371 4278190080
1.789843 0.71951205 -0.23216109 4278190080
1.8061765 0.71876538 -0.23398913 4278190080
1.8271443 0.71973127 -0.23642652 4278190080
1.8435167 0.71875668 -0.23825456 4278190080
