# .PCD v0.7 - Point Cloud Data file format
VERSION 0.7
FIELDS x y z rgb
SIZE 4 4 4 4
TYPE F F F U
COUNT 1 1 1 1
WIDTH 1151
HEIGHT 1
VIEWPOINT 0 0 0 1 0 0 0
POINTS 1151
DATA ascii
2.5966899 1.6337991 1.7669299 4294967295
2.5987189 1.6047071 1.7696393 4294967295
2.601367 1.574433 1.7691338 4294967295
2.6045721 1.5443977 1.7671276 4294967295
2.605715 1.5147725 1.7673178 4294967295
2.6043508 1.4853109 1.7710732 4294967295
2.5969336 1.4564642 1.7722216 4294967295
2.5964167 1.4274632 1.7656543 4294967295
2.5946999 1.3964152 1.7709591 4294967295
2.582 1.3746159 1.7762264 4294967295
2.605 1.2327342 1.778347 4294967295
2.5934167 1.2137048 1.7707291 4294967295
2.595 1.1841762 1.7577837 4294967295
2.5987272 1.1538252 1.7531061 4294967295
2.5955834 1.1218725 1.7547199 4294967295
2.5942106 1.0931379 1.7694831 4294967295
2.605 1.0786145 1.778347 4294967295
2.602 0.96266776 1.7799199 4294967295
2.5968463 0.94359869 1.7783365 4294967295
2.6033337 0.91309577 1.7719144 4294967295
2.6019068 0.88453346 1.7672117 4294967295
2.5952942 0.8539176 1.773114 4294967295
2.582 0.8354547 1.7762264 4294967295
2.5938332 -0.92302167 1.7659094 4294967295
2.5967374 2.2389274 1.7370806 4294967295
2.6050003 2.1715803 1.7420828 4294967295
2.5948672 2.1456501 1.7318835 4294967295
2.6006 2.1181996 1.722505 4294967295
2.5968182 2.0868695 1.7275581 4294967295
2.5963185 2.0582454 1.7421142 4294967295
2.6047695 2.0236294 1.7454597 4294967295
2.6037273 1.9979753 1.7456039 4294967295
2.6062858 1.8350234 1.7413889 4294967295
2.5981181 1.8150696 1.7400744 4294967295
2.5976555 1.7861142 1.7364203 4294967295
2.5936334 1.7565018 1.7355102 4294967295
2.5839448 1.7247088 1.7312033 4294967295
2.5891204 1.6917113 1.7311332 4294967295
2.59725 1.674978 1.7439622 4294967295
2.608 0.90740305 1.7465192 4294967295
2.6074998 0.88756502 1.734182 4294967295
2.6064999 0.85396796 1.7276711 4294967295
2.608 0.82974845 1.7263491 4294967295
2.5971429 -0.92089504 1.7353481 4294967295
2.5956254 2.2321167 1.7075592 4294967295
2.5870001 2.1125572 1.7186362 4294967295
2.6080003 1.7757223 1.7162641 4294967295
2.6050003 1.7525336 1.7169005 4294967295
2.5999234 1.7233466 1.7176514 4294967295
2.5890002 1.6991079 1.7183554 4294967295
2.6045001 0.87718374 1.709218 4294967295
2.5944116 0.855766 1.706138 4294967295
2.5953498 0.82560915 1.7038306 4294967295
2.595 -0.9214204 1.7042651 4294967295
2.5931001 2.230036 1.6757276 4294967295
2.5940998 0.85020602 1.6851954 4294967295
2.5895 0.83487159 1.6867442 4294967295
2.5929999 -0.9257322 1.6782962 4294967295
2.6025 -0.93315595 1.6624099 4294967295
2.5940771 2.230592 1.6445863 4294967295
2.6025 -0.93315595 1.6382697 4294967295
2.5952783 2.2330441 1.613728 4294967295
2.5945001 -0.91823077 1.6127411 4294967295
2.5992782 2.2595947 1.58293 4294967295
2.5903335 2.244483 1.5959672 4294967295
2.5869999 0.57897437 1.5805837 4294967295
2.5886667 0.54331052 1.5752492 4294967295
2.608 -0.89882201 1.57104 4294967295
2.5915556 -0.90316373 1.5844471 4294967295
2.5943813 2.2623062 1.5552155 4294967295
2.5969999 0.54355025 1.5560653 4294967295
2.6001248 -0.89835882 1.5535196 4294967295
2.5969999 -0.90105641 1.5485303 4294967295
2.5948672 2.2628517 1.5259979 4294967295
2.608 -0.89882201 1.5256574 4294967295
2.5969999 -0.90105647 1.5244284 4294967295
2.5964286 2.2549174 1.5018173 4294967295
2.5973001 2.2390358 1.4883745 4294967295
2.6080003 2.2174456 1.4802749 4294967295
2.5987144 -0.90595382 1.4932122 4294967295
2.5886669 2.2270098 1.477154 4294967295
2.5954287 2.2062931 1.4648793 4294967295
2.5937777 -0.9179886 1.4649975 4294967295
2.601778 2.1947091 1.434382 4294967295
2.5829999 2.1889958 1.4351072 4294967295
2.5991998 -0.92473191 1.4348104 4294967295
2.5962002 2.1989512 1.4041235 4294967295
2.5845001 2.1884673 1.4176538 4294967295
2.5969999 0.52698302 1.3918679 4294967295
2.595 -0.92169803 1.4048665 4294967295
2.592895 2.2261074 1.3714718 4294967295
2.5936475 2.211937 1.3829411 4294967295
2.608 0.52316415 1.3653059 4294967295
2.5996666 -0.92207587 1.3760126 4294967295
2.5961506 2.2320433 1.3467026 4294967295
2.5886667 0.51928592 1.3470387 4294967295
2.5919998 -0.91334826 1.3490925 4294967295
2.600667 2.2514315 1.3045975 4294967295
2.5943692 2.2432103 1.318429 4294967295
2.586 0.51754349 1.3161569 4294967295
2.595 -0.91584402 1.3154913 4294967295
2.6010003 2.2550735 1.2859297 4294967295
2.5845001 2.2484319 1.2857399 4294967295
2.592 -0.92637253 1.2939672 4294967295
2.5994 -0.9332425 1.2804911 4294967295
2.5970001 2.2502713 1.2653327 4294967295
2.5938575 2.2402127 1.2566819 4294967295
2.608 -0.92907703 1.2442858 4294967295
2.5914998 -0.93220717 1.2577361 4294967295
2.5915558 2.2308433 1.2263484 4294967295
2.5941427 -0.92585379 1.2266681 4294967295
2.5933335 2.2323754 1.1940751 4294967295
2.596 -0.92102844 1.1950283 4294967295
2.5979002 2.2299445 1.1631178 4294967295
2.5987144 -0.9119767 1.1650395 4294967295
2.5931115 2.2315159 1.1331832 4294967295
2.5957501 -0.90362966 1.1324685 4294967295
2.5948 2.2347031 1.102536 4294967295
2.608 0.51711315 1.0990616 4294967295
2.5934 -0.89738697 1.1018054 4294967295
2.5961673 2.2367201 1.0745945 4294967295
2.5844998 0.51245362 1.084852 4294967295
2.5923331 -0.89742029 1.076545 4294967295
2.593539 2.2252471 1.0451547 4294967295
2.5940001 2.2175467 1.0357517 4294967295
2.5849998 -0.89689291 1.0459669 4294967295
2.6033335 2.2567592 1.0074248 4294967295
2.5950954 2.2356787 1.0202111 4294967295
2.5869999 -0.89758682 1.0283738 4294967295
2.596 -0.90521729 1.0120666 4294967295
2.600143 2.2538414 0.99216896 4294967295
2.5948236 2.2394853 0.98103702 4294967295
2.6022501 2.2155724 0.97401607 4294967295
2.5967999 -0.91001439 0.98511064 4294967295
2.582 2.2282879 0.96748447 4294967295
2.590389 2.206789 0.95657635 4294967295
2.5895 -0.90446228 0.95377278 4294967295
2.5865455 2.2302899 0.91862333 4294967295
2.5915 2.2111621 0.92626882 4294967295
2.608 0.51711315 0.91753149 4294967295
2.5958571 -0.90495372 0.92340738 4294967295
2.5869999 2.2252913 0.90575582 4294967295
2.5930588 2.2139139 0.89507675 4294967295
2.6059999 0.5167166 0.8950628 4294967295
2.5997143 -0.90370983 0.89641845 4294967295
2.608 2.2234967 0.85097039 4294967295
2.5929165 2.2101233 0.86659813 4294967295
2.589 0.51334584 0.86660087 4294967295
2.5987499 -0.90618038 0.86486602 4294967295
2.5987 2.2252028 0.83411717 4294967295
2.5844998 2.2169518 0.84049106 4294967295
2.5840001 0.51235443 0.83592707 4294967295
2.5958571 -0.91442055 0.83306158 4294967295
2.5960004 2.2313154 0.80526686 4294967295
2.595 0.51453543 0.80716544 4294967295
2.5869999 -0.89758682 0.79428482 4294967295
2.5911667 -0.9080379 0.80774707 4294967295
2.5968461 2.2329741 0.77446419 4294967295
2.5973332 0.51499814 0.78331941 4294967295
2.595 -0.89733702 0.77858329 4294967295
2.5969999 2.2502713 0.73810303 4294967295
2.5967624 2.2397103 0.74624872 4294967295
2.5945001 0.52345723 0.74694002 4294967295
2.5895 -0.90144956 0.7555061 4294967295
2.5977778 2.256613 0.71338558 4294967295
2.6040006 2.2388797 0.71822798 4294967295
2.602 0.53403473 0.71739316 4294967295
2.5869999 -0.93360049 0.70425063 4294967295
2.5943074 2.2539451 0.68994808 4294967295
2.6020005 2.2387567 0.68616831 4294967295
2.6055999 2.2178197 0.6946919 4294967295
2.608 0.53526616 0.68456781 4294967295
2.5935001 -0.94194853 0.68818933 4294967295
2.5988333 2.2508516 0.65584707 4294967295
2.5932143 2.2482483 0.65957123 4294967295
2.5895 0.53747731 0.64734322 4294967295
2.6022 -0.95116109 0.6570226 4294967295
2.5958338 2.2415426 0.62691867 4294967295
2.602 0.54007185 0.63891107 4294967295
2.598 -0.94560224 0.62466723 4294967295
2.5945296 2.2314677 0.59749717 4294967295
2.5929999 0.54421997 0.59638172 4294967295
2.5941999 -0.9241516 0.59040546 4294967295
2.5936668 -0.93399405 0.60443223 4294967295
2.5950832 2.2300334 0.56583732 4294967295
2.599 0.52739352 0.56842947 4294967295
2.5903332 0.4995856 0.55824691 4294967295
2.6022499 0.19296762 0.5543952 4294967295
2.5910001 0.1650579 0.55424649 4294967295
2.6040001 0.14172851 0.55441833 4294967295
2.594625 -0.91151452 0.56408465 4294967295
2.5969999 2.2502713 0.52419835 4294967295
2.595 2.2411582 0.53758794 4294967295
2.59075 0.46559921 0.54522818 4294967295
2.5929999 0.43594918 0.5422405 4294967295
2.608 0.4021441 0.54842019 4294967295
2.605 0.3382225 0.54838747 4294967295
2.6022 0.31673425 0.54835695 4294967295
2.5840001 0.28453922 0.54815865 4294967295
2.582 0.26633999 0.54813683 4294967295
2.582 0.23638661 0.54813683 4294967295
2.582 0.12256368 0.54813683 4294967295
2.5952001 0.10509525 0.54828072 4294967295
2.608 0.078415319 0.54842019 4294967295
2.5993335 0.043008022 0.54632884 4294967295
2.5921998 0.014803543 0.53983736 4294967295
2.599 -0.015329159 0.53626186 4294967295
2.5910001 -0.04531892 0.53621179 4294967295
2.5923331 -0.073465034 0.53823715 4294967295
2.5999999 -0.10580778 0.54230058 4294967295
2.5939999 -0.13568173 0.54224908 4294967295
2.6056001 -0.1665054 0.54234862 4294967295
2.6067998 -0.19681482 0.54235888 4294967295
2.6059999 -0.22094451 0.54235202 4294967295
2.582 -0.26683056 0.53615546 4294967295
2.5849998 -0.28514045 0.53617424 4294967295
2.5919998 -0.3159565 0.53621805 4294967295
2.592 -0.37914109 0.53621805 4294967295
2.5904999 -0.40394473 0.53120679 4294967295
2.5886667 -0.42967391 0.53019106 4294967295
2.5952001 -0.46084541 0.53623807 4294967295
2.5996666 -0.49483037 0.54229772 4294967295
2.6022501 -0.5255335 0.54231983 4294967295
2.595 -0.55109328 0.53926235 4294967295
2.605 -0.59256035 0.54234344 4294967295
2.6032 -0.61328834 0.542328 4294967295
2.595 -0.64140594 0.53926235 4294967295
2.5994999 -0.66972524 0.53626502 4294967295
2.60375 -0.73725563 0.5362916 4294967295
2.6024001 -0.76407105 0.53628314 4294967295
2.608 -0.80503148 0.53631818 4294967295
2.5962 -0.82244527 0.53624433 4294967295
2.5952001 -0.85825175 0.5422594 4294967295
2.5947499 -0.88519818 0.54827577 4294967295
2.6013334 2.2580471 0.50408369 4294967295
2.5829999 2.2489259 0.50620139 4294967295
2.605 2.2541778 0.48794705 4294967295
2.5960715 2.2330914 0.47557306 4294967295
2.5844998 2.2184496 0.46421337 4294967295
2.5986364 2.2270012 0.44418678 4294967295
2.5857499 2.2180235 0.45068997 4294967295
2.5964119 2.2437167 0.41646606 4294967295
2.5954118 2.2339952 0.38498271 4294967295
2.5951767 2.2270637 0.35595506 4294967295
2.5956001 2.2345848 0.32546544 4294967295
2.5944998 2.2390668 0.2954464 4294967295
2.5974 2.2403622 0.26506826 4294967295
2.5992856 2.2315636 0.23729873 4294967295
2.582 2.2193019 0.23063079 4294967295
2.6036 2.225781 0.21008763 4294967295
2.5903332 2.2124267 0.20063943 4294967295
2.5960002 2.2049696 0.17710012 4294967295
2.5935712 2.2077436 0.14251748 4294967295
2.5985384 2.2316389 0.1137698 4294967295
2.582 2.2133112 0.12878919 4294967295
2.5949092 2.2374966 0.084130973 4294967295
2.5973001 2.230634 0.054156393 4294967295
2.605 2.2541778 0.013493001 4294967295
2.5942998 2.2376711 0.028222948 4294967295
2.5936668 2.2654233 -0.0067040324 4294967295
2.582 2.2492554 0.008975625 4294967295
2.5944545 2.2661135 -0.035619617 4294967295
2.6010001 2.2580397 -0.060304523 4294967295
2.5882499 2.2456763 -0.068839729 4294967295
2.595 2.2398312 -0.094599009 4294967295
2.6006668 2.2554569 -0.13350064 4294967295
2.5958571 2.2458134 -0.11936307 4294967295
2.5982499 2.2558734 -0.15399706 4294967295
2.5844998 2.2454367 -0.16241604 4294967295
2.60375 2.2530947 -0.17656702 4294967295
2.5911667 2.2432044 -0.18822795 4294967295
2.5991998 2.2509673 -0.22118074 4294967295
2.592 2.2459195 -0.21149242 4294967295
2.6025 2.2520115 -0.24264336 4294967295
2.5902498 2.2459035 -0.24807698 4294967295
2.5976253 2.234216 -0.27135438 4294967295
2.5853331 2.2161646 -0.28160882 4294967295
2.5947998 2.2070143 -0.30299467 4294967295
2.5961249 2.2020531 -0.32736224 4294967295
2.6340001 0.74227631 1.9909773 4294967295
2.6340001 -0.88333738 1.9909773 4294967295
2.6289999 0.74390906 1.9729182 4294967295
2.6305833 -0.8862499 1.9722742 4294967295
2.6251249 0.75993878 1.9407119 4294967295
2.632 0.74882984 1.9501344 4294967295
2.6288333 -0.89379406 1.9469039 4294967295
2.6285 -0.90282857 1.9330035 4294967295
2.6263995 0.76235408 1.9163461 4294967295
2.6389999 0.74980825 1.9111099 4294967295
2.6268463 -0.91327685 1.9152443 4294967295
2.6220908 0.75550312 1.8847703 4294967295
2.638 0.74952412 1.8830378 4294967295
2.6284544 -0.91306657 1.8836491 4294967295
2.6255996 0.7569561 1.8510253 4294967295
2.6389999 0.74980831 1.8590649 4294967295
2.6301668 -0.90593916 1.8530455 4294967295
2.6244171 2.1375127 1.8176585 4294967295
2.6337409 2.115967 1.821299 4294967295
2.632889 2.0862248 1.8192945 4294967295
2.6238 2.0559528 1.8172458 4294967295
2.6155002 2.0326648 1.8137617 4294967295
2.6308749 0.79072458 1.8190571 4294967295
2.6316497 0.76877213 1.8302759 4294967295
2.628125 -0.91070288 1.8245581 4294967295
2.6170909 2.1412511 1.8043348 4294967295
2.6263337 2.114202 1.7978063 4294967295
2.629334 2.084589 1.7962139 4294967295
2.6246874 2.056551 1.7939626 4294967295
2.6161253 2.0286043 1.7958649 4294967295
2.6230004 1.9522769 1.7819701 4294967295
2.6207778 1.9350791 1.785283 4294967295
2.6190002 1.9083861 1.7861146 4294967295
2.6130002 1.8882535 1.7852463 4294967295
2.6304615 1.3881947 1.7866514 4294967295
2.6268995 1.3631535 1.7943926 4294967295
2.6279998 1.3354701 1.7938044 4294967295
2.6267893 1.306393 1.7893351 4294967295
2.6241875 1.2760578 1.7864609 4294967295
2.6238334 1.2528062 1.7823658 4294967295
2.6202726 1.0584041 1.7848855 4294967295
2.6217501 1.035112 1.7889593 4294967295
2.6201427 1.0067153 1.7843496 4294967295
2.6230001 0.98564589 1.7809539 4294967295
2.6224999 0.82083541 1.7878039 4294967295
2.6339998 0.8003152 1.7975392 4294967295
2.628 -0.92312437 1.7938045 4294967295
2.6167502 2.2279193 1.7536684 4294967295
2.615778 2.2085512 1.7542199 4294967295
2.6130002 2.0761943 1.7791836 4294967295
2.6130002 2.0367873 1.7791836 4294967295
2.6180003 1.9829799 1.7512221 4294967295
2.6235526 1.9645733 1.7637461 4294967295
2.629565 1.9344422 1.763021 4294967295
2.6270001 1.9053819 1.7655067 4294967295
2.6186669 1.8785802 1.7640835 4294967295
2.6180003 1.6549697 1.7527378 4294967295
2.616889 1.6347054 1.7540677 4294967295
2.6155002 1.6048452 1.7530777 4294967295
2.6158576 1.5764519 1.7528126 4294967295
2.6130002 1.5366223 1.7549331 4294967295
2.6130002 1.5123719 1.7549331 4294967295
2.6183569 1.4820479 1.7587618 4294967295
2.6228092 1.4557314 1.7610016 4294967295
2.6294999 1.4238293 1.7620105 4294967295
2.6341431 1.403674 1.7697127 4294967295
2.6389999 1.3743471 1.779467 4294967295
2.6389999 1.3274046 1.777426 4294967295
2.6384997 1.3043003 1.7749422 4294967295
2.6369998 1.2754118 1.7754512 4294967295
2.6329498 1.2426023 1.7680037 4294967295
2.6287618 1.2153614 1.7611952 4294967295
2.6253333 1.1860087 1.7561792 4294967295
2.6213334 1.1553099 1.7538003 4294967295
2.6204998 1.1215031 1.7554327 4294967295
2.6271424 1.0936451 1.7622453 4294967295
2.6304164 1.0669965 1.7702588 4294967295
2.6347892 1.036575 1.7687594 4294967295
2.6328826 1.0046358 1.7722193 4294967295
2.6301036 0.97285426 1.7695065 4294967295
2.6227081 0.94473064 1.7653334 4294967295
2.6135554 0.92180109 1.7626044 4294967295
2.6129999 0.87579829 1.7549331 4294967295
2.6185999 0.85481757 1.7621915 4294967295
2.6298842 0.82511479 1.7661891 4294967295
2.6375713 0.80622506 1.767419 4294967295
2.6288335 -0.92326933 1.7664753 4294967295
2.6225002 2.2316482 1.7354481 4294967295
2.6283705 2.2044878 1.7341601 4294967295
2.6258333 2.1760576 1.7291524 4294967295
2.6224289 2.1471274 1.7237431 4294967295
2.6278238 2.1123445 1.724986 4294967295
2.6289544 2.0830345 1.7302873 4294967295
2.6272964 2.055023 1.7332097 4294967295
2.6256952 2.025341 1.7330977 4294967295
2.6277144 1.9942347 1.7387812 4294967295
2.6352942 1.9676549 1.7431624 4294967295
2.6361878 1.9348279 1.7406573 4294967295
2.6336665 1.9044613 1.7374421 4294967295
2.6274164 1.8753048 1.7342985 4294967295
2.6185262 1.8471553 1.7329071 4294967295
2.6148181 1.8167665 1.7260063 4294967295
2.6130002 1.7942832 1.7246201 4294967295
2.6365001 1.712543 1.7232196 4294967295
2.6270001 1.6934814 1.7310684 4294967295
2.627053 1.666126 1.7445567 4294967295
2.6323125 1.6350083 1.7442011 4294967295
2.6304998 1.6043336 1.7393277 4294967295
2.6267776 1.5751957 1.734784 4294967295
2.6170743 1.5437454 1.7366087 4294967295
2.6139994 1.5129515 1.7341733 4294967295
2.6199996 1.4832445 1.7344687 4294967295
2.6314995 1.4557077 1.7351731 4294967295
2.6364996 1.4260558 1.738254 4294967295
2.6389999 1.4034311 1.7442601 4294967295
2.6384997 1.2088002 1.7424965 4294967295
2.6356249 1.1827697 1.735808 4294967295
2.6327493 1.1542376 1.7367648 4294967295
2.6338999 1.1252038 1.7377045 4294967295
2.637125 1.1026194 1.7441537 4294967295
2.6389999 0.96411085 1.7488523 4294967295
2.6337368 0.94321847 1.7373862 4294967295
2.6201246 0.9156853 1.734475 4294967295
2.6139996 0.88219494 1.7408497 4294967295
2.6168458 0.85652852 1.7413408 4294967295
2.6248665 0.82007384 1.7369974 4294967295
2.6366365 0.80530149 1.7327369 4294967295
2.6329999 -0.92270362 1.7368855 4294967295
2.6279998 2.2351873 1.7071379 4294967295
2.6348753 2.1424823 1.7186513 4294967295
2.6390002 2.1244061 1.7182376 4294967295
2.6390002 1.8947963 1.7182376 4294967295
2.6373336 1.8716754 1.7118692 4294967295
2.6317823 1.8444844 1.7064543 4294967295
2.6218636 1.8130969 1.7057478 4294967295
2.6160772 1.7835543 1.7031523 4294967295
2.6232059 1.7540022 1.7031618 4294967295
2.6287777 1.7288605 1.7139187 4294967295
2.6373334 1.5703117 1.7154399 4294967295
2.6320004 1.5439368 1.7118311 4294967295
2.630842 1.5140185 1.7125932 4294967295
2.6340773 1.4855447 1.7155235 4294967295
2.6377499 1.4624323 1.7176701 4294967295
2.6389999 1.1768826 1.7167069 4294967295
2.6389999 1.1530467 1.7125521 4294967295
2.6389999 1.1276805 1.7156135 4294967295
2.6389999 0.93553716 1.7161967 4294967295
2.6322081 0.91405404 1.7062263 4294967295
2.6202497 0.89001119 1.7005879 4294967295
2.6340001 0.84005761 1.6915221 4294967295
2.6254373 0.82209551 1.7014037 4294967295
2.6364999 0.80720776 1.714044 4294967295
2.6300771 -0.92331856 1.7029157 4294967295
2.6291201 2.239274 1.6737204 4294967295
2.6365001 1.8379507 1.6803986 4294967295
2.631 1.8136617 1.6770483 4294967295
2.6294589 1.7857462 1.6788093 4294967295
2.6331003 1.7628646 1.6850049 4294967295
2.6389999 0.90594298 1.687623 4294967295
2.6342003 0.88107055 1.6861038 4294967295
2.6287856 0.85580277 1.6848303 4294967295
2.6259999 0.83747596 1.6879337 4294967295
2.63375 -0.92601937 1.6852908 4294967295
2.6310999 -0.93424839 1.6718998 4294967295
2.6230953 2.2308402 1.6463907 4294967295
2.6334581 2.2062364 1.6418965 4294967295
2.6390002 2.1886969 1.6386396 4294967295
2.6348 -0.92272651 1.6393061 4294967295
2.6238749 -0.9339565 1.6482005 4294967295
2.6228709 2.233413 1.6135321 4294967295
2.6320386 2.20804 1.6175939 4294967295
2.6340001 0.57115906 1.6059635 4294967295
2.6389999 0.5416286 1.601902 4294967295
2.6389999 -0.89419848 1.6049634 4294967295
2.6269286 -0.91011441 1.6165376 4294967295
2.6224349 2.2564206 1.5834576 4294967295
2.6337335 2.2368705 1.587713 4294967295
2.6377501 2.2167296 1.5952667 4294967295
2.6340001 0.60171574 1.5937408 4294967295
2.6259999 0.58468413 1.5996096 4294967295
2.6293333 0.54878223 1.5877341 4294967295
2.6312997 -0.88851887 1.5831755 4294967295
2.6146667 -0.90111959 1.5858635 4294967295
2.628469 2.2613084 1.5546898 4294967295
2.6390002 2.2499263 1.5651643 4294967295
2.6229999 0.54443055 1.5588276 4294967295
2.628 0.53937101 1.5486131 4294967295
2.6357498 -0.86404407 1.5508811 4294967295
2.6252849 -0.88452816 1.5545083 4294967295
2.6272223 2.2624338 1.5255029 4294967295
2.6384444 2.24401 1.5214137 4294967295
2.6364999 -0.86429363 1.5335858 4294967295
2.6287911 -0.88665676 1.5283285 4294967295
2.6234999 -0.90110826 1.5133612 4294967295
2.6155002 2.2541616 1.5042759 4294967295
2.6269445 2.2308216 1.4980872 4294967295
2.6297503 2.2176127 1.4852312 4294967295
2.6256154 -0.90628815 1.4956563 4294967295
2.62975 2.2060158 1.4641733 4294967295
2.6268418 -0.91716421 1.4641082 4294967295
2.6242001 2.194263 1.4367216 4294967295
2.6325717 2.1855257 1.4317375 4294967295
2.6279545 -0.91731423 1.4357836 4294967295
2.6257203 2.196907 1.4034464 4294967295
2.6325002 2.186331 1.414471 4294967295
2.6276112 -0.91572058 1.4048474 4294967295
2.6255455 2.2240388 1.3676574 4294967295
2.6284449 2.2131224 1.3793671 4294967295
2.6327999 0.52446997 1.3733389 4294967295
2.6288464 -0.91631168 1.3748648 4294967295
2.6272814 2.2322795 1.3443121 4294967295
2.6390002 2.2193115 1.344739 4294967295
2.6291428 0.5186829 1.3407815 4294967295
2.6264613 -0.91219896 1.3445637 4294967295
2.6208575 2.2526927 1.3069243 4294967295
2.6302705 2.2360249 1.3151131 4294967295
2.6390002 2.2193115 1.3141242 4294967295
2.6222 0.51504755 1.3200099 4294967295
2.6304615 -0.92157376 1.3138965 4294967295
2.620353 2.255115 1.286341 4294967295
2.6318846 2.2360954 1.2847419 4294967295
2.6390002 2.2144132 1.2816727 4294967295
2.638 -0.92629838 1.2832227 4294967295
2.6251998 -0.93215293 1.2856035 4294967295
2.6130002 2.2520099 1.2699248 4294967295
2.6290588 2.2362177 1.2564067 4294967295
2.6380002 2.2147968 1.2648561 4294967295
2.6320002 -0.92489302 1.2545199 4294967295
2.6210001 -0.93126923 1.2612803 4294967295
2.633667 2.2535222 1.22188 4294967295
2.6254289 2.2470381 1.2308619 4294967295
2.6270666 -0.92244196 1.2247868 4294967295
2.6340003 2.2517748 1.2056715 4294967295
2.6290555 2.2427719 1.1925112 4294967295
2.6281331 -0.91631192 1.1937754 4294967295
2.6299603 2.2356024 1.1664226 4294967295
2.6299093 -0.90913564 1.1677153 4294967295
2.6278079 2.2387147 1.1348777 4294967295
2.618 0.51909596 1.1255788 4294967295
2.6284544 -0.90585721 1.1357436 4294967295
2.6250303 2.2311556 1.1052375 4294967295
2.6390002 2.2177808 1.0982909 4294967295
2.6155 0.51860029 1.1098323 4294967295
2.628 -0.89961743 1.0974048 4294967295
2.6259999 -0.90196699 1.1122003 4294967295
2.6230001 2.2267885 1.0760121 4294967295
2.6375003 2.2149887 1.0750179 4294967295
2.6324 -0.89867443 1.0690479 4294967295
2.6223998 -0.90134025 1.0730615 4294967295
2.6194289 2.2228091 1.0512468 4294967295
2.6309597 2.2144754 1.0428703 4294967295
2.6329999 -0.89826864 1.0435247 4294967295
2.6139998 -0.90088981 1.0458095 4294967295
2.6144285 2.253238 1.0077664 4294967295
2.6209044 2.2295601 1.0118612 4294967295
2.632565 2.2136109 1.0160686 4294967295
2.6389999 -0.89725995 1.0202236 4294967295
2.6259167 -0.90346086 1.013672 4294967295
2.6130002 2.2520099 0.99710751 4294967295
2.6210999 2.2303758 0.99311125 4294967295
2.6321998 2.2126479 0.9819929 4294967295
2.6276665 -0.90558374 0.98555511 4294967295
2.6280415 2.2105753 0.95512778 4294967295
2.6389999 0.51713687 0.94368696 4294967295
2.6266663 -0.90523523 0.9549017 4294967295
2.6286798 2.2142618 0.92507178 4294967295
2.6286666 0.51713282 0.92474544 4294967295
2.629154 -0.90515751 0.925901 4294967295
2.628 2.2222557 0.90838522 4294967295
2.6276662 2.2161422 0.89614046 4294967295
2.6285 0.51608974 0.89727938 4294967295
2.632875 -0.90509886 0.8968848 4294967295
2.629214 2.2237008 0.86325276 4294967295
2.622 2.2186735 0.87252533 4294967295
2.6268573 0.513008 0.8646816 4294967295
2.6290002 -0.90970629 0.86339593 4294967295
2.6269999 2.2308052 0.83426636 4294967295
2.6283751 0.51275873 0.83755016 4294967295
2.6295002 -0.91307676 0.83539724 4294967295
2.6289997 2.2352774 0.80483621 4294967295
2.628 0.51498133 0.80472928 4294967295
2.6273079 -0.904993 0.80700421 4294967295
2.6298065 2.2347746 0.77461302 4294967295
2.6389999 2.2193115 0.76612204 4294967295
2.6264 0.51831979 0.77408695 4294967295
2.6300001 -0.90181768 0.77901924 4294967295
2.6266873 2.231586 0.74383819 4294967295
2.6389999 2.218291 0.74265075 4294967295
2.6299999 0.53164685 0.73984742 4294967295
2.6207693 2.2236063 0.71882164 4294967295
2.6315 2.2119594 0.71099329 4294967295
2.635 -0.9417541 0.71377307 4294967295
2.6234996 2.2253871 0.6759764 4294967295
2.629333 2.2128496 0.68759865 4294967295
2.6129999 0.53629237 0.67578936 4294967295
2.6258748 -0.9499076 0.68036062 4294967295
2.615 2.2513039 0.65285444 4294967295
2.6272104 2.2356622 0.65448594 4294967295
2.6389999 2.2193115 0.66203219 4294967295
2.6373332 0.54128653 0.64664102 4294967295
2.625 0.5367142 0.66229534 4294967295
2.6330001 -0.95324981 0.65254343 4294967295
2.6263123 2.2354496 0.62649852 4294967295
2.6389999 2.2193115 0.62529463 4294967295
2.6212001 0.54283237 0.62641317 4294967295
2.6289999 -0.94670993 0.62522984 4294967295
2.6284332 2.2317395 0.59742993 4294967295
2.6389999 2.2193115 0.59774143 4294967295
2.6338 0.54667228 0.5975827 4294967295
2.6291251 -0.92439181 0.59288126 4294967295
2.6284001 -0.93511236 0.60718644 4294967295
2.6304481 2.2350304 0.56738955 4294967295
2.6389999 2.2193115 0.57631117 4294967295
2.6259999 0.54199761 0.57908016 4294967295
2.6293333 0.52134085 0.57000947 4294967295
2.6275001 0.49456412 0.55981898 4294967295
2.6340001 0.47948918 0.55481482 4294967295
2.6389999 0.40386271 0.55488092 4294967295
2.638 0.37617156 0.55486768 4294967295
2.6340001 0.3450399 0.55481482 4294967295
2.6292002 0.31391293 0.5547514 4294967295
2.6305001 0.28355163 0.55783004 4294967295
2.6277144 0.25712326 0.55735588 4294967295
2.625875 0.22363208 0.55700356 4294967295
2.6286001 0.1979474 0.55962974 4294967295
2.628 0.16742909 0.56083292 4294967295
2.6299999 0.13443407 0.55912852 4294967295
2.631 0.10860669 0.55579567 4294967295
2.6340001 0.076141402 0.55481482 4294967295
2.635 0.045597423 0.55482805 4294967295
2.6389999 0.027302496 0.55488092 4294967295
2.6389999 -0.49926949 0.55488092 4294967295
2.6389999 -0.51151532 0.55488092 4294967295
2.631 -0.88535559 0.55477518 4294967295
2.6265454 -0.91295862 0.56801552 4294967295
2.6275833 2.2564301 0.53187174 4294967295
2.6273999 2.2460988 0.54741907 4294967295
2.6257501 0.4627386 0.54861361 4294967295
2.6293998 0.43596014 0.54865336 4294967295
2.6142499 0.40311357 0.54848832 4294967295
2.6129999 0.37260202 0.54847467 4294967295
2.6129999 0.35138288 0.54847467 4294967295
2.6129999 0.063409142 0.54847467 4294967295
2.6146667 0.043221563 0.54849285 4294967295
2.6277142 0.012376418 0.54690117 4294967295
2.6281667 -0.013458973 0.54356265 4294967295
2.63025 -0.048311323 0.54485613 4294967295
2.6270001 -0.077316828 0.54515457 4294967295
2.6340001 -0.10719848 0.54870349 4294967295
2.6303999 -0.13757521 0.54866427 4294967295
2.6340001 -0.16525613 0.54870349 4294967295
2.6315999 -0.19257869 0.54867738 4294967295
2.6262858 -0.22699612 0.54688728 4294967295
2.6270001 -0.25230709 0.54515624 4294967295
2.6270001 -0.28367582 0.54253215 4294967295
2.6328001 -0.31483462 0.54258192 4294967295
2.6254287 -0.3470284 0.54426807 4294967295
2.6294999 -0.37546256 0.54561508 4294967295
2.6278749 -0.40799367 0.5402633 4294967295
2.6284997 -0.43628803 0.5395056 4294967295
2.6284447 -0.4681268 0.54526323 4294967295
2.6270001 -0.49699458 0.54862726 4294967295
2.62675 -0.52438158 0.54862452 4294967295
2.6257777 -0.55564642 0.54591811 4294967295
2.6279998 -0.58254629 0.54636317 4294967295
2.6340001 -0.61443889 0.54870349 4294967295
2.6278572 -0.64435166 0.54603499 4294967295
2.6285002 -0.67717981 0.54153454 4294967295
2.6246247 -0.70661932 0.53871828 4294967295
2.6338332 -0.73560452 0.54158032 4294967295
2.6340001 -0.76722211 0.54259217 4294967295
2.6264284 -0.79373431 0.53992897 4294967295
2.6301668 -0.82406336 0.54255933 4294967295
2.6285 -0.8525151 0.54712647 4294967295
2.618 -0.87492865 0.54852915 4294967295
2.6269999 2.2632189 0.5045734 4294967295
2.62325 2.251693 0.48772249 4294967295
2.62675 2.234895 0.47397113 4294967295
2.6279998 2.2293417 0.44396839 4294967295
2.618 2.2502451 0.41185951 4294967295
2.6301944 2.2381442 0.41389912 4294967295
2.6389999 2.2193115 0.40486914 4294967295
2.626281 2.2316253 0.38543078 4294967295
2.638 2.2154093 0.38349414 4294967295
2.6368573 0.87418109 0.37918121 4294967295
2.6368573 0.86281812 0.38267338 4294967295
2.626615 2.2278581 0.3531366 4294967295
2.6389999 2.2170155 0.35512033 4294967295
2.63025 0.87318569 0.35567027 4294967295
2.6343749 0.86041546 0.35121337 4294967295
2.6288798 2.2378521 0.32443467 4294967295
2.6300001 0.87335712 0.32898152 4294967295
2.6331818 0.86200637 0.32763821 4294967295
2.6275997 2.245784 0.29502982 4294967295
2.6230001 2.2514939 0.26863649 4294967295
2.6307776 2.2452703 0.26383716 4294967295
2.6279497 2.2386534 0.2358554 4294967295
2.6299522 2.2299871 0.20695308 4294967295
2.618 2.2198739 0.19015095 4294967295
2.632375 2.2221341 0.17841414 4294967295
2.6213334 2.218643 0.17350605 4294967295
2.6305001 2.2231317 0.14098492 4294967295
2.618 2.216831 0.15068024 4294967295
2.6297197 2.2310045 0.11302337 4294967295
2.6379998 2.2086768 0.10888112 4294967295
2.6389999 2.1886969 0.10178408 4294967295
2.6290529 2.2372427 0.085060894 4294967295
2.6351995 2.2038856 0.08403936 4294967295
2.638 2.1829693 0.087863296 4294967295
2.6293125 2.2338283 0.055087775 4294967295
2.6389999 2.2150254 0.056474417 4294967295
2.6231999 2.2522631 0.014208794 4294967295
2.6322401 2.237299 0.026389897 4294967295
2.6389999 2.2193115 0.031370372 4294967295
2.6295714 2.2688739 -0.0063191056 4294967295
2.6389999 2.2453341 0.0084093809 4294967295
2.6245 2.2816982 -0.025311589 4294967295
2.6312351 2.2680566 -0.035408258 4294967295
2.6383748 2.2425051 -0.041205466 4294967295
2.6261718 2.2582998 -0.063841283 4294967295
2.6371996 2.2361476 -0.063136101 4294967295
2.6389999 2.2193115 -0.069657922 4294967295
2.6263001 2.2524893 -0.088752151 4294967295
2.6329393 2.2378795 -0.09624058 4294967295
2.6257141 2.2559905 -0.12804717 4294967295
2.6356797 2.2363217 -0.12371135 4294967295
2.6308618 2.2637951 -0.15476543 4294967295
2.6389999 2.2397213 -0.15231758 4294967295
2.6263177 2.2559912 -0.18341321 4294967295
2.635963 2.2366822 -0.18630314 4294967295
2.6389999 2.2166874 -0.19036716 4294967295
2.6183844 2.2515004 -0.21692914 4294967295
2.6320643 2.2355311 -0.21447599 4294967295
2.6389999 2.2170155 -0.2143122 4294967295
2.6179998 2.2514505 -0.24171585 4294967295
2.6315715 2.2376325 -0.24662602 4294967295
2.6389999 2.2193115 -0.23803854 4294967295
2.6286209 2.2360005 -0.27469122 4294967295
2.6318333 2.2234521 -0.29500413 4294967295
2.6278124 2.2155936 -0.30835932 4294967295
2.6305883 2.208988 -0.33237547 4294967295
2.6590002 0.73903227 1.9977301 4294967295
2.6566 -0.88104838 1.9986644 4294967295
2.6552861 0.74123037 1.9755706 4294967295
2.6576667 -0.88236004 1.9774622 4294967295
2.6440001 0.75122893 1.9352165 4294967295
2.657182 0.74599844 1.9472946 4294967295
2.6564705 -0.88905311 1.9473172 4294967295
2.6500001 -0.90100002 1.935354 4294967295
2.6440001 0.75122893 1.929082 4294967295
2.6564999 0.74552882 1.9141697 4294967295
2.6533334 -0.90869015 1.9176307 4294967295
2.6554999 0.74524814 1.8828342 4294967295
2.6563001 -0.90621203 1.8857061 4294967295
2.648 0.75236541 1.8451957 4294967295
2.6559999 0.74538797 1.8522758 4294967295
2.661 -0.89856601 1.8547933 4294967295
2.6489999 -0.90168244 1.8549143 4294967295
2.6473572 0.76007199 1.8198687 4294967295
2.6581428 0.74731255 1.8264906 4294967295
2.661 -0.89856601 1.8393583 4294967295
2.653923 -0.90611333 1.8235255 4294967295
2.6440001 1.3861529 1.7818532 4294967295
2.6455002 1.3623873 1.7856364 4294967295
2.6440001 1.3432112 1.7818532 4294967295
2.6450005 0.79037786 1.7899987 4294967295
2.6506901 0.76477963 1.7941521 4294967295
2.661 0.74988508 1.8054016 4294967295
2.6544614 -0.91624749 1.7982076 4294967295
2.6487205 1.3899715 1.7646824 4294967295
2.6551783 1.3651662 1.7647339 4294967295
2.6507921 1.3361574 1.7645838 4294967295
2.6468425 1.3050627 1.7615479 4294967295
2.6497393 1.275424 1.7599899 4294967295
2.648375 1.2509629 1.7555168 4294967295
2.6440001 1.2297224 1.7511806 4294967295
2.6482501 1.0842272 1.7531533 4294967295
2.6517498 1.0641242 1.754784 4294967295
2.6522665 1.033777 1.7570717 4294967295
2.6508422 1.0059872 1.7569464 4294967295
2.6464 0.98032421 1.754752 4294967295
2.6525598 0.79130721 1.7645051 4294967295
2.6598573 0.7698316 1.7717781 4294967295
2.6564999 -0.91861129 1.7662356 4294967295
2.6440003 2.2235165 1.720508 4294967295
2.6490002 2.2062039 1.7227782 4294967295
2.6440003 2.1744401 1.720508 4294967295
2.6470003 2.1124151 1.7218702 4294967295
2.6500003 2.087148 1.7232323 4294967295
2.6476004 2.0545433 1.7221427 4294967295
2.6487274 2.0230057 1.7254442 4294967295
2.6498334 1.9917204 1.7277633 4294967295
2.6485715 1.96443 1.7291614 4294967295
2.6479168 1.9360117 1.7274008 4294967295
2.6440003 1.9106554 1.7225529 4294967295
2.6580002 1.7157053 1.7253212 4294967295
2.6531823 1.6951048 1.7319483 4294967295
2.6551254 1.6653373 1.7382507 4294967295
2.6537273 1.6333255 1.7321857 4294967295
2.6497502 1.609724 1.726958 4294967295
2.6460001 1.4455189 1.7214161 4294967295
2.6520712 1.422459 1.7259182 4294967295
2.6544092 1.3963492 1.7381008 4294967295
2.6647499 1.3661106 1.7484775 4294967295
2.6584001 1.3283178 1.7418386 4294967295
2.655 1.3031812 1.739862 4294967295
2.6575 1.2760731 1.739401 4294967295
2.6552002 1.245098 1.7394415 4294967295
2.6513534 1.2186671 1.7303438 4294967295
2.6440001 1.1959825 1.7235752 4294967295
2.6470001 1.1144292 1.7249374 4294967295
2.6525004 1.0934317 1.7338096 4294967295
2.6613195 1.0648841 1.7345428 4294967295
2.6643333 1.0356923 1.7364359 4294967295
2.6626084 1.0047021 1.7343199 4294967295
2.6525002 0.97604084 1.7349828 4294967295
2.6470001 0.95474821 1.7290293 4294967295
2.6539412 0.79315466 1.7358829 4294967295
2.6558001 -0.91775149 1.7351044 4294967295
2.6567602 2.2344739 1.7073097 4294967295
2.6597145 2.204102 1.7188209 4294967295
2.6581821 2.173197 1.7157232 4294967295
2.6547697 2.1444392 1.7144908 4294967295
2.6595004 2.1162157 1.7182835 4294967295
2.6593847 2.0840921 1.7141951 4294967295
2.6579998 2.0548937 1.7129754 4294967295
2.6587782 2.0248284 1.7183024 4294967295
2.6600912 1.9946585 1.7177079 4294967295
2.6597271 1.9652128 1.7164222 4294967295
2.6582861 1.9350723 1.7137672 4294967295
2.6552277 1.9047647 1.7071062 4294967295
2.6496999 1.8778915 1.6991134 4294967295
2.6571114 1.7468076 1.694942 4294967295
2.6538126 1.7314758 1.7084094 4294967295
2.6590004 1.6019216 1.7143537 4294967295
2.6530774 1.5762858 1.7075715 4294967295
2.656357 1.5431747 1.7018944 4294967295
2.6548572 1.5137069 1.7038643 4294967295
2.6562381 1.4860246 1.7049158 4294967295
2.6554997 1.4563016 1.7108709 4294967295
2.6569998 1.4350921 1.7181879 4294967295
2.659857 1.2088865 1.7144727 4294967295
2.6537273 1.1849918 1.7041963 4294967295
2.6483335 1.1539044 1.6983007 4294967295
2.6485221 1.1230743 1.7025166 4294967295
2.6592307 1.0982068 1.7077148 4294967295
2.6626666 1.0654246 1.7104461 4294967295
2.6645715 1.039687 1.7148345 4294967295
2.6659999 1.006449 1.7181258 4294967295
2.662214 0.97347909 1.7115624 4294967295
2.6537731 0.9476862 1.703663 4294967295
2.6470001 0.92711037 1.6942298 4294967295
2.6547272 0.82202709 1.700168 4294967295
2.6560001 0.8039338 1.7136264 4294967295
2.6527336 -0.9142285 1.7039515 4294967295
2.6523755 2.2305405 1.6800809 4294967295
2.6574006 2.2082629 1.6692531 4294967295
2.6660001 1.8956255 1.6871979 4294967295
2.6573336 1.8726122 1.6796894 4294967295
2.6528132 1.8450695 1.6687109 4294967295
2.6534007 1.8127701 1.6631988 4294967295
2.6547861 1.785566 1.6708418 4294967295
2.6547501 1.7598008 1.6822674 4294967295
2.6602857 1.181313 1.6754352 4294967295
2.6518002 1.153371 1.6748261 4294967295
2.6559999 1.1230894 1.6758016 4294967295
2.6659999 0.96160364 1.6871979 4294967295
2.6617999 0.94156379 1.6834996 4294967295
2.6558747 0.9152019 1.6835226 4294967295
2.6552725 0.88660133 1.6808095 4294967295
2.6548181 0.85565269 1.6817343 4294967295
2.6525002 0.83672351 1.6874418 4294967295
2.6571581 -0.92094076 1.6758502 4294967295
2.6500001 -0.93174231 1.6678962 4294967295
2.6510839 2.1945965 1.6468289 4294967295
2.6550002 2.1896467 1.6423417 4294967295
2.6619999 1.1778774 1.6545589 4294967295
2.6588092 1.1543549 1.649376 4294967295
2.6606667 1.134581 1.6529638 4294967295
2.6659999 -0.89406884 1.6315278 4294967295
2.6537333 -0.91251218 1.6452905 4294967295
2.6530006 2.2039902 1.612556 4294967295
2.6550002 2.1896467 1.6269416 4294967295
2.6659999 0.60902584 1.6129711 4294967295
2.661 0.58936173 1.6170952 4294967295
2.6500001 0.5438863 1.6002632 4294967295
2.658 0.53936118 1.6127714 4294967295
2.655231 -0.88807231 1.6128163 4294967295
2.6470001 -0.90304726 1.6266735 4294967295
2.6528132 2.2293756 1.5810149 4294967295
2.6553338 2.2166142 1.5942185 4294967295
2.6623333 0.54641759 1.5888045 4294967295
2.6574001 -0.86651438 1.5810915 4294967295
2.6514285 -0.87686938 1.592055 4294967295
2.6465719 2.2537465 1.5514944 4294967295
2.653667 2.2413762 1.5576242 4294967295
2.6500001 0.5438863 1.5633725 4294967295
2.655 0.53875238 1.559181 4294967295
2.6506665 -0.86022383 1.5585092 4294967295
2.6518891 2.2379949 1.5271957 4294967295
2.6554999 -0.86282212 1.5347254 4294967295
2.6532729 -0.88476324 1.5210005 4294967295
2.6500001 -0.90100002 1.514185 4294967295
2.6557782 2.2251918 1.5012839 4294967295
2.649667 2.2159781 1.4853663 4294967295
2.6525002 -0.90492076 1.4966552 4294967295
2.6531539 2.1999474 1.4670677 4294967295
2.6552503 2.185226 1.4545447 4294967295
2.6537502 -0.90790707 1.4668453 4294967295
2.654177 2.1798933 1.4349682 4294967295
2.661 -0.89856601 1.4287891 4294967295
2.653923 -0.90469074 1.4365561 4294967295
2.6520834 2.1985166 1.3990712 4294967295
2.6541002 2.1851966 1.4134929 4294967295
2.648 0.5332377 1.4048954 4294967295
2.661 -0.89856601 1.4164412 4294967295
2.6541333 -0.90649891 1.4024205 4294967295
2.6516671 2.2217584 1.3630517 4294967295
2.6555004 2.2129772 1.3755592 4294967295
2.655 0.64347333 1.3712995 4294967295
2.6575713 0.51988888 1.3725629 4294967295
2.6554999 -0.90850294 1.3750449 4294967295
2.6480002 2.2227812 1.3455021 4294967295
2.6551905 2.2123759 1.3445189 4294967295
2.652 0.51475823 1.3475744 4294967295
2.658 0.50852615 1.3352628 4294967295
2.6544445 -0.90865862 1.3447845 4294967295
2.6500003 2.2224138 1.3235829 4294967295
2.6538334 2.2120097 1.3144777 4294967295
2.6440001 0.5119822 1.327898 4294967295
2.6494999 0.50689989 1.320364 4294967295
2.6560001 -0.91667479 1.3143936 4294967295
2.6526005 2.2036443 1.2857158 4294967295
2.6549377 -0.91806215 1.2850356 4294967295
2.654938 2.2327018 1.2476877 4294967295
2.6552227 2.2079523 1.2618411 4294967295
2.6547501 -0.91646487 1.2577845 4294967295
2.6523535 2.2522452 1.2236609 4294967295
2.6624444 2.2424445 1.2250714 4294967295
2.6660001 2.2141826 1.2109087 4294967295
2.6524 -0.9159621 1.2258425 4294967295
2.6510003 2.2324677 1.1983624 4294967295
2.6563334 2.2045968 1.1927434 4294967295
2.6635001 2.1873844 1.1886315 4294967295
2.6537271 -0.90673512 1.1942931 4294967295
2.653667 2.231976 1.1649504 4294967295
2.6618893 2.2076678 1.176904 4294967295
2.6660001 2.1863475 1.1799808 4294967295
2.6618888 -0.89611697 1.1652379 4294967295
2.648375 -0.90274799 1.1633254 4294967295
2.6556003 2.2344928 1.1342769 4294967295
2.661 -0.89856601 1.1355252 4294967295
2.6489999 -0.90241277 1.1371347 4294967295
2.654 2.2220571 1.1142008 4294967295
2.6551766 2.2086103 1.1004732 4294967295
2.654 0.52007627 1.1062074 4294967295
2.6538749 -0.89846045 1.1030881 4294967295
2.6500001 -0.90100002 1.1145355 4294967295
2.655236 2.202672 1.0749339 4294967295
2.6660001 2.1863475 1.0624549 4294967295
2.6440001 0.51811671 1.0886512 4294967295
2.6532221 -0.8972972 1.0748851 4294967295
2.6547778 2.2006137 1.0462502 4294967295
2.6546249 -0.89332843 1.0447481 4294967295
2.6534784 2.2017543 1.0157363 4294967295
2.653923 -0.89332217 1.0154665 4294967295
2.6524584 2.2003524 0.98533577 4294967295
2.6563749 -0.89622462 0.98807764 4294967295
2.6500001 -0.90100002 0.98388088 4294967295
2.657069 2.2023811 0.95540249 4294967295
2.6659999 0.51624221 0.944929 4294967295
2.6573999 -0.89735037 0.95589781 4294967295
2.6500001 -0.90099996 0.95467567 4294967295
2.6561739 2.2077394 0.92515016 4294967295
2.6551669 0.51311356 0.92267418 4294967295
2.6586001 -0.89775556 0.92523873 4294967295
2.6500001 -0.90099996 0.92393345 4294967295
2.6584001 2.2220461 0.88450736 4294967295
2.6541822 2.2130249 0.89994287 4294967295
2.6506667 0.5122422 0.89535391 4294967295
2.661 0.50910008 0.8916533 4294967295
2.6552856 -0.90455383 0.89128792 4294967295
2.6551425 2.2271543 0.86399257 4294967295
2.655 0.51101941 0.86617506 4294967295
2.661 0.50910008 0.86181247 4294967295
2.6567142 -0.90767956 0.86066067 4294967295
2.655158 2.2276881 0.83327985 4294967295
2.6513333 0.51134038 0.82981867 4294967295
2.661 0.50910008 0.84226149 4294967295
2.6616001 -0.89505726 0.82812774 4294967295
2.6534445 -0.90421492 0.83554029 4294967295
2.6528096 2.2268023 0.80712581 4294967295
2.6626666 2.2186191 0.79612565 4294967295
2.6500001 0.51314402 0.80711287 4294967295
2.6513331 -0.89734662 0.80828822 4294967295
2.654 -0.90081358 0.80599058 4294967295
2.6497779 2.2242696 0.78386468 4294967295
2.654727 2.2084391 0.77207315 4294967295
2.6551998 0.51784462 0.77686858 4294967295
2.6516669 -0.90361619 0.7806347 4294967295
2.6475189 2.205539 0.74656177 4294967295
2.6527245 2.1748028 0.74460018 4294967295
2.6564999 2.1585226 0.74001825 4294967295
2.6470001 0.52791339 0.75152135 4294967295
2.6533334 -0.92059803 0.75207222 4294967295
2.6497624 2.1984854 0.71456528 4294967295
2.6552498 2.1779056 0.72142828 4294967295
2.6606667 -0.94783908 0.70948881 4294967295
2.6541054 2.2096341 0.68472308 4294967295
2.6500001 0.53773785 0.67184693 4294967295
2.655154 -0.94633543 0.68209183 4294967295
2.6511819 2.2222733 0.65067011 4294967295
2.6559999 2.2174187 0.65678012 4294967295
2.6589999 0.53524041 0.65322959 4294967295
2.6570477 -0.94242293 0.65522408 4294967295
2.6500001 2.2224138 0.63495618 4294967295
2.6536112 2.2161882 0.62143028 4294967295
2.6530001 0.54326487 0.62154579 4294967295
2.661 0.53996992 0.63543338 4294967295
2.655 -0.92734021 0.61053288 4294967295
2.6551332 -0.93804955 0.62532651 4294967295
2.6512499 2.2219222 0.59041095 4294967295
2.6564999 2.2160354 0.59671056 4294967295
2.6561999 0.54392165 0.59455162 4294967295
2.6605 0.53677565 0.58602917 4294967295
2.6572499 -0.92195445 0.59519845 4294967295
2.6482 2.225816 0.56299132 4294967295
2.6563931 2.206847 0.56612003 4294967295
2.6634998 2.1873844 0.55520475 4294967295
2.6551666 0.52543253 0.57768494 4294967295
2.6590002 0.49740776 0.56748819 4294967295
2.6528001 0.46443644 0.55506331 4294967295
2.6552 0.43405631 0.55633217 4294967295
2.6571667 0.40663224 0.56026369 4294967295
2.6561999 0.37260488 0.56127113 4294967295
2.6525002 0.34438619 0.56121361 4294967295
2.6516666 0.31453532 0.5622316 4294967295
2.6620002 0.28694248 0.56753755 4294967295
2.6575716 0.25300327 0.56570572 4294967295
2.6550002 0.22722974 0.56565976 4294967295
2.6560001 0.19121645 0.56919765 4294967295
2.6547999 0.16297504 0.5704971 4294967295
2.6584284 0.13499965 0.56924105 4294967295
2.6543334 0.10650083 0.56330395 4294967295
2.6539998 0.076719537 0.56123692 4294967295
2.6539998 0.04592856 0.56123692 4294967295
2.6571667 0.016189279 0.557181 4294967295
2.6647499 -0.012622836 0.55522126 4294967295
2.6620002 -0.046570439 0.55518496 4294967295
2.6586001 -0.077349283 0.55514002 4294967295
2.655 -0.10497312 0.55509239 4294967295
2.651 -0.1324888 0.55503953 4294967295
2.6529999 -0.16336583 0.55506599 4294967295
2.6526668 -0.19515406 0.5560925 4294967295
2.652 -0.22484678 0.55505276 4294967295
2.6626666 -0.25045937 0.55519372 4294967295
2.6634998 -0.35249725 0.55520475 4294967295
2.655 -0.37293541 0.55509239 4294967295
2.6594002 -0.40442008 0.55515057 4294967295
2.6659999 -0.43839812 0.55523777 4294967295
2.6569998 -0.46774012 0.55614978 4294967295
2.6560001 -0.49368501 0.55951327 4294967295
2.652143 -0.52548045 0.55770063 4294967295
2.6524999 -0.55414051 0.55505937 4294967295
2.655 -0.5823772 0.55509239 4294967295
2.6530001 -0.61271793 0.55506599 4294967295
2.6571999 -0.64452153 0.55512148 4294967295
2.6634998 -0.83451968 0.55520475 4294967295
2.6551666 -0.85552919 0.55612552 4294967295
2.6530001 -0.88441527 0.56034303 4294967295
2.6552219 -0.91028792 0.57289237 4294967295
2.6547694 2.2586191 0.53423727 4294967295
2.6567271 2.2358909 0.54614502 4294967295
2.6606667 2.2040839 0.5448733 4294967295
2.664125 2.1801705 0.54516727 4294967295
2.6455002 -0.018670563 0.54882884 4294967295
2.6440001 -0.037058353 0.54881251 4294967295
2.6440001 -0.067731015 0.54881251 4294967295
2.6440001 -0.26403603 0.54881251 4294967295
2.6529999 -0.28648567 0.54891056 4294967295
2.655 -0.31749493 0.54893237 4294967295
2.6460001 -0.34097075 0.54883426 4294967295
2.6485 -0.40582499 0.5488615 4294967295
2.652 -0.43404263 0.54889965 4294967295
2.6470001 -0.45471838 0.54884517 4294967295
2.6440001 -0.65971327 0.54881251 4294967295
2.6525002 -0.67722553 0.54890513 4294967295
2.6537499 -0.70521361 0.54585147 4294967295
2.6647501 -0.73598707 0.54903859 4294967295
2.6559999 -0.76438075 0.54894328 4294967295
2.6565001 -0.79534638 0.54894871 4294967295
2.6506667 -0.8243382 0.54888511 4294967295
2.6541333 2.2640467 0.50581491 4294967295
2.6528122 2.2370636 0.47427401 4294967295
2.6530557 2.2242782 0.44462052 4294967295
2.6617999 2.2174838 0.43660718 4294967295
2.6483753 2.2241168 0.4213604 4294967295
2.6542859 2.2068524 0.41125044 4294967295
2.6525557 2.2037888 0.38387454 4294967295
2.655 2.1896467 0.39493102 4294967295
2.6440001 0.86165047 0.37704563 4294967295
2.656435 2.2092957 0.35574311 4294967295
2.6525002 0.84903204 0.35504615 4294967295
2.6494002 2.2264106 0.3234762 4294967295
2.6588666 2.205771 0.32729566 4294967295
2.6525002 0.84903198 0.33966053 4294967295
2.6543703 2.2356341 0.29710978 4294967295
2.6659999 2.2141826 0.30781481 4294967295
2.6530001 0.85719377 0.30638546 4294967295
2.6540003 2.2380612 0.26566574 4294967295
2.6538804 2.2327898 0.23439968 4294967295
2.6634998 2.2182832 0.22149694 4294967295
2.6489232 2.2252879 0.20706323 4294967295
2.6569061 2.2039125 0.20258969 4294967295
2.6488461 2.222384 0.17255142 4294967295
2.6565237 2.2073255 0.17619708 4294967295
2.6496668 2.2221258 0.14312741 4294967295
2.6602666 2.2124984 0.14368349 4294967295
2.6470001 2.222965 0.12508222 4294967295
2.6541004 2.2027416 0.11787453 4294967295
2.6529999 2.1879895 0.10449624 4294967295
2.6440001 2.1928439 0.070319027 4294967295
2.6545 2.1788263 0.085090399 4294967295
2.6519504 2.204344 0.053889364 4294967295
2.6564 2.1858647 0.065743297 4294967295
2.6482856 2.2244835 0.020436287 4294967295
2.6549411 2.2142253 0.026786566 4294967295
2.6477499 2.2566144 -0.010949314 4294967295
2.6521332 2.2336273 -0.0051154494 4294967295
2.6619999 2.2173772 -0.0054888725 4294967295
2.6475999 2.2560263 -0.024893045 4294967295
2.6505554 2.2319796 -0.033741951 4294967295
2.6586249 2.2070203 -0.037789464 4294967295
2.655 2.1896467 -0.048592746 4294967295
2.6452003 2.2232957 -0.061219633 4294967295
2.652853 2.2050457 -0.065506458 4294967295
2.655 2.1896467 -0.054752827 4294967295
2.6462502 2.2231028 -0.098142564 4294967295
2.6543045 2.2094009 -0.092889488 4294967295
2.6489232 2.2238684 -0.1286096 4294967295
2.6585333 2.2135212 -0.12172145 4294967295
2.6440001 2.2541893 -0.16279316 4294967295
2.647048 2.2295773 -0.15626073 4294967295
2.6572499 2.2130692 -0.15619433 4294967295
2.6470001 2.222965 -0.17277664 4294967295
2.6525521 2.2069159 -0.18494797 4294967295
2.6515718 2.2076042 -0.21366948 4294967295
2.6503749 2.221952 -0.25129676 4294967295
2.6547 2.2164843 -0.23885912 4294967295
2.6534736 2.2262819 -0.27378261 4294967295
2.652143 2.2224455 -0.29675102 4294967295
2.6567271 2.2157199 -0.31120855 4294967295
2.6535883 2.206574 -0.33656979 4294967295
2.6605 2.2034354 -0.35223854 4294967295
2.688 0.73878396 2.0211339 4294967295
2.6989999 -0.88008714 2.0241458 4294967295
2.6935 0.74029559 2.0085692 4294967295
2.6847141 -0.87986869 2.0059414 4294967295
2.6788001 0.74247068 1.9724767 4294967295
2.6856246 -0.88116604 1.9730524 4294967295
2.6819999 0.7433576 1.9431108 4294967295
2.6846876 -0.88981158 1.9425775 4294967295
2.671 -0.90194285 1.9310769 4294967295
2.6819999 0.7433576 1.9151087 4294967295
2.6833997 -0.90549344 1.9164442 4294967295
2.6819999 0.7433576 1.8871064 4294967295
2.6904998 -0.89915401 1.8758233 4294967295
2.6811998 -0.90289253 1.8891827 4294967295
2.6829998 0.74363476 1.8533728 4294967295
2.6817997 -0.89624804 1.852766 4294967295
2.6854444 0.74706972 1.8216918 4294967295
2.6819999 -0.89943457 1.837325 4294967295
