# .PCD v0.7 - Point Cloud Data file format
VERSION 0.7
FIELDS x y z rgb
SIZE 4 4 4 4
TYPE F F F U
COUNT 1 1 1 1
WIDTH 1155
HEIGHT 1
VIEWPOINT 0 0 0 1 0 0 0
POINTS 1155
DATA ascii
2.5170002 1.4860078 1.8088403 4294967295
2.5123003 1.4517597 1.8046764 4294967295
2.502815 1.425366 1.7957388 4294967295
2.4944706 1.398149 1.7901499 4294967295
2.493 1.3792914 1.7849827 4294967295
2.5027001 1.2981253 1.7835028 4294967295
2.5029998 1.2744713 1.7842331 4294967295
2.4967501 1.2495759 1.7832572 4294967295
2.5022857 1.2096841 1.7927246 4294967295
2.5145001 1.1140711 1.8075602 4294967295
2.5075333 1.0910075 1.8020328 4294967295
2.5010452 1.0658989 1.801703 4294967295
2.5024734 1.035532 1.8029107 4294967295
2.5032773 1.0045474 1.8043716 4294967295
2.5038331 0.97829717 1.8053081 4294967295
2.5122502 0.7881214 1.8078599 4294967295
2.5062501 0.77604085 1.8076797 4294967295
2.5079999 -0.89927185 1.7809558 4294967295
2.5010002 -0.90360743 1.7964134 4294967295
2.4940002 2.2831156 1.7600292 4294967295
2.5057573 2.2674878 1.7686653 4294967295
2.5098007 2.2356639 1.7659488 4294967295
2.5074522 2.2043943 1.7649101 4294967295
2.5083942 2.1745417 1.7652621 4294967295
2.5075386 2.1525939 1.7753376 4294967295
2.5170002 1.9356776 1.7796409 4294967295
2.5106671 1.8647875 1.7784072 4294967295
2.5036254 1.8429639 1.7721958 4294967295
2.5021765 1.8146358 1.7653692 4294967295
2.5034213 1.7848942 1.7633532 4294967295
2.5010836 1.7623869 1.7750486 4294967295
2.5170002 1.6232446 1.7708812 4294967295
2.5104618 1.6022227 1.766269 4294967295
2.5084543 1.5769819 1.7716439 4294967295
2.5106668 1.5579851 1.7784072 4294967295
2.5150001 1.4171377 1.7763041 4294967295
2.5043845 1.3922967 1.7742106 4294967295
2.5011578 1.3654608 1.7732207 4294967295
2.5016923 1.3345225 1.7737556 4294967295
2.4992859 1.3123462 1.7782193 4294967295
2.5085557 1.2423947 1.778636 4294967295
2.5058889 1.2229679 1.777938 4294967295
2.4990001 -0.89951539 1.769469 4294967295
2.5051668 -0.90308774 1.7572492 4294967295
2.4930003 2.2816243 1.7387092 4294967295
2.4953687 2.2612331 1.7389579 4294967295
2.497828 2.2338719 1.7352855 4294967295
2.5065715 2.2047906 1.7335455 4294967295
2.5148573 2.1857595 1.7418908 4294967295
2.506 -0.90726465 1.7363254 4294967295
2.4930003 2.2262616 1.7073094 4294967295
2.5030513 2.2063482 1.7047482 4294967295
2.5093334 -0.89780337 1.6962346 4294967295
2.5016665 -0.90472853 1.7074735 4294967295
2.4930003 2.2237825 1.6750832 4294967295
2.5005651 2.2024908 1.6739105 4294967295
2.5136671 2.1877816 1.674937 4294967295
2.504647 -0.897026 1.6756811 4294967295
2.4979999 -0.90148205 1.6600124 4294967295
2.4930003 2.2237825 1.6461623 4294967295
2.5043259 2.206548 1.6454526 4294967295
2.5076363 -0.89648497 1.6437855 4294967295
2.494875 -0.90396947 1.6470091 4294967295
2.5000439 2.2038031 1.6198349 4294967295
2.5034289 2.1841021 1.6068853 4294967295
2.5008333 -0.89040357 1.6163267 4294967295
2.5051255 2.1967905 1.5746233 4294967295
2.4992228 2.1832485 1.5900102 4294967295
2.5022998 -0.89373511 1.5870725 4294967295
2.517 -0.90249896 1.5752455 4294967295
2.5046818 2.2307413 1.5510523 4294967295
2.5023003 2.2117341 1.5655953 4294967295
2.5123332 0.55643177 1.5480331 4294967295
2.5028331 -0.90902483 1.556233 4294967295
2.5059679 2.2386847 1.5248398 4294967295
2.493 0.5405845 1.5304785 4294967295
2.4979999 0.53587288 1.5267093 4294967295
2.4994285 -0.91027564 1.5281065 4294967295
2.5039582 2.228925 1.4973838 4294967295
2.493 0.51744777 1.5015576 4294967295
2.5075715 -0.9107542 1.495631 4294967295
2.5087504 2.2239878 1.4691749 4294967295
2.4963336 2.2180581 1.4652052 4294967295
2.5048752 -0.91194391 1.4626313 4294967295
2.5170002 2.2218313 1.4467684 4294967295
2.5030627 2.21241 1.4332726 4294967295
2.5034614 -0.91640162 1.4328308 4294967295
2.5012612 2.2026134 1.4028656 4294967295
2.5092854 -0.92300606 1.4039903 4294967295
2.4967501 -0.93505806 1.3994865 4294967295
2.5040004 2.2045174 1.3751593 4294967295
2.5069282 -0.89346778 1.3707708 4294967295
2.4990768 -0.91300422 1.3812964 4294967295
2.50352 2.2040939 1.3453753 4294967295
2.517 0.51074946 1.3416507 4294967295
2.503 0.50790858 1.3312733 4294967295
2.5 -0.89804977 1.3534992 4294967295
2.5056002 -0.90537518 1.3390973 4294967295
2.5032961 2.2036829 1.3150129 4294967295
2.5089998 0.50912607 1.3186612 4294967295
2.5054286 -0.91245657 1.3146169 4294967295
2.5170002 2.2218313 1.2715724 4294967295
2.5037782 2.2096994 1.2854769 4294967295
2.517 0.51074946 1.283252 4294967295
2.5079999 0.50892317 1.274704 4294967295
2.5018182 -0.90601236 1.2839115 4294967295
2.5099006 2.2219584 1.258967 4294967295
2.5018184 2.2178984 1.250134 4294967295
2.503 0.50790858 1.2673919 4294967295
2.493 -0.89967769 1.2557297 4294967295
2.5074444 -0.90229124 1.251906 4294967295
2.5023181 2.2064681 1.2233742 4294967295
2.5035455 -0.90611464 1.225299 4294967295
2.5029163 2.1996851 1.1934795 4294967295
2.5050998 -0.90694225 1.1953616 4294967295
2.4930003 2.2260964 1.1591339 4294967295
2.5036252 2.2070792 1.1651897 4294967295
2.5006154 -0.90598214 1.1631323 4294967295
2.4969504 2.2243969 1.1346459 4294967295
2.5067272 2.2114239 1.1397469 4294967295
2.5027144 -0.89570653 1.1320899 4294967295
2.4990001 -0.90327799 1.1458833 4294967295
2.501364 2.2256789 1.1075637 4294967295
2.5053334 -0.89184779 1.1040351 4294967295
2.5021877 2.2239745 1.0766573 4294967295
2.5074289 2.2166686 1.0634212 4294967295
2.493 0.50009519 1.0735278 4294967295
2.4992499 -0.89902657 1.0807199 4294967295
2.5074999 -0.90392983 1.0680243 4294967295
2.4953334 2.2262394 1.0447178 4294967295
2.5071001 2.2118971 1.0427225 4294967295
2.5026922 -0.90360516 1.0430648 4294967295
2.4937141 2.2273102 1.0150026 4294967295
2.5048075 2.213948 1.0151244 4294967295
2.5008333 -0.90442806 1.0162735 4294967295
2.493 2.2237825 0.99833345 4294967295
2.5006399 2.2078252 0.98656511 4294967295
2.5052729 -0.90726686 0.98482037 4294967295
2.5014446 2.1971071 0.95501924 4294967295
2.5053332 -0.91030914 0.95265114 4294967295
2.4992499 2.1930964 0.93430102 4294967295
2.502238 2.1852763 0.92353046 4294967295
2.5007501 -0.91937506 0.92390317 4294967295
2.493 -0.93669647 0.91619802 4294967295
2.517 2.192632 0.88030106 4294967295
2.50175 2.1833901 0.89553273 4294967295
2.5153334 0.50457525 0.89465636 4294967295
2.500684 -0.91586804 0.89690036 4294967295
2.5038462 2.2298567 0.85695815 4294967295
2.5020909 2.2065327 0.8699764 4294967295
2.4955001 2.1883748 0.87722337 4294967295
2.5121999 0.50394672 0.86212313 4294967295
2.5063751 -0.89794534 0.85842294 4294967295
2.5020001 -0.90388042 0.87331671 4294967295
2.5043843 2.2399437 0.83401334 4294967295
2.517 0.50490957 0.8423419 4294967295
2.4992499 -0.89902657 0.84586596 4294967295
2.5048573 -0.90311623 0.83041131 4294967295
2.4992778 2.2312839 0.81204796 4294967295
2.5040431 2.2096047 0.79888177 4294967295
2.4950001 0.50628525 0.80189013 4294967295
2.5027499 -0.89882165 0.79260516 4294967295
2.5034287 -0.90342689 0.80864054 4294967295
2.5025454 2.204823 0.77450883 4294967295
2.5005715 0.50574726 0.77268684 4294967295
2.5019999 -0.89465672 0.77305424 4294967295
2.502125 2.2025158 0.74537581 4294967295
2.4963334 0.5065558 0.7499128 4294967295
2.5001817 -0.89697903 0.74870253 4294967295
2.5120001 -0.90070617 0.73970693 4294967295
2.5035264 2.1958525 0.71511698 4294967295
2.5043335 0.51591766 0.71775651 4294967295
2.493 -0.89967769 0.72358465 4294967295
2.4979999 -0.90148205 0.71529925 4294967295
2.503654 2.2046566 0.68423498 4294967295
2.5040002 -0.91526383 0.68381381 4294967295
2.4967499 2.2253077 0.65111029 4294967295
2.5070286 2.2098424 0.65549964 4294967295
2.4992499 0.5245437 0.64870197 4294967295
2.5041428 -0.9252739 0.65683663 4294967295
2.4955001 2.2277415 0.62825692 4294967295
2.5022571 2.2033131 0.62175673 4294967295
2.5123334 0.52728963 0.6289773 4294967295
2.500875 -0.9184671 0.62412673 4294967295
2.493 2.2237825 0.60500884 4294967295
2.5001657 2.205162 0.594455 4294967295
2.5123332 0.53311867 0.59206414 4294967295
2.5048332 -0.92234141 0.59329605 4294967295
2.4955001 -0.93242186 0.58193415 4294967295
2.5039165 2.2042017 0.56592506 4294967295
2.4955001 0.52085584 0.56745338 4294967295
2.5120001 0.50390661 0.55320233 4294967295
2.5124998 -0.89796549 0.55320895 4294967295
2.5037332 -0.91864836 0.56356412 4294967295
2.4955001 -0.935314 0.57325011 4294967295
2.5027895 2.1952083 0.53627521 4294967295
2.5035 0.49056971 0.5443781 4294967295
2.5021431 0.46459803 0.53234065 4294967295
2.5067999 0.43306535 0.53103673 4294967295
2.4995 0.40572223 0.53467524 4294967295
2.493 0.37284315 0.53559864 4294967295
2.4960001 0.34432909 0.53561741 4294967295
2.4960001 0.31538728 0.53561741 4294967295
2.5047145 0.2849102 0.53900433 4294967295
2.5079999 0.25288773 0.54151148 4294967295
2.5026667 0.22333586 0.53857362 4294967295
2.4950001 0.19368169 0.53561115 4294967295
2.5064001 0.1654685 0.53918409 4294967295
2.516 0.13694805 0.54158008 4294967295
2.5054002 0.10732813 0.53917551 4294967295
2.502125 0.072315633 0.53420967 4294967295
2.5044999 0.043342434 0.5327785 4294967295
2.5011668 0.016205257 0.53081989 4294967295
2.5028572 -0.017241957 0.52820063 4294967295
2.5087144 -0.041414216 0.52822369 4294967295
2.5020001 -0.078592166 0.52984989 4294967295
2.5029998 -0.10768835 0.52985382 4294967295
2.503 -0.13671136 0.52985382 4294967295
2.4960001 -0.16527779 0.52982622 4294967295
2.4979999 -0.19439611 0.52983409 4294967295
2.494 -0.22301275 0.52981836 4294967295
2.4960001 -0.25216356 0.52982622 4294967295
2.5038748 -0.28488377 0.52696371 4294967295
2.5 -0.31636074 0.52404159 4294967295
2.5086 -0.34656113 0.52405548 4294967295
2.517 -0.36523095 0.52406907 4294967295
2.5135 -0.40845191 0.52406341 4294967295
2.5043333 -0.43312415 0.52696115 4294967295
2.5026667 -0.46284187 0.53179717 4294967295
2.5054998 -0.49435028 0.53567684 4294967295
2.5049999 -0.52623338 0.53567368 4294967295
2.5054002 -0.55534881 0.53336251 4294967295
2.5 -0.58318728 0.52984202 4294967295
2.5049999 -0.61340451 0.52986169 4294967295
2.5071666 -0.64592636 0.52987021 4294967295
2.4960001 -0.67489403 0.52982622 4294967295
2.517 -0.70978332 0.53574878 4294967295
2.5047145 -0.7320292 0.53236336 4294967295
2.5093334 -0.76002002 0.52987874 4294967295
2.5051668 -0.79460508 0.53180701 4294967295
2.5007145 -0.82537651 0.53648114 4294967295
2.5053334 -0.8537432 0.53956056 4294967295
2.5005715 -0.88250363 0.5455969 4294967295
2.503 2.2070622 0.50662428 4294967295
2.493 -0.35018009 0.51824605 4294967295
2.497 -0.37392041 0.51824325 4294967295
2.4942501 -0.3995415 0.51824516 4294967295
2.5012915 2.2156825 0.47374582 4294967295
2.5027497 2.2135801 0.44420227 4294967295
2.5030558 2.2101481 0.41402879 4294967295
2.5028334 2.1976883 0.39097083 4294967295
2.5020001 2.178288 0.37725902 4294967295
2.500242 2.1723762 0.35528541 4294967295
2.493 2.2257106 0.31194347 4294967295
2.5019166 2.2019525 0.32159111 4294967295
2.5027502 2.1840653 0.33483726 4294967295
2.503531 2.2316899 0.29442656 4294967295
2.5124285 2.2111249 0.30671039 4294967295
2.5039313 2.23911 0.26543495 4294967295
2.5098336 2.2514071 0.22998667 4294967295
2.4999166 2.2463617 0.23839688 4294967295
2.517 2.2510307 0.20871609 4294967295
2.5018752 2.2396631 0.20187864 4294967295
2.4943635 2.2260454 0.17732364 4294967295
2.5009999 2.2037075 0.17512736 4294967295
2.5132501 2.1879053 0.16836169 4294967295
2.493 2.2527034 0.14516607 4294967295
2.5006392 2.237498 0.14594322 4294967295
2.5076153 2.2090569 0.15392759 4294967295
2.5031598 2.2344506 0.11542156 4294967295
2.5059998 2.2237241 0.095732689 4294967295
2.5022352 2.2084374 0.081798494 4294967295
2.5000911 2.196331 0.056051254 4294967295
2.506727 2.1863086 0.046611518 4294967295
2.493 2.2237825 0.020806074 4294967295
2.5004213 2.2053385 0.024651557 4294967295
2.5113332 2.1825058 0.026196271 4294967295
2.5027647 2.2229049 -0.0050753355 4294967295
2.5107501 2.2126417 -0.0012962818 4294967295
2.503 2.2210879 -0.021847963 4294967295
2.504241 2.2095368 -0.038736105 4294967295
2.4996667 2.195878 -0.053980708 4294967295
2.5015671 2.1760199 -0.065449655 4294967295
2.5010908 2.1956377 -0.1021471 4294967295
2.5039332 2.1804335 -0.087887585 4294967295
2.5042727 2.2047584 -0.12432158 4294967295
2.504174 2.2082105 -0.15497452 4294967295
2.5053637 2.2231593 -0.19197762 4294967295
2.5032001 2.2154286 -0.17695779 4294967295
2.502739 2.2246187 -0.21415895 4294967295
2.493 2.2179983 -0.22791386 4294967295
2.5074999 2.2221479 -0.24556035 4294967295
2.497375 2.2182567 -0.24152356 4294967295
2.5122502 2.2219992 -0.26574498 4294967295
2.5021763 2.2169211 -0.2774508 4294967295
2.5076001 2.2111852 -0.29687333 4294967295
2.5469999 0.78276342 1.936482 4294967295
2.5470002 0.76449776 1.9375564 4294967295
2.5436666 -0.87861997 1.9346205 4294967295
2.5320001 0.78402823 1.9222653 4294967295
2.5373571 0.76716161 1.9159724 4294967295
2.5339999 -0.88684434 1.9145237 4294967295
2.5353332 0.75628167 1.8868148 4294967295
2.529 -0.89506632 1.8853791 4294967295
2.5320003 2.1058295 1.8400198 4294967295
2.5300002 2.0900762 1.8401475 4294967295
2.5469999 1.2023361 1.8419304 4294967295
2.5375555 1.1834737 1.8455272 4294967295
2.5339999 1.1597415 1.8422258 4294967295
2.5339999 0.90576088 1.8422258 4294967295
2.5350001 0.88847429 1.8509879 4294967295
2.5338752 0.85440093 1.8593585 4294967295
2.5369999 0.83462489 1.8543875 4294967295
2.5312858 0.75191593 1.8547271 4294967295
2.5320001 -0.89729828 1.8576508 4294967295
2.5395 -0.90171975 1.8468845 4294967295
2.5470002 2.1330783 1.8153377 4294967295
2.5320003 2.1130457 1.8251063 4294967295
2.5403337 2.0845892 1.83322 4294967295
2.5336668 2.053798 1.8202925 4294967295
2.528429 2.0274239 1.8121697 4294967295
2.5220003 2.0038891 1.8114007 4294967295
2.5320003 1.5036756 1.8106465 4294967295
2.528667 1.4870211 1.8108979 4294967295
2.5342224 1.2047924 1.8222282 4294967295
2.5376251 1.1493387 1.8282135 4294967295
2.5305715 1.1325053 1.8132538 4294967295
2.5339999 0.96219027 1.8128293 4294967295
2.5359585 0.94017708 1.8190159 4294967295
2.5397778 0.9203198 1.8276782 4294967295
2.5347273 0.82069379 1.8243116 4294967295
2.541286 0.79951853 1.812842 4294967295
2.5342224 0.766424 1.8228744 4294967295
2.5384288 -0.90596461 1.8248599 4294967295
2.5352142 2.1441994 1.7925345 4294967295
2.5253336 2.1256723 1.8033396 4294967295
2.5427146 2.0211823 1.8059874 4294967295
2.5335629 1.9957935 1.7981938 4294967295
2.5347276 1.96694 1.7885001 4294967295
2.5340006 1.9334297 1.78461 4294967295
2.5353336 1.905949 1.7855355 4294967295
2.5253336 1.8834866 1.7818532 4294967295
2.5420001 1.7750127 1.7862544 4294967295
2.5384288 1.7552582 1.7937301 4294967295
2.5363753 1.7239621 1.8011069 4294967295
2.535125 1.6922531 1.8041413 4294967295
2.5354619 1.6643219 1.7956398 4294967295
2.5260003 1.6437007 1.786481 4294967295
2.5470002 1.562814 1.7828356 4294967295
2.534632 1.5431378 1.7887595 4294967295
2.5356669 1.5134809 1.7960194 4294967295
2.5428338 1.488476 1.8020637 4294967295
2.5326667 1.4556832 1.7933366 4294967295
2.527 1.4362066 1.7817082 4294967295
2.5469999 1.3589371 1.7828356 4294967295
2.5420001 1.3297105 1.7862544 4294967295
2.5319998 1.3039193 1.7871478 4294967295
2.5344999 1.2758188 1.7854481 4294967295
2.5380001 1.2534277 1.7818981 4294967295
2.5379615 1.2093769 1.7905675 4294967295
2.5469999 1.1964266 1.788745 4294967295
2.5361664 1.1197426 1.8058914 4294967295
2.5374999 1.0953922 1.7998965 4294967295
2.5357502 1.0656215 1.8017586 4294967295
2.5339999 1.0374509 1.8057866 4294967295
2.5346925 1.0033578 1.8002418 4294967295
2.5383511 0.97332191 1.7949169 4294967295
2.5436666 0.9428274 1.7945099 4294967295
2.545182 0.91963083 1.7969679 4294967295
2.5257499 0.78795308 1.805989 4294967295
2.5220001 -0.8984403 1.785069 4294967295
2.5345001 -0.90287882 1.8016024 4294967295
2.5324171 2.1747158 1.7633604 4294967295
2.5353336 1.8723186 1.7750794 4294967295
2.5347779 1.8447729 1.7676128 4294967295
2.5325561 1.8137717 1.7612995 4294967295
2.5345004 1.7918115 1.7692903 4294967295
2.5220003 1.7698302 1.7762918 4294967295
2.5410001 1.6546432 1.7716014 4294967295
2.5323126 1.6334755 1.761942 4294967295
2.534143 1.6040339 1.7554518 4294967295
2.5341053 1.5756162 1.7686933 4294967295
2.5220003 1.5591773 1.7762918 4294967295
2.5386667 1.4261377 1.7767277 4294967295
2.5320001 1.3969318 1.7727746 4294967295
2.5320001 1.3714792 1.7753985 4294967295
2.5220001 1.3397472 1.7762918 4294967295
2.5319998 1.2363664 1.7773489 4294967295
2.5295 1.2263452 1.7770846 4294967295
2.5469999 0.94231921 1.7769262 4294967295
2.5220001 -0.8984403 1.7762918 4294967295
2.5378335 -0.908005 1.7635537 4294967295
2.5343332 2.1971288 1.7326417 4294967295
2.5303335 2.1846726 1.7471687 4294967295
2.5432501 -0.91043383 1.7367249 4294967295
2.5326669 2.1980312 1.7063746 4294967295
2.5334284 -0.89494359 1.7038891 4294967295
2.527 -0.90314728 1.7172143 4294967295
2.5329375 2.1954868 1.6752065 4294967295
2.5358891 -0.8948831 1.6772896 4294967295
2.529778 2.2011442 1.6438565 4294967295
2.5344999 -0.89259088 1.6457915 4294967295
2.5327146 2.1962435 1.6154066 4294967295
2.533875 -0.88943529 1.6161084 4294967295
2.5470002 2.2335393 1.5730492 4294967295
2.5320003 2.2056901 1.5829985 4294967295
2.5270002 -0.89630896 1.5911642 4294967295
2.54 -0.90720481 1.578995 4294967295
2.533591 2.2335186 1.5527993 4294967295
2.5369999 0.57367057 1.5541991 4294967295
2.5353334 0.54584372 1.5535313 4294967295
2.5295 -0.9128499 1.5540676 4294967295
2.5326252 2.2326643 1.5255848 4294967295
2.5270002 0.53035629 1.5266588 4294967295
2.5261667 -0.91164696 1.5233876 4294967295
2.5328336 2.2358079 1.4966545 4294967295
2.5453331 -0.91856372 1.4955776 4294967295
2.5370002 2.2355537 1.4629484 4294967295
2.5419998 -0.91736084 1.4648318 4294967295
2.5345004 2.2225547 1.4384875 4294967295
2.5345004 2.2166741 1.4282041 4294967295
2.5369999 -0.91816485 1.4338446 4294967295
2.5303333 2.2071676 1.4056817 4294967295
2.5369999 -0.8949284 1.3937924 4294967295
2.5327144 -0.91356283 1.4088926 4294967295
2.5375001 2.2134249 1.3777707 4294967295
2.534143 -0.89016098 1.3758008 4294967295
2.5365455 2.2123246 1.3464154 4294967295
2.5469999 0.51683706 1.3573534 4294967295
2.5295 -0.89816898 1.3574691 4294967295
2.5332499 -0.90978843 1.3440211 4294967295
2.5345001 2.2082779 1.3133262 4294967295
2.527 0.5127787 1.3067994 4294967295
2.5353334 -0.91690546 1.31428 4294967295
2.5370002 2.226717 1.2775462 4294967295
2.5298576 2.2105246 1.2896636 4294967295
2.527 0.5127787 1.295085 4294967295
2.5369999 0.50892156 1.2775443 4294967295
2.5319998 -0.90590763 1.2848459 4294967295
2.5370002 2.2283585 1.2553098 4294967295
2.5420001 -0.90556514 1.2554272 4294967295
2.5470002 2.2246752 1.2391639 4294967295
2.5329094 2.209141 1.2244872 4294967295
2.5327144 -0.90728939 1.2275739 4294967295
2.5380006 2.2018807 1.1950055 4294967295
2.5369997 -0.90671545 1.192176 4294967295
2.5340834 2.2055449 1.1654446 4294967295
2.5326252 -0.90515107 1.1675116 4294967295
2.5341432 2.2260189 1.1280282 4294967295
2.5305717 2.2119877 1.1405852 4294967295
2.5270002 -0.8963089 1.1357951 4294967295
2.5469999 -0.90143681 1.1446123 4294967295
2.5355716 2.236948 1.1039842 4294967295
2.5303333 -0.89553815 1.1052886 4294967295
2.5333638 2.2277079 1.0771461 4294967295
2.5353336 2.2144656 1.0633101 4294967295
2.5339999 -0.90506047 1.0767589 4294967295
2.5370002 2.2143238 1.0463637 4294967295
2.5328333 -0.90327483 1.0441636 4294967295
2.5469999 2.2246752 1.014604 4294967295
2.5288749 2.2154386 1.0169502 4294967295
2.5327144 -0.90560091 1.0160342 4294967295
2.5469999 2.2246752 0.9939208 4294967295
2.532625 2.2135766 0.98389041 4294967295
2.5353332 -0.90907264 0.98586756 4294967295
2.5354998 2.2046158 0.95647782 4294967295
2.5339999 -0.90859449 0.95328164 4294967295
2.5395 2.197489 0.92916662 4294967295
2.5220001 2.1852846 0.91612566 4294967295
2.5334284 -0.91342342 0.92798328 4294967295
2.5361667 2.1985295 0.89384395 4294967295
2.5220001 2.1852846 0.9044227 4294967295
2.5319998 -0.90954435 0.89251256 4294967295
2.5331111 2.2281919 0.85648477 4294967295
2.531286 2.2100956 0.86976409 4294967295
2.5332501 -0.89803332 0.86204267 4294967295
2.5419998 -0.90261036 0.87502718 4294967295
2.5333638 2.2394602 0.83589101 4294967295
2.5253334 0.50658131 0.82875341 4294967295
2.5220001 -0.8984403 0.84590799 4294967295
2.5377142 -0.90486598 0.83365005 4294967295
2.5344999 2.2225547 0.81812096 4294967295
2.5374999 2.2157714 0.80315208 4294967295
2.5329998 0.50811923 0.80619049 4294967295
2.5419998 -0.89671248 0.79245687 4294967295
2.5344999 -0.90484381 0.81126142 4294967295
2.5469999 2.2246752 0.76640606 4294967295
2.5295002 2.2123232 0.776443 4294967295
2.5253334 0.50658131 0.77799428 4294967295
2.5320001 -0.89142823 0.77670419 4294967295
2.5469999 2.2246752 0.75163233 4294967295
2.5305715 2.2128286 0.74382907 4294967295
2.5345001 0.5113458 0.74758434 4294967295
2.5320001 0.5079186 0.75908017 4294967295
2.527 -0.89728421 0.74981928 4294967295
2.5319998 -0.90591532 0.73558152 4294967295
2.5336666 2.2081258 0.71513498 4294967295
2.5419998 -0.91440612 0.71286464 4294967295
2.5342727 2.2108767 0.68444502 4294967295
2.5369999 0.52658039 0.67714447 4294967295
2.5345001 -0.92347789 0.68286431 4294967295
2.5346923 2.2080262 0.65347159 4294967295
2.5220001 -0.92769766 0.6645124 4294967295
2.5336666 -0.93198919 0.65342385 4294967295
2.5342221 2.2050083 0.62537235 4294967295
2.5345001 0.53194195 0.61523014 4294967295
2.5349998 -0.92306393 0.62408358 4294967295
2.5301251 2.2062597 0.59233546 4294967295
2.5220001 0.53516996 0.58844328 4294967295
2.5353334 -0.92279559 0.59370267 4294967295
2.5347271 2.2102036 0.56420082 4294967295
2.5357499 0.52338362 0.56822902 4294967295
2.5320001 0.5020439 0.55346668 4294967295
2.5345001 -0.89406973 0.5534997 4294967295
2.5357499 -0.91803402 0.5682261 4294967295
2.5342221 2.2063177 0.53651834 4294967295
2.5320001 0.49029461 0.54759198 4294967295
2.539 0.46334952 0.53706139 4294967295
2.5353334 0.43800223 0.53586352 4294967295
2.5344999 0.40553501 0.54173875 4294967295
2.5236666 0.37449217 0.54164582 4294967295
2.5359998 0.34396568 0.54175162 4294967295
2.5320001 0.31407067 0.54171729 4294967295
2.5469999 0.25682014 0.54775542 4294967295
2.5220001 0.21626484 0.54163152 4294967295
2.5320001 0.19656101 0.54171729 4294967295
2.527 0.1756579 0.54167444 4294967295
2.5253334 0.096429251 0.54166013 4294967295
2.5386667 0.079264127 0.54177451 4294967295
2.5244999 0.011466028 0.53579569 4294967295
2.539 -0.014989357 0.53588647 4294967295
2.540333 -0.07980267 0.53589475 4294967295
2.5353334 -0.097304411 0.53586352 4294967295
2.5444999 -0.1360175 0.53592086 4294967295
2.5311668 -0.1646665 0.53583741 4294967295
2.5320001 -0.19704205 0.53584266 4294967295
2.526 -0.22587888 0.53580511 4294967295
2.527 -0.25530222 0.53581136 4294967295
2.5386667 -0.28390443 0.53393388 4294967295
2.5320001 -0.3145355 0.52996796 4294967295
2.54 -0.34501401 0.52999949 4294967295
2.5220001 -0.38058516 0.52407712 4294967295
2.5220001 -0.39521384 0.52407712 4294967295
2.5386667 -0.42726469 0.52999419 4294967295
2.5344999 -0.45889443 0.53585827 4294967295
2.5469999 -0.49959254 0.54184598 4294967295
2.5429997 -0.52241337 0.54181165 4294967295
2.5345001 -0.55293268 0.53881299 4294967295
2.5309999 -0.58455336 0.5358364 4294967295
2.5409999 -0.61633134 0.53589892 4294967295
2.5469999 -0.64732939 0.53593647 4294967295
2.5429997 -0.6758045 0.53591144 4294967295
2.527 -0.69207668 0.53581136 4294967295
2.5220001 -0.74045062 0.53578007 4294967295
2.5469999 -0.7596094 0.53593647 4294967295
2.5395 -0.8015545 0.53588957 4294967295
2.5339999 -0.82625854 0.54173446 4294967295
2.5436666 -0.8648389 0.54771912 4294967295
2.527 -0.87383193 0.54753751 4294967295
2.54 2.2256246 0.50289708 4294967295
2.5253334 2.2116022 0.51237184 4294967295
2.5314999 2.2246335 0.47709513 4294967295
2.5395002 2.223269 0.44531706 4294967295
2.5253336 2.2155108 0.45084247 4294967295
2.5408888 2.2265344 0.41602767 4294967295
2.527 2.2159951 0.40388644 4294967295
2.5341432 2.2025168 0.38802904 4294967295
2.536 2.1820972 0.3746441 4294967295
2.5315001 2.174124 0.35375601 4294967295
2.5342221 2.1978204 0.31961098 4294967295
2.5320001 2.1851115 0.33464092 4294967295
2.5309999 2.2265353 0.28625566 4294967295
2.535125 2.2117109 0.29690057 4294967295
2.5352609 2.235106 0.26707563 4294967295
2.5377142 2.2619715 0.23644647 4294967295
2.5220001 2.249651 0.24320653 4294967295
2.5377142 2.2628138 0.20951623 4294967295
2.5303335 2.2443423 0.19532549 4294967295
2.539 2.2294488 0.18832254 4294967295
2.5329094 2.1984599 0.17362413 4294967295
2.5305715 2.2321081 0.13574713 4294967295
2.5338752 2.2073019 0.15152362 4294967295
2.5346668 2.2413301 0.11597073 4294967295
2.5395 2.232846 0.088091999 4294967295
2.5307503 2.2134132 0.074905038 4294967295
2.5369999 2.2047501 0.05850181 4294967295
2.527 2.1866796 0.043313354 4294967295
2.5469999 2.195128 0.039540619 4294967295
2.5327692 2.1828508 0.025056541 4294967295
2.527 2.2218583 -0.01531738 4294967295
2.5330524 2.2050481 -0.0076323152 4294967295
2.527 2.1866796 0.0081349611 4294967295
2.5356367 2.2227511 -0.028381169 4294967295
2.5373845 2.2112801 -0.04104799 4294967295
2.5386667 2.1938245 -0.053129673 4294967295
2.5345004 2.1790478 -0.065711141 4294967295
2.5339999 2.1956477 -0.10497832 4294967295
2.534857 2.1829627 -0.090907753 4294967295
2.5329092 2.2102175 -0.1282227 4294967295
2.5344999 2.2133186 -0.15592688 4294967295
2.5362856 2.2253878 -0.18960851 4294967295
2.5320001 2.2162478 -0.17498112 4294967295
2.5319998 2.2313225 -0.21450377 4294967295
2.5357502 2.2317531 -0.24515963 4294967295
2.5354614 2.2290642 -0.27412862 4294967295
2.5420001 2.2261989 -0.2956903 4294967295
2.5327146 2.2147002 -0.30446637 4294967295
2.5545001 0.79396743 1.9465798 4294967295
2.55825 0.7565285 1.9382745 4294967295
2.5645001 0.74647957 1.9462057 4294967295
2.5682499 -0.88214171 1.9453191 4294967295
2.5628335 0.75541002 1.9180071 4294967295
2.5641429 -0.893058 1.9196464 4294967295
2.5669999 0.87229228 1.8701782 4294967295
2.5669999 0.86335844 1.8701782 4294967295
2.5634284 0.75381851 1.8861194 4294967295
2.552 -0.89728534 1.8879467 4294967295
2.562 -0.90080142 1.8833998 4294967295
2.5686667 1.2046152 1.8432415 4294967295
2.5641427 1.1891799 1.8465676 4294967295
2.552 1.16917 1.8445255 4294967295
2.5636666 0.90485799 1.8479247 4294967295
2.5661666 0.88788569 1.8593055 4294967295
2.5662308 0.8523342 1.8564802 4294967295
2.552 0.83758974 1.847486 4294967295
2.5662858 0.75636357 1.8527842 4294967295
2.5641427 -0.90495151 1.8542229 4294967295
2.5650003 2.1380281 1.8221109 4294967295
2.5616434 2.1156025 1.835085 4294967295
2.5613751 2.0856781 1.8263513 4294967295
2.5636671 2.0614374 1.815538 4294967295
2.5670002 1.7418504 1.8106195 4294967295
2.5670002 1.7239828 1.8106195 4294967295
2.5595002 1.2040653 1.8282226 4294967295
2.5694001 1.1850116 1.8223145 4294967295
2.5628827 1.1566567 1.8186704 4294967295
2.5669999 1.1343509 1.8106195 4294967295
2.5669999 1.0569245 1.8106195 4294967295
2.5584705 0.90848738 1.8248326 4294967295
2.5688183 0.88428676 1.825086 4294967295
2.5675771 0.85416293 1.8235128 4294967295
2.5601254 0.82465637 1.8145716 4294967295
2.5657501 0.79373431 1.8144522 4294967295
2.5648572 0.76955289 1.83248 4294967295
2.5682499 -0.90746576 1.8246487 4294967295
2.5657504 2.1740692 1.7906446 4294967295
2.5600002 2.154048 1.8011651 4294967295
2.5682502 2.0465963 1.8052834 4294967295
2.5625005 2.0289171 1.801203 4294967295
2.5615003 1.9966215 1.7917967 4294967295
2.5640006 1.962883 1.788281 4294967295
2.5670002 1.9366845 1.7910467 4294967295
2.5627143 1.9088072 1.7863644 4294967295
2.5670002 1.8014092 1.78084 4294967295
2.5636668 1.7881588 1.7910992 4294967295
2.5630002 1.7569829 1.8050349 4294967295
2.5649171 1.6957948 1.8006288 4294967295
2.5570004 1.6772184 1.7907486 4294967295
2.5620003 1.5631015 1.7843286 4294967295
2.5591433 1.546083 1.7837545 4294967295
2.5613754 1.5114472 1.7843791 4294967295
2.5609477 1.4837967 1.7909828 4294967295
2.5634286 1.4607246 1.7850153 4294967295
2.5669999 1.3934345 1.7838151 4294967295
2.5650001 1.3655792 1.7881821 4294967295
2.5711668 1.3360331 1.7948178 4294967295
2.5597777 1.3053612 1.7924606 4294967295
2.5642223 1.273922 1.7873988 4294967295
2.5669999 1.2475103 1.7820289 4294967295
2.5646191 1.1930656 1.795527 4294967295
2.5642221 1.1231968 1.8045815 4294967295
2.5656366 1.0969344 1.8018069 4294967295
2.5649168 1.0659834 1.8050975 4294967295
2.5625556 1.0342779 1.8047332 4294967295
2.5609479 1.0065874 1.7897307 4294967295
2.5604618 0.91164786 1.7929163 4294967295
2.5672941 0.8839522 1.8009489 4294967295
2.5695002 0.85610688 1.8003753 4294967295
2.5709999 0.83308661 1.8042784 4294967295
2.552 0.80206329 1.8089991 4294967295
2.5612857 -0.9056403 1.7958348 4294967295
2.5651252 2.1980913 1.7643025 4294967295
2.5520003 2.181674 1.7734725 4294967295
2.5520003 1.8915412 1.7793937 4294967295
2.5636668 1.8737439 1.7739062 4294967295
2.5630004 1.8431865 1.7639928 4294967295
2.562417 1.8179948 1.7662002 4294967295
2.571286 1.6885103 1.7667509 4294967295
2.561667 1.6672988 1.763147 4294967295
2.5616431 1.637588 1.753998 4294967295
2.5634711 1.6043905 1.755307 4294967295
2.5633047 1.5746109 1.7702247 4294967295
2.5686669 1.5393612 1.7766898 4294967295
2.5660002 1.5208671 1.7779527 4294967295
2.562 1.443603 1.7783657 4294967295
2.5648572 1.4258509 1.7780827 4294967295
2.5570002 1.396914 1.7788889 4294967295
2.5599999 1.2381432 1.7785676 4294967295
2.5625265 1.214973 1.7758064 4294967295
2.5650001 1.1965344 1.7774638 4294967295
2.572 0.99930841 1.7773285 4294967295
2.5643914 0.97513229 1.7746216 4294967295
2.5632503 0.94475901 1.7733299 4294967295
2.562 0.92705232 1.7783611 4294967295
2.5639999 -0.91340244 1.7674502 4294967295
2.5624547 2.2084358 1.7332075 4294967295
2.5720003 1.6288774 1.7474911 4294967295
2.5720003 1.610975 1.7474911 4294967295
2.5595 -0.89694446 1.7237101 4294967295
2.5611668 -0.90743554 1.738362 4294967295
2.563154 2.2035487 1.703927 4294967295
2.5636666 -0.89345008 1.7058372 4294967295
2.5616672 2.2073605 1.6751926 4294967295
2.5627141 -0.89679831 1.6742458 4294967295
2.5597777 2.214711 1.6479453 4294967295
2.5670002 -0.89262521 1.644834 4294967295
2.5584288 2.2100611 1.6129466 4294967295
2.5628331 -0.89514047 1.6152718 4294967295
2.5669999 -0.90255934 1.6021637 4294967295
2.5646925 2.232332 1.5805923 4294967295
2.5553336 2.2161415 1.5932904 4294967295
2.562 0.57337934 1.5703346 4294967295
2.5669999 0.55960292 1.5783403 4294967295
2.5636666 -0.91130042 1.5838932 4294967295
2.562556 2.2362628 1.5553637 4294967295
2.572 0.54578 1.5624993 4294967295
2.5553334 -0.91624379 1.5527717 4294967295
2.5670002 2.254056 1.5128256 4294967295
2.5624547 2.2424877 1.5278176 4294967295
2.5669999 -0.92042708 1.5306855 4294967295
2.5678339 2.2567692 1.4952706 4294967295
2.5520003 2.2468059 1.4991294 4294967295
2.5695002 2.2532675 1.472055 4294967295
2.5607505 2.2440896 1.4628541 4294967295
2.5680001 -0.92078561 1.4655515 4294967295
2.5635002 2.2289543 1.438895 4294967295
2.5570004 2.2185724 1.4229283 4294967295
2.5645001 -0.91728848 1.4330101 4294967295
2.5656006 2.2142277 1.4034588 4294967295
2.5682502 2.1836483 1.3956254 4294967295
2.5650001 -0.8923291 1.4025475 4294967295
2.5636666 -0.90336883 1.4143846 4294967295
2.5670002 2.2242689 1.3639287 4294967295
2.5641432 2.2103052 1.3787071 4294967295
2.5640001 2.1760626 1.3791947 4294967295
2.5703332 0.52157187 1.3769556 4294967295
2.5644999 -0.89274943 1.380957 4294967295
2.562 -0.90377355 1.365257 4294967295
2.566375 2.2244751 1.3465972 4294967295
2.5520003 2.2172005 1.3382735 4294967295
2.5695 0.51544106 1.3379259 4294967295
2.5595 -0.91773206 1.3466196 4294967295
2.5720003 2.2226417 1.3178327 4294967295
2.5603335 2.2171726 1.31619 4294967295
2.5703332 0.51560819 1.3153342 4294967295
2.562 -0.91862261 1.3164124 4294967295
2.5645003 2.2339947 1.2866099 4294967295
2.5520003 2.2172005 1.2997866 4294967295
2.5570002 0.51293355 1.2924211 4294967295
2.5628335 -0.90802741 1.2872415 4294967295
2.562 2.2359879 1.2552927 4294967295
2.5695 -0.90940005 1.2544508 4294967295
2.5670002 2.2242689 1.236866 4294967295
2.5620003 2.2121992 1.2225885 4294967295
2.562 -0.90970618 1.2225828 4294967295
2.5634291 2.2092767 1.1949415 4294967295
2.5686667 -0.91009194 1.1946045 4294967295
2.5695002 2.223459 1.1560919 4294967295
2.5601821 2.2145736 1.1672873 4294967295
2.5649998 -0.90661389 1.1621296 4294967295
2.5636668 2.2347541 1.1358174 4294967295
2.5520003 2.2172005 1.1458385 4294967295
2.552 -0.89728534 1.1280754 4294967295
2.5644999 -0.90168041 1.1459318 4294967295
2.5720003 2.2524791 1.1089709 4294967295
2.5620003 2.2466848 1.1044431 4294967295
2.552 -0.8972854 1.1162331 4294967295
2.562 -0.90376776 1.1037146 4294967295
2.5640836 2.2316537 1.0749319 4294967295
2.5636666 0.50832272 1.0773373 4294967295
2.5642223 -0.9095059 1.0734811 4294967295
2.5655003 2.2277324 1.0449793 4294967295
2.559 -0.90568388 1.0406742 4294967295
2.5612855 2.2320566 1.0131222 4294967295
2.5650001 -0.91018051 1.0145352 4294967295
2.5657501 2.2276475 0.98475337 4294967295
2.552 2.2172005 0.97412741 4294967295
2.5636666 -0.91063285 0.98413301 4294967295
2.5646923 2.2140269 0.95395386 4294967295
2.5610001 -0.9099502 0.95491815 4294967295
2.5662858 2.2100444 0.92563403 4294967295
2.572 0.50997508 0.91204405 4294967295
2.5595 -0.91674525 0.92398942 4294967295
2.5695 2.223459 0.88483834 4294967295
2.5628331 2.2137179 0.89776951 4294967295
2.5680001 0.50918192 0.89355743 4294967295
2.562 -0.91149414 0.89267766 4294967295
2.5640833 2.2341332 0.8617565 4294967295
2.5669999 0.50898367 0.86363029 4294967295
2.5680001 -0.90291095 0.86376643 4294967295
2.5616879 2.2400858 0.83505416 4294967295
2.572 0.50997508 0.83446681 4294967295
2.566 -0.90816134 0.83371234 4294967295
2.5653334 2.2267916 0.80454576 4294967295
2.552 2.2172005 0.79649508 4294967295
2.572 0.50997508 0.80661863 4294967295
2.562 -0.89485711 0.79163426 4294967295
2.5650001 -0.90542501 0.80624413 4294967295
2.5619998 2.2305038 0.77511722 4294967295
2.572 0.50997508 0.78075957 4294967295
2.5569999 -0.89429492 0.77329916 4294967295
2.5636666 2.2312975 0.74323511 4294967295
2.5595 0.51639563 0.74387878 4294967295
2.5644999 -0.91060841 0.74429291 4294967295
2.5640001 2.2264326 0.71451038 4294967295
2.552 2.2172005 0.71360004 4294967295
2.552 0.52377272 0.71952116 4294967295
2.5669999 -0.92042702 0.71771014 4294967295
2.5645001 2.2260733 0.68379951 4294967295
2.552 2.2172005 0.67215252 4294967295
2.562 0.53176939 0.67274868 4294967295
2.5595 -0.92663687 0.69043249 4294967295
2.552 -0.93281186 0.67215252 4294967295
2.5709999 2.2229686 0.6553852 4294967295
2.5599999 2.2193956 0.65480125 4294967295
2.5639999 0.53218448 0.65501422 4294967295
2.5644999 -0.93738091 0.6550678 4294967295
2.5695 2.223459 0.62551117 4294967295
2.5595002 2.2192583 0.62658954 4294967295
2.5695 0.53332609 0.63444209 4294967295
2.5695 -0.92728513 0.61656284 4294967295
2.5669999 -0.93233877 0.63433945 4294967295
2.5703335 2.2281556 0.59373719 4294967295
2.552 2.2172005 0.59813905 4294967295
2.5669999 0.53876311 0.59559721 4294967295
2.562 -0.9255653 0.59349364 4294967295
2.5686667 2.2257168 0.56785417 4294967295
2.5545001 2.2178864 0.56264567 4294967295
2.5595 0.51641303 0.56274652 4294967295
2.5636666 0.50237077 0.55587053 4294967295
2.5650001 -0.88397926 0.55390286 4294967295
2.5634284 -0.91573644 0.56747562 4294967295
2.572 2.2246308 0.53012544 4294967295
2.55825 2.2166862 0.53749728 4294967295
2.562 0.48717576 0.54791892 4294967295
2.5636666 0.47261846 0.54198891 4294967295
2.5636666 0.43101239 0.54198891 4294967295
2.572 0.39957675 0.54802787 4294967295
2.5682499 0.38111347 0.54798698 4294967295
2.5703332 0.30688572 0.54800969 4294967295
2.5570002 0.28453717 0.54786444 4294967295
2.5645001 0.22583322 0.54794616 4294967295
2.572 0.20264997 0.54802787 4294967295
2.5669999 0.16354975 0.54797339 4294967295
2.5669999 0.13376339 0.54797339 4294967295
2.5695 0.10706032 0.54800063 4294967295
2.5570002 0.065010741 0.54193175 4294967295
2.5610001 0.044312116 0.54196608 4294967295
2.5680001 0.014646908 0.5420261 4294967295
2.572 -0.0032280656 0.54206038 4294967295
2.563 -0.044852231 0.53603661 4294967295
2.552 -0.065374255 0.53596777 4294967295
2.552 -0.11274286 0.53596777 4294967295
2.552 -0.12162448 0.53596777 4294967295
2.572 -0.16733374 0.54206038 4294967295
2.572 -0.18821993 0.54206038 4294967295
2.572 -0.22700854 0.54206038 4294967295
2.572 -0.25386217 0.54206038 4294967295
2.5570002 -0.29094985 0.53599906 4294967295
2.5700002 -0.31330013 0.53608042 4294967295
2.572 -0.33442315 0.53609294 4294967295
2.5570002 -0.3740131 0.53006637 4294967295
2.5611668 -0.40429851 0.53008282 4294967295
2.562 -0.44307658 0.53603035 4294967295
2.5669999 -0.47372842 0.54201752 4294967295
2.5545001 -0.5573777 0.54191029 4294967295
2.5695 -0.58449435 0.54203898 4294967295
2.5669999 -0.71792716 0.54201752 4294967295
2.5680001 -0.73608607 0.5420261 4294967295
2.5570002 -0.77149665 0.53599906 4294967295
2.5545001 -0.78850847 0.53598344 4294967295
2.5686667 -0.82964313 0.54600626 4294967295
2.5570002 -0.84860402 0.54786444 4294967295
2.562 2.2347991 0.50630897 4294967295
2.5601816 2.2372582 0.47607696 4294967295
2.5640001 2.232969 0.44681954 4294967295
2.5657501 2.2388146 0.4177402 4294967295
2.5669999 2.2302289 0.39709115 4294967295
2.5620003 2.2067091 0.38345283 4294967295
2.5678332 2.1922259 0.35831934 4294967295
2.552 2.1836476 0.35044077 4294967295
2.5631111 2.2056954 0.32394093 4294967295
2.552 2.2231214 0.28136152 4294967295
2.5615833 2.2161031 0.29483652 4294967295
2.5603333 2.2541308 0.25088024 4294967295
2.5626249 2.2308738 0.26512998 4294967295
2.5669999 2.2183206 0.27698094 4294967295
2.5695 2.283076 0.22309205 4294967295
2.5628335 2.2687063 0.23724863 4294967295
2.5669999 2.2838354 0.21444422 4294967295
2.5636666 2.2709394 0.20095748 4294967295
2.56075 2.2455842 0.19142267 4294967295
2.5636666 2.2312994 0.18708944 4294967295
2.5632501 2.2106059 0.17027804 4294967295
2.5634286 2.2330606 0.13755393 4294967295
2.5603335 2.2125518 0.15187469 4294967295
2.5669999 2.2557511 0.11235011 4294967295
2.5570002 2.2482359 0.12368384 4294967295
2.5695 2.2562511 0.091935128 4294967295
2.5632501 2.2366207 0.07958433 4294967295
2.5695 2.223459 0.065104693 4294967295
2.562 2.2120051 0.053554088 4294967295
2.5658889 2.1975114 0.024730057 4294967295
2.552 2.1875951 0.020834178 4294967295
2.5615454 2.2044098 -0.0053440332 4294967295
2.5670002 2.2242689 -0.038680613 4294967295
2.5638182 2.2155566 -0.033938348 4294967295
2.5635386 2.1965492 -0.06149888 4294967295
2.552 2.1846344 -0.070942461 4294967295
2.5677145 2.1968045 -0.096280098 4294967295
2.552 2.1875951 -0.091666222 4294967295
2.5669999 2.2254608 -0.13218558 4294967295
2.5612857 2.2133646 -0.11765569 4294967295
2.5670002 2.2272489 -0.1548202 4294967295
2.5632501 2.2299321 -0.18603837 4294967295
2.5615833 2.2428465 -0.21430194 4294967295
2.5625556 2.2455184 -0.2448194 4294967295
2.5654616 2.2421684 -0.27619565 4294967295
2.5628335 2.2285833 -0.30237919 4294967295
2.5986664 0.74437785 1.9652117 4294967295
2.605 -0.88569999 1.9717565 4294967295
2.5934999 0.75191057 1.9352359 4294967295
2.5974286 0.74745637 1.9481595 4294967295
2.592 -0.89029884 1.9434549 4294967295
2.6010909 0.75439173 1.9171706 4294967295
2.5869999 -0.89758682 1.9287159 4294967295
2.5957501 -0.90212035 1.912396 4294967295
2.582 0.87139875 1.8720772 4294967295
2.5987499 0.75343531 1.8868716 4294967295
2.5942998 -0.90432495 1.8845098 4294967295
2.582 1.2008861 1.8421239 4294967295
2.5838423 0.88337421 1.8575842 4294967295
2.582 0.86420995 1.8553033 4294967295
2.59725 0.76104409 1.8544328 4294967295
2.5987499 -0.91069722 1.8552026 4294967295
2.6056004 2.1730869 1.8191432 4294967295
2.591471 2.1457114 1.8278705 4294967295
2.5934379 2.1155236 1.8295223 4294967295
2.5932226 2.0892045 1.8190995 4294967295
2.5820003 2.069535 1.8121704 4294967295
2.6034002 1.7822504 1.8144221 4294967295
2.5948002 1.7540679 1.8161572 4294967295
2.5962002 1.7315391 1.8132366 4294967295
2.582 1.2008861 1.8361331 4294967295
2.582 1.1769234 1.8121704 4294967295
2.5925553 1.1576637 1.8114172 4294967295
2.5928571 0.81747329 1.8124286 4294967295
2.596909 0.79535103 1.822363 4294967295
2.5934999 0.77448529 1.8359627 4294967295
2.5957499 -0.90889472 1.8258013 4294967295
2.5972502 2.2030239 1.7911694 4294967295
2.5882502 2.1796308 1.8032879 4294967295
2.6034002 2.0758092 1.8035438 4294967295
2.5933337 2.0555339 1.8012761 4294967295
2.5926366 2.0260746 1.7972453 4294967295
2.5928335 1.9969862 1.7955276 4294967295
2.6003337 1.9665741 1.7972125 4294967295
2.5968001 1.9367458 1.7918324 4294967295
2.5870001 1.9126744 1.7846544 4294967295
2.6001115 1.8145807 1.7924056 4294967295
2.5890002 1.7920579 1.8029033 4294967295
2.5984616 1.7251799 1.7958012 4294967295
2.5820003 1.7041034 1.791203 4294967295
2.5953002 1.5081296 1.7838783 4294967295
2.5937502 1.4873009 1.7849307 4294967295
2.5932 1.4551387 1.7828616 4294967295
2.5944545 1.4239206 1.784463 4294967295
2.5978749 1.3951045 1.794494 4294967295
2.592 1.3618795 1.7991333 4294967295
2.6012499 1.3365781 1.8006725 4294967295
2.5975716 1.3049697 1.7941144 4294967295
2.594846 1.2753903 1.7861626 4294967295
2.582 1.251807 1.782217 4294967295
2.5959361 1.1797501 1.7950282 4294967295
2.6017227 1.1557238 1.8022274 4294967295
2.6007779 1.1231141 1.7962809 4294967295
2.5959585 1.0936894 1.7955488 4294967295
2.5937858 1.0638672 1.7963355 4294967295
2.5884705 1.0367981 1.7913716 4294967295
2.582 1.0151751 1.782217 4294967295
2.5933752 0.91057068 1.7877613 4294967295
2.5936005 0.88493407 1.7917733 4294967295
2.5938101 0.85416621 1.7934116 4294967295
2.5915999 0.83073896 1.8037331 4294967295
2.595 -0.91374063 1.7925496 4294967295
2.6037502 2.225908 1.7626454 4294967295
2.5861669 2.210875 1.7692579 4294967295
2.6015835 1.8991057 1.7736615 4294967295
2.5949378 1.8763196 1.7640518 4294967295
2.5959647 1.8421264 1.7593449 4294967295
2.5935459 1.824392 1.7703325 4294967295
2.6080003 1.7787478 1.7525702 4294967295
2.6080003 1.7542685 1.7608217 4294967295
2.6032228 1.7264999 1.7657385 4294967295
2.593765 1.6962622 1.7610335 4294967295
2.5942502 1.6650207 1.7550809 4294967295
2.5820003 1.6441965 1.7522637 4294967295
2.5952005 1.5971887 1.7573406 4294967295
2.5963755 1.5737689 1.7678841 4294967295
2.5966003 1.5453302 1.7748713 4294967295
2.594286 1.5221637 1.7778893 4294967295
2.6020002 1.4758198 1.7799199 4294967295
2.596375 1.4545573 1.7794471 4294967295
2.6059999 1.2644489 1.7778227 4294967295
2.5981114 1.2425261 1.7709769 4294967295
2.5944004 1.2131386 1.7651304 4294967295
2.6015151 1.1846939 1.7677741 4294967295
2.608 1.1585196 1.7641221 4294967295
2.608 1.1187559 1.772452 4294967295
2.6039996 1.0933048 1.774842 4294967295
2.6033335 1.0658463 1.7745193 4294967295
2.6010001 1.0351243 1.7737911 4294967295
2.5921428 1.0039737 1.7696784 4294967295
2.5933638 0.97423494 1.7675215 4294967295
2.5952001 0.94408226 1.7721993 4294967295
2.5962 0.92437309 1.7783022 4294967295
2.5973332 -0.91254008 1.7642629 4294967295
2.6023335 2.2236905 1.7408353 4294967295
2.5908754 2.2171319 1.7324259 4294967295
2.6056004 1.865977 1.7478054 4294967295
2.6060002 1.8462399 1.7469186 4294967295
2.6020002 1.6508954 1.7497345 4294967295
2.5972729 1.63254 1.7480327 4294967295
2.593667 1.6125008 1.7487973 4294967295
2.608 1.1131372 1.7344172 4294967295
2.608 1.1040606 1.7344172 4294967295
2.5954998 -0.89651281 1.7336146 4294967295
2.5903332 -0.90473795 1.7462176 4294967295
2.6080003 2.2234967 1.6920601 4294967295
2.5934286 2.2114899 1.7065634 4294967295
2.5978887 -0.89733678 1.7035731 4294967295
2.5982225 2.2298889 1.6735961 4294967295
2.5845001 2.2154515 1.6829996 4294967295
2.5938888 -0.89729208 1.6756803 4294967295
2.593889 2.2328527 1.6455865 4294967295
2.6002002 -0.89613378 1.6463118 4294967295
2.5968335 2.2335429 1.6127093 4294967295
2.582 -0.89585203 1.6264594 4294967295
2.5978749 -0.90587217 1.6121602 4294967295
2.5952003 2.2393568 1.585739 4294967295
2.59075 0.55125642 1.5836303 4294967295
2.5939093 -0.91584343 1.5855901 4294967295
2.6024003 2.2537403 1.5482464 4294967295
2.5935459 2.2450669 1.558647 4294967295
2.592 0.5409916 1.5555594 4294967295
2.602 0.53403473 1.5505106 4294967295
2.5955553 -0.92330068 1.5559652 4294967295
2.5947697 2.2626808 1.5244865 4294967295
2.5845001 2.2484319 1.5375834 4294967295
2.5836666 -0.92640305 1.5192678 4294967295
2.5993338 2.2703671 1.4947579 4294967295
2.5934999 -0.92690831 1.4959807 4294967295
2.5954447 2.2569275 1.4722991 4294967295
2.5995557 2.2437489 1.4583924 4294967295
2.598 -0.92173451 1.461509 4294967295
2.5946672 2.2304943 1.4355561 4294967295
2.6023335 2.2126191 1.4238478 4294967295
2.602 -0.89675415 1.423732 4294967295
2.593091 -0.91116667 1.4370402 4294967295
2.5912728 2.206455 1.4128916 4294967295
2.5892859 2.1817706 1.3978498 4294967295
2.592 -0.89430618 1.4052048 4294967295
2.5920002 2.2265415 1.3647896 4294967295
2.5952227 2.2075427 1.3701829 4294967295
2.589889 2.1813283 1.3801315 4294967295
2.5969999 0.52095753 1.3617406 4294967295
2.5973749 -0.91021836 1.3739119 4294967295
2.5951056 2.2318099 1.3471714 4294967295
2.582 0.51794857 1.350888 4294967295
2.5941248 -0.92638361 1.3449943 4294967295
2.5951335 2.231379 1.3149588 4294967295
2.595 0.51753086 1.3189012 4294967295
2.6012001 -0.91940683 1.3148127 4294967295
2.6013336 2.2540219 1.2816645 4294967295
2.5925834 2.2449079 1.2896376 4294967295
2.5929999 -0.91170096 1.282238 4294967295
2.6023335 2.2528758 1.2648549 4294967295
2.593308 2.2414846 1.2536077 4294967295
2.5969999 -0.91310734 1.2532818 4294967295
2.6001115 2.2241294 1.2266712 4294967295
2.5870001 2.2163804 1.2204306 4294967295
2.5969999 -0.91310734 1.2231543 4294967295
2.6030002 2.2252676 1.1932385 4294967295
2.5862861 2.2169716 1.1962559 4294967295
2.5969999 -0.91310734 1.193027 4294967295
2.5962505 2.2307806 1.1634618 4294967295
2.5820003 2.2193019 1.1771584 4294967295
2.5962 -0.90920341 1.1663079 4294967295
2.5976667 2.2568529 1.1284059 4294967295
2.5921428 2.2443221 1.1410804 4294967295
2.591625 -0.90369171 1.1360137 4294967295
2.5965002 2.25842 1.1072586 4294967295
2.5947502 2.2482827 1.0930977 4294967295
2.5934999 0.51423806 1.1048937 4294967295
2.5949998 -0.91119677 1.1021938 4294967295
2.5923338 2.2355139 1.0751939 4294967295
2.5996668 -0.91203034 1.0720819 4294967295
2.6025002 2.2520115 1.0314198 4294967295
2.5940003 2.2399967 1.0467052 4294967295
2.5936999 -0.90892577 1.0447161 4294967295
2.6013336 2.2530177 1.0110669 4294967295
2.5820003 2.2432647 1.0154099 4294967295
2.592 -0.9128471 1.0128168 4294967295
2.5972307 2.2365448 0.98263323 4294967295
2.5948889 -0.91034597 0.98375529 4294967295
2.5987272 2.2270813 0.95830256 4294967295
2.5844998 2.2184496 0.94992256 4294967295
2.5952001 -0.91126102 0.95470202 4294967295
2.6010001 2.2295911 0.92335969 4294967295
2.5836666 2.2187338 0.92781615 4294967295
2.5895 0.51344496 0.92674518 4294967295
2.5927777 -0.92030108 0.92590201 4294967295
2.5941429 2.2340295 0.89564776 4294967295
2.5955555 -0.91459227 0.89554763 4294967295
2.6040001 2.2554686 0.86254621 4294967295
2.5886667 2.2430389 0.87055624 4294967295
2.5929999 -0.90467626 0.86108768 4294967295
2.6012001 2.256321 0.84165508 4294967295
2.5899999 2.2467511 0.83234614 4294967295
2.5929999 -0.91170096 0.83701354 4294967295
2.5965712 2.2395544 0.80475366 4294967295
2.582 0.51195788 0.80274081 4294967295
2.599 -0.89772105 0.79354012 4294967295
2.5955 -0.90755641 0.80924284 4294967295
2.6025 2.2520115 0.77178168 4294967295
2.5896251 2.2423594 0.77955401 4294967295
2.5945001 0.51443642 0.76798278 4294967295
2.5853331 -0.89700854 0.78210747 4294967295
2.6025 -0.90597743 0.76876253 4294967295
2.6024001 2.2525301 0.75244367 4294967295
2.5884285 2.2436869 0.74380261 4294967295
2.5994999 0.52447182 0.74133444 4294967295
2.5906668 -0.91287756 0.75259811 4294967295
2.5925555 2.2430675 0.71667665 4294967295
2.582 0.52992994 0.71587592 4294967295
2.5869999 -0.92759824 0.71025294 4294967295
2.608 -0.93512803 0.70574629 4294967295
2.5930002 2.240226 0.68553025 4294967295
2.5895 -0.93750095 0.68340623 4294967295
2.5942726 2.2336702 0.65770882 4294967295
2.5962 -0.9441424 0.65673357 4294967295
2.5983999 2.2400162 0.62669605 4294967295
2.602 0.54007185 0.61476272 4294967295
2.5844998 0.53643948 0.62311721 4294967295
2.5971999 -0.93486899 0.62664771 4294967295
