# .PCD v0.7 - Point Cloud Data file format
VERSION 0.7
FIELDS x y z rgb
SIZE 4 4 4 4
TYPE F F F U
COUNT 1 1 1 1
WIDTH 1150
HEIGHT 1
VIEWPOINT 0 0 0 1 0 0 0
POINTS 1150
DATA ascii
2.8041248 2.2577174 0.47696292 4294967295
2.8150001 2.2481258 0.47066775 4294967295
2.809 2.2514806 0.45936751 4294967295
2.8080003 2.2411532 0.44581652 4294967295
2.8080626 2.2370608 0.41276488 4294967295
2.8150001 2.2171021 0.40045649 4294967295
2.797632 2.2587426 0.38206413 4294967295
2.8114541 2.2359376 0.3851853 4294967295
2.8150001 2.2154694 0.38902676 4294967295
2.7909999 2.2500043 0.36909771 4294967295
2.80492 2.2304826 0.35819584 4294967295
2.8150001 2.2171021 0.35800314 4294967295
2.809 2.2221456 0.32684785 4294967295
2.7958 2.2175353 0.32472616 4294967295
2.809 2.2229619 0.29888797 4294967295
2.809 2.2188938 0.28665751 4294967295
2.8039231 2.2268801 0.25930172 4294967295
2.8060002 2.2181289 0.26736161 4294967295
2.8057272 2.2325578 0.23574439 4294967295
2.811667 2.2144566 0.22882265 4294967295
2.8077998 2.2107601 0.20728093 4294967295
2.802 2.2274296 0.16805685 4294967295
2.803 2.2154408 0.18375123 4294967295
2.803 2.2515352 0.13595447 4294967295
2.8069999 2.2438872 0.14842835 4294967295
2.8030005 2.2564058 0.11482033 4294967295
2.8139093 2.2405741 0.10611659 4294967295
2.7969999 2.2548413 0.096213579 4294967295
2.8051429 2.2346458 0.084527373 4294967295
2.8149998 2.2171021 0.080423743 4294967295
2.8074996 2.2342408 0.055810392 4294967295
2.8077142 2.2369418 0.025726199 4294967295
2.806375 2.2391813 -0.0053042769 4294967295
2.8030002 2.2556603 -0.038266122 4294967295
2.812429 2.2467663 -0.030111015 4294967295
2.8066669 2.2593601 -0.064787209 4294967295
2.8150003 2.2486699 -0.065441489 4294967295
2.803 2.2553263 -0.093288958 4294967295
2.814333 2.2405174 -0.096861184 4294967295
2.799 2.251025 -0.11622655 4294967295
2.809222 2.2381134 -0.12603128 4294967295
2.8070002 2.2357385 -0.15364045 4294967295
2.8074999 2.231528 -0.18519783 4294967295
2.8037822 2.2286079 -0.21479028 4294967295
2.8138001 2.2174606 -0.21839064 4294967295
2.8045654 2.2280912 -0.24584144 4294967295
2.8150001 2.2171021 -0.23634332 4294967295
2.8069999 2.2281475 -0.27399129 4294967295
2.8150001 2.2171021 -0.28532797 4294967295
2.809 2.2254112 -0.29012883 4294967295
2.8045788 2.2071652 -0.30357134 4294967295
2.806 2.2018573 -0.33361256 4294967295
2.8071249 2.2149529 -0.36610615 4294967295
2.8064737 2.2052219 -0.39289296 4294967295
2.7969999 2.1899462 -0.40347928 4294967295
2.8329999 0.74577129 2.0823913 4294967295
2.834182 -0.89128178 2.0949876 4294967295
2.8210001 -0.90023321 2.0823185 4294967295
2.8299999 0.75154763 2.0577519 4294967295
2.8353331 0.74856722 2.0727167 4294967295
2.839 -0.8993904 2.0659392 4294967295
2.8269999 -0.90214783 2.065964 4294967295
2.8329999 0.75234437 2.0363798 4294967295
2.8368752 -0.89294916 2.0302262 4294967295
2.8255 -0.9016692 2.0356486 4294967295
2.8329999 0.75234437 2.0035148 4294967295
2.8317778 -0.88248062 2.0025022 4294967295
2.8210001 -0.90023321 2.0168664 4294967295
2.8329999 0.75234437 1.973936 4294967295
2.8295712 -0.88326222 1.9740355 4294967295
2.8315001 0.75194603 1.9468931 4294967295
2.8307691 -0.89273453 1.9467489 4294967295
2.8210001 -0.90023315 1.9383242 4294967295
2.8281999 0.74843484 1.9156713 4294967295
2.8369999 -0.89875674 1.9200345 4294967295
2.8324285 -0.90199363 1.9130585 4294967295
2.8342001 0.74608719 1.8857726 4294967295
2.8318 -0.90695781 1.884612 4294967295
2.835 0.75287545 1.8466929 4294967295
2.8299999 0.74825418 1.8607728 4294967295
2.8436668 -0.86567867 1.8463565 4294967295
2.8387501 -0.88668358 1.8533994 4294967295
2.8300712 -0.90920854 1.8556486 4294967295
2.8318889 0.75568855 1.8240564 4294967295
2.839 -0.8664555 1.8321021 4294967295
2.8259089 -0.88122284 1.8245593 4294967295
2.8222001 -0.90585226 1.8315415 4294967295
2.8312857 0.76032823 1.7914659 4294967295
2.8286841 -0.88608688 1.7953728 4294967295
2.8299999 0.76138633 1.7655542 4294967295
2.830647 -0.88706642 1.7650721 4294967295
2.8324285 0.75921524 1.7351694 4294967295
2.8336666 -0.88829285 1.7352289 4294967295
2.8210001 -0.90186948 1.7272412 4294967295
2.8350003 2.0793717 1.6910194 4294967295
2.8270001 2.0691342 1.692094 4294967295
2.8300002 1.7134719 1.6933273 4294967295
2.8305001 1.6962634 1.6935313 4294967295
2.8210003 1.6785762 1.6961516 4294967295
2.833143 0.76410705 1.704492 4294967295
2.8269999 0.53429991 1.692094 4294967295
2.8386002 -0.89530653 1.7061217 4294967295
2.8243332 -0.9042058 1.7055489 4294967295
2.8210003 2.2275548 1.6691526 4294967295
2.8210001 2.2067738 1.6686617 4294967295
2.8210003 2.1858292 1.6634256 4294967295
2.8210003 2.1301949 1.6634256 4294967295
2.8321671 2.1150601 1.6731387 4294967295
2.8314002 2.09007 1.6879878 4294967295
2.8335714 2.0542109 1.6825866 4294967295
2.8329003 2.0267706 1.6692033 4294967295
2.8270004 1.9969774 1.6633891 4294967295
2.8210003 1.976383 1.6634256 4294967295
2.8210003 1.8465698 1.6634256 4294967295
2.8210003 1.8160255 1.6634256 4294967295
2.8210003 1.7931173 1.6634256 4294967295
2.8294005 1.7465795 1.6661674 4294967295
2.8337147 1.7283936 1.678575 4294967295
2.8442502 1.690764 1.6843969 4294967295
2.8350005 1.6663927 1.6756496 4294967295
2.8260005 1.6389333 1.6643521 4294967295
2.8221996 0.78876144 1.6704586 4294967295
2.8371768 0.77202421 1.6750014 4294967295
2.8373334 0.66571379 1.6766436 4294967295
2.8239999 0.64511269 1.6810254 4294967295
2.8329999 0.51735109 1.6732087 4294967295
2.839 -0.89939034 1.6838953 4294967295
2.8298459 -0.90759152 1.6745752 4294967295
2.8210003 2.2267365 1.6552441 4294967295
2.8209999 2.2041175 1.6457151 4294967295
2.8256333 2.1758468 1.6421207 4294967295
2.8313336 2.1448214 1.6489853 4294967295
2.8373337 2.127152 1.656865 4294967295
2.8390002 1.9955806 1.6575475 4294967295
2.8357501 1.9658687 1.6573273 4294967295
2.8324003 1.9370445 1.6535771 4294967295
2.8352504 1.9052175 1.6494521 4294967295
2.831188 1.8738815 1.6523504 4294967295
2.8308127 1.843678 1.6509652 4294967295
2.8310001 1.8141688 1.6463164 4294967295
2.82652 1.7841632 1.6446559 4294967295
2.82868 1.7532197 1.6457894 4294967295
2.8403645 1.7266318 1.6422164 4294967295
2.8442502 1.6594149 1.6530478 4294967295
2.8377504 1.6354586 1.6488017 4294967295
2.8310375 1.6037686 1.6458142 4294967295
2.8294001 1.5735443 1.6458039 4294967295
2.8256664 1.5444052 1.6459996 4294967295
2.8227139 1.5167998 1.6388546 4294967295
2.8257995 1.486047 1.6365165 4294967295
2.8217497 1.4564282 1.6342673 4294967295
2.8210001 1.4233133 1.6306995 4294967295
2.8210001 1.3918962 1.6320086 4294967295
2.8210001 1.3658609 1.6336085 4294967295
2.8210003 1.3335506 1.6335045 4294967295
2.8300624 1.3026981 1.6367167 4294967295
2.8331668 1.2760563 1.6436946 4294967295
2.8332307 1.2479371 1.6496568 4294967295
2.8312855 1.2150034 1.6539739 4294967295
2.8325834 1.1859885 1.652771 4294967295
2.8328001 1.1553961 1.6550469 4294967295
2.8342502 1.1242062 1.6550782 4294967295
2.8323333 1.093053 1.648005 4294967295
2.834655 1.0634773 1.6455786 4294967295
2.8330002 1.0349823 1.6469097 4294967295
2.8257141 1.0046974 1.6409769 4294967295
2.8239999 0.97534579 1.6358076 4294967295
2.8210001 0.94405919 1.6343356 4294967295
2.8210001 0.91933286 1.6323358 4294967295
2.8209996 0.88374341 1.6396993 4294967295
2.8257496 0.85476506 1.6451259 4294967295
2.8251996 0.82565826 1.6454525 4294967295
2.8213525 0.79661191 1.6485524 4294967295
2.828846 0.76284367 1.6464164 4294967295
2.8392498 0.74411905 1.6378851 4294967295
2.8314998 0.5466463 1.6364665 4294967295
2.8291667 0.52923614 1.6514114 4294967295
2.8306 -0.92299074 1.6541734 4294967295
2.8331819 -0.93817276 1.6384718 4294967295
2.8296318 2.197504 1.6119646 4294967295
2.8349001 2.1854045 1.6230061 4294967295
2.8460002 1.809008 1.6273363 4294967295
2.8403082 1.7823306 1.6205505 4294967295
2.8386197 1.7558568 1.6191216 4294967295
2.8433754 1.7306432 1.6221899 4294967295
2.846 1.5944037 1.6273363 4294967295
2.8407695 1.5717014 1.6212354 4294967295
2.8371878 1.5450307 1.6210202 4294967295
2.8355715 1.5152525 1.6237441 4294967295
2.8382859 1.4856573 1.623858 4294967295
2.8363078 1.4548244 1.6225439 4294967295
2.834389 1.4253116 1.6191494 4294967295
2.8352313 1.3953204 1.6150279 4294967295
2.832478 1.3645319 1.6146313 4294967295
2.8344817 1.3343796 1.6145486 4294967295
2.8374286 1.3121527 1.6249381 4294967295
2.8425002 1.087923 1.6160818 4294967295
2.8390005 1.0642185 1.6142123 4294967295
2.8377731 1.0337343 1.6154424 4294967295
2.8375793 1.0058175 1.6198906 4294967295
2.8388574 0.97454482 1.6245475 4294967295
2.8380668 0.94332713 1.6211623 4294967295
2.8310952 0.91574544 1.6140076 4294967295
2.8264997 0.88505059 1.6137248 4294967295
2.8327146 0.85522687 1.6171529 4294967295
2.8297272 0.82788563 1.6215986 4294967295
2.8269999 0.74419183 1.6265028 4294967295
2.8313637 -0.948915 1.6150672 4294967295
2.8325655 2.2020485 1.5849551 4294967295
2.8425002 2.1892939 1.5732138 4294967295
2.839 1.3928733 1.5982648 4294967295
2.8428891 1.363265 1.5960734 4294967295
2.8425 1.3451233 1.5962925 4294967295
2.8436668 1.0850666 1.593434 4294967295
2.8428185 1.066156 1.5955129 4294967295
2.839 1.0437641 1.5982648 4294967295
2.8370001 0.91378868 1.5903213 4294967295
2.8220003 0.89128697 1.5830742 4294967295
2.8210001 0.86369866 1.5979736 4294967295
2.835 -0.92442453 1.5748168 4294967295
2.8287141 -0.93831158 1.5896672 4294967295
2.8266001 2.2004306 1.5590198 4294967295
2.8363533 2.1820259 1.5511931 4294967295
2.8405998 -0.89461792 1.5487851 4294967295
2.8320835 -0.91142094 1.5562135 4294967295
2.826143 2.1968257 1.5212392 4294967295
2.8345885 2.1845324 1.5308082 4294967295
2.8460002 1.8651352 1.5183833 4294967295
2.8460002 1.8508283 1.5172827 4294967295
2.8369093 -0.89453328 1.5256677 4294967295
2.8236666 -0.90472037 1.5254697 4294967295
2.8210003 2.2218277 1.4834325 4294967295
2.8307698 2.2087812 1.4963601 4294967295
2.8460002 1.8651352 1.505177 4294967295
2.8450003 1.8484458 1.5053012 4294967295
2.8331668 0.54860258 1.4875948 4294967295
2.839 0.53656793 1.4862864 4294967295
2.8380003 -0.89379746 1.4931817 4294967295
2.8239999 -0.90446305 1.4942853 4294967295
2.8210003 2.2231369 1.4657605 4294967295
2.833334 2.207164 1.4653649 4294967295
2.8425002 2.1892939 1.4545023 4294967295
2.8326666 0.52768517 1.466049 4294967295
2.8357501 -0.88930285 1.4642085 4294967295
2.8218575 -0.90331179 1.4654893 4294967295
2.8264 2.2001624 1.436419 4294967295
2.8408339 2.1852624 1.4336317 4294967295
2.8436668 0.69579697 1.4285001 4294967295
2.8332 0.5163914 1.4389567 4294967295
2.8329999 0.50914174 1.4250869 4294967295
2.8324738 -0.88796765 1.4338993 4294967295
2.8210001 -0.90023315 1.4365253 4294967295
2.8239999 2.1968794 1.4014537 4294967295
2.8326845 2.1839664 1.4059515 4294967295
2.8348572 0.70398694 1.4031231 4294967295
2.8210001 0.51353031 1.4081627 4294967295
2.8289998 0.50842285 1.4041224 4294967295
2.836 -0.89843994 1.4161718 4294967295
2.8292501 -0.90860683 1.4041872 4294967295
2.824882 2.2310386 1.3700509 4294967295
2.8318276 2.2054164 1.375525 4294967295
2.8385558 2.1829603 1.3807553 4294967295
2.839 0.76711166 1.3611341 4294967295
2.8210001 0.50698513 1.3885272 4294967295
2.8332 -0.92383856 1.3791357 4294967295
2.8329999 -0.93035477 1.3659295 4294967295
2.8322859 2.2272422 1.349122 4294967295
2.8373337 2.2171142 1.3409111 4294967295
2.8329999 0.78520954 1.3527834 4294967295
2.8396666 -0.92814195 1.3327765 4294967295
2.8345001 -0.93084735 1.3499378 4294967295
2.8210003 2.2218277 1.3296204 4294967295
2.832267 2.2140369 1.3140124 4294967295
2.8318 -0.92469394 1.311033 4294967295
2.8332226 2.2098804 1.2827226 4294967295
2.8302307 -0.92336941 1.2842785 4294967295
2.8240004 2.2241836 1.2452962 4294967295
2.833955 2.2128801 1.2550244 4294967295
2.833077 -0.92379379 1.2562225 4294967295
2.8265002 2.2337947 1.224082 4294967295
2.8392506 2.2131336 1.2261636 4294967295
2.8379998 -0.9267239 1.2291305 4294967295
2.8290002 -0.93122292 1.2236142 4294967295
2.8284485 2.2358198 1.1950772 4294967295
2.8377862 2.2148201 1.1957023 4294967295
2.8315001 -0.92328221 1.1963092 4294967295
2.8323636 2.2337289 1.1647937 4294967295
2.8425002 2.2156744 1.1742113 4294967295
2.8352225 -0.91572428 1.1648508 4294967295
2.8322759 2.2340779 1.1350369 4294967295
2.825 0.51425844 1.1275886 4294967295
2.8343334 -0.91471285 1.1346943 4294967295
2.8299565 2.2279944 1.1066673 4294967295
2.8407502 2.2159591 1.0963608 4294967295
2.8210001 0.51353031 1.1136286 4294967295
2.839 -0.89939034 1.0910685 4294967295
2.8313 -0.90941751 1.1046268 4294967295
2.8246002 2.2314646 1.0742793 4294967295
2.8383577 2.2152617 1.0749441 4294967295
2.8355 -0.89498401 1.0739276 4294967295
2.825 -0.90150964 1.0817072 4294967295
2.8256667 2.2291315 1.0454048 4294967295
2.8388672 2.2161305 1.0449328 4294967295
2.8299999 -0.89406914 1.0457571 4294967295
2.8243747 2.2265244 1.0164508 4294967295
2.839308 2.2154598 1.0141041 4294967295
2.8329999 -0.89748955 1.0241312 4294967295
2.8353336 -0.90479743 1.0091934 4294967295
2.8210001 2.2251005 0.9859972 4294967295
2.834348 2.2125976 0.98491597 4294967295
2.8305714 -0.90984672 0.98429292 4294967295
2.8209999 2.2251005 0.9565438 4294967295
2.8323045 2.2101364 0.9551425 4294967295
2.8333333 0.50042677 0.95186853 4294967295
2.8425 -0.89719754 0.94668067 4294967295
2.8306665 -0.90822774 0.95694542 4294967295
2.8209999 2.2251005 0.92381781 4294967295
2.8349233 2.2120302 0.92454231 4294967295
2.8332 0.49864879 0.92558926 4294967295
2.832706 -0.88733244 0.92356753 4294967295
2.8225 -0.90234816 0.932221 4294967295
2.8210001 2.2218277 0.9009096 4294967295
2.8328967 2.2048719 0.89492393 4294967295
2.839 2.1898959 0.89345962 4294967295
2.839 0.51022005 0.88028568 4294967295
2.8299999 0.50531608 0.89555871 4294967295
2.8338001 -0.88655061 0.8993507 4294967295
2.8334999 -0.90092057 0.8828603 4294967295
2.8210001 2.2218277 0.85182059 4294967295
2.8321667 2.2111566 0.86654127 4294967295
2.8285 0.51489556 0.86253452 4294967295
2.8304286 -0.90980303 0.86606377 4294967295
2.8340478 2.2311413 0.83362401 4294967295
2.839 2.2162437 0.84735084 4294967295
2.8404 0.51706183 0.83432531 4294967295
2.846 -0.92802072 0.84155476 4294967295
2.839 -0.93232518 0.8341769 4294967295
2.8334546 2.2390814 0.80546701 4294967295
2.8317499 0.52205735 0.80378544 4294967295
2.8334999 -0.94696897 0.81381667 4294967295
2.8321536 2.232357 0.776057 4294967295
2.8406003 2.2141864 0.76713121 4294967295
2.8315001 0.53186393 0.77750039 4294967295
2.8270001 -0.97757083 0.77054429 4294967295
2.82775 2.2304115 0.74436212 4294967295
2.839211 2.2105021 0.74579138 4294967295
2.8314998 0.54828256 0.74466306 4294967295
2.8310001 -0.99318635 0.74790704 4294967295
2.824333 2.228812 0.71569806 4294967295
2.8370388 2.2098856 0.71345264 4294967295
2.8425 0.55701464 0.71583652 4294967295
2.8375001 0.40132824 0.70234126 4294967295
2.8385715 0.37371567 0.70524001 4294967295
2.8371668 0.34751689 0.7034204 4294967295
2.8432 0.31306383 0.70270753 4294967295
2.8436668 -0.92066205 0.70273757 4294967295
2.846 -0.9412272 0.70288748 4294967295
2.8369999 -0.98432231 0.70230913 4294967295
2.8395 -0.9967199 0.71400625 4294967295
2.8209999 2.2289183 0.68328166 4294967295
2.8330405 2.2073696 0.68601966 4294967295
2.839 2.1898959 0.68267673 4294967295
2.835 0.54896259 0.69560289 4294967295
2.8340001 0.52574617 0.69226563 4294967295
2.8363752 0.49575594 0.6915834 4294967295
2.8395002 0.46583629 0.69259512 4294967295
2.8332219 0.43541834 0.69185042 4294967295
2.8255 0.40619361 0.69501448 4294967295
2.8225 0.34025812 0.69482863 4294967295
2.8269999 0.31456932 0.6951074 4294967295
2.8306 0.28540793 0.69533038 4294967295
2.8329999 0.25607955 0.69547904 4294967295
2.832 0.22423457 0.69432622 4294967295
2.8315001 0.19435304 0.68800366 4294967295
2.8321667 0.16838318 0.68338573 4294967295
2.8371251 0.13220134 0.68504548 4294967295
2.8338752 0.10493502 0.6856786 4294967295
2.8293996 0.075227946 0.68541878 4294967295
2.8314998 0.045723185 0.68881655 4294967295
2.8341427 0.018993987 0.69086075 4294967295
2.8331251 -0.019167935 0.68645722 4294967295
2.833375 -0.046284951 0.68565404 4294967295
2.8353 -0.075916529 0.68576634 4294967295
2.8326249 -0.10542082 0.68561107 4294967295
2.8319001 -0.1349715 0.68556499 4294967295
2.83325 -0.16624603 0.68236178 4294967295
2.829273 -0.19392096 0.6797446 4294967295
2.8338749 -0.22382475 0.67910349 4294967295
2.8367143 -0.25366342 0.67785072 4294967295
2.8315001 -0.28358182 0.67979085 4294967295
2.8331113 -0.31395644 0.68600053 4294967295
2.8340001 -0.34463936 0.68322289 4294967295
2.8276668 -0.3760418 0.67839116 4294967295
2.833889 -0.40609092 0.68531501 4294967295
2.8331668 -0.43413004 0.68892562 4294967295
2.8351667 -0.46182221 0.69013572 4294967295
2.8296666 -0.49448901 0.6850695 4294967295
2.8336668 -0.52440673 0.68603057 4294967295
2.8363004 -0.55633014 0.68450719 4294967295
2.8269997 -0.58484864 0.67871654 4294967295
2.8332729 -0.61490262 0.6823644 4294967295
2.8333571 -0.64449829 0.68237412 4294967295
2.8351667 -0.67232043 0.68355763 4294967295
2.8318 -0.70656627 0.68226421 4294967295
2.8315713 -0.73558623 0.6841377 4294967295
2.8351667 -0.76551127 0.68794429 4294967295
2.8329999 -0.79560733 0.68890595 4294967295
2.8314285 -0.82565778 0.68600726 4294967295
2.8297141 -0.85518378 0.68497002 4294967295
2.8331249 -0.88684392 0.69138563 4294967295
2.8306 -0.91118437 0.69402134 4294967295
2.8295712 -0.94703412 0.69339657 4294967295
2.8270001 -0.97035444 0.69379836 4294967295
2.8210001 2.2567356 0.64455587 4294967295
2.8308787 2.2359478 0.65453464 4294967295
2.8384709 2.2076864 0.66172063 4294967295
2.839 2.1898959 0.66950285 4294967295
2.8210001 -0.25225824 0.66855496 4294967295
2.8278999 2.2577543 0.62396741 4294967295
2.8410718 2.2442219 0.62582004 4294967295
2.8270001 2.282299 0.58360231 4294967295
2.8326004 2.2645912 0.59501719 4294967295
2.8425 2.2486496 0.59714121 4294967295
2.8336 2.2957149 0.56710386 4294967295
2.846 2.2745337 0.57742655 4294967295
2.8338001 2.3035583 0.53312361 4294967295
2.8345001 2.2870228 0.51341003 4294967295
2.8334739 2.2645023 0.50071883 4294967295
2.8392503 2.2350945 0.49604902 4294967295
2.8436668 2.2154844 0.49380925 4294967295
2.8210001 2.2545538 0.48528931 4294967295
2.8272498 2.234931 0.47619823 4294967295
2.8397145 2.2134967 0.47376609 4294967295
2.824882 2.2275741 0.44784707 4294967295
2.837316 2.2135296 0.44594374 4294967295
2.8210001 2.2231369 0.41852823 4294967295
2.8300908 2.2098591 0.41384897 4294967295
2.8210001 2.2218277 0.37402087 4294967295
2.8272498 2.2014239 0.38589036 4294967295
2.8401668 2.1874998 0.37962145 4294967295
2.8210001 2.2218277 0.35220355 4294967295
2.8302662 2.2058971 0.35427243 4294967295
2.84075 2.1879482 0.3631103 4294967295
2.825 2.2227871 0.32246423 4294967295
2.8365002 2.2124453 0.32605219 4294967295
2.8276668 2.2226901 0.29933453 4294967295
2.8374166 2.210325 0.29088467 4294967295
2.84425 2.1873422 0.28208053 4294967295
2.8210001 2.2218277 0.27257025 4294967295
2.8297501 2.2057202 0.26524174 4294967295
2.8398755 2.1806843 0.26432577 4294967295
2.8210001 2.2218277 0.24966204 4294967295
2.8274443 2.2023456 0.23713887 4294967295
2.8390629 2.1825304 0.23558402 4294967295
2.8295789 2.1998839 0.20426419 4294967295
2.839889 2.1839871 0.20831442 4294967295
2.8351002 2.2283051 0.16937444 4294967295
2.8355002 2.2143095 0.1841346 4294967295
2.8329999 2.250998 0.13019732 4294967295
2.8310003 2.2432628 0.14405215 4294967295
2.8210001 2.2545538 0.12530321 4294967295
2.8308334 2.2358427 0.11737421 4294967295
2.8355334 2.2069428 0.10880402 4294967295
2.8425 2.1892939 0.10250983 4294967295
2.8210001 2.2218277 0.095849782 4294967295
2.8288 2.2049787 0.084824741 4294967295
2.8400002 2.1878421 0.087814093 4294967295
2.8311334 2.2245271 0.050752103 4294967295
2.8393002 2.2098691 0.062136471 4294967295
2.8339565 2.2297182 0.023151815 4294967295
2.8296518 2.2300446 -0.0049177408 4294967295
2.8406928 2.2114744 -0.0082516074 4294967295
2.8314667 2.2328851 -0.036897004 4294967295
2.8410003 2.2118051 -0.028507352 4294967295
2.8303874 2.236388 -0.064754426 4294967295
2.8294442 2.2266266 -0.089580774 4294967295
2.8352728 2.2157137 -0.10095006 4294967295
2.8210001 2.2229187 -0.12123263 4294967295
2.8295262 2.2126322 -0.12466359 4294967295
2.8210003 2.2236979 -0.15894556 4294967295
2.8343127 2.2158537 -0.15481108 4294967295
2.8210001 2.2218277 -0.18559384 4294967295
2.8325214 2.2123117 -0.18604219 4294967295
2.8210001 2.2218277 -0.20195687 4294967295
2.8305357 2.206789 -0.21540964 4294967295
2.8210001 2.2218277 -0.25104588 4294967295
2.8330998 2.2112856 -0.24416208 4294967295
2.8210001 2.2218277 -0.2706815 4294967295
2.8351581 2.2166848 -0.27550399 4294967295
2.8295262 2.203995 -0.30502588 4294967295
2.8296874 2.1954193 -0.33588821 4294967295
2.8399003 2.1853123 -0.33659846 4294967295
2.8287497 2.2041163 -0.3666482 4294967295
2.8415005 2.1856973 -0.36448741 4294967295
2.8297999 2.1989775 -0.39110631 4294967295
2.8383334 2.1871684 -0.39570248 4294967295
2.839 2.1833088 -0.41075933 4294967295
2.86625 -0.88142234 2.1156831 4294967295
2.8770001 0.75067896 2.093307 4294967295
2.8640001 0.74728692 2.0928426 4294967295
2.863625 -0.89473224 2.0942745 4294967295
2.8686666 0.75516039 2.0654225 4294967295
2.8644445 -0.89636302 2.0642807 4294967295
2.8770001 0.75735408 2.0365682 4294967295
2.8635714 -0.88437128 2.0346851 4294967295
2.8770001 0.75735408 2.0198803 4294967295
2.8656001 -0.87457377 2.0006161 4294967295
2.8770001 0.75735408 1.9664794 4294967295
2.860857 -0.88261008 1.9744618 4294967295
2.8643334 0.75401974 1.9468294 4294967295
2.8617141 -0.89424586 1.9455148 4294967295
2.8645 0.75072592 1.926935 4294967295
2.8675001 0.74820012 1.911809 4294967295
2.8696668 -0.90355259 1.915068 4294967295
2.8770001 0.75067896 1.8730276 4294967295
2.8656001 0.74770439 1.887597 4294967295
2.8710001 -0.86289942 1.8702058 4294967295
2.8682501 -0.88701594 1.87973 4294967295
2.8591669 -0.90356141 1.8878648 4294967295
2.8592 0.75266838 1.8513747 4294967295
2.8623333 -0.86360776 1.8550603 4294967295
2.852 -0.87042308 1.8612702 4294967295
2.8692501 0.7569682 1.8277822 4294967295
2.8645 -0.86759192 1.8372338 4294967295
2.8582001 -0.87496495 1.8204123 4294967295
2.8568001 0.75866479 1.7972394 4294967295
2.8643334 -0.88193583 1.79397 4294967295
2.8635714 0.75760627 1.7632375 4294967295
2.8710001 -0.86956066 1.7536346 4294967295
2.8643751 -0.87585044 1.7649158 4294967295
2.8640001 0.75393194 1.7306919 4294967295
2.8624613 -0.87820345 1.7348803 4294967295
2.8644168 0.75901252 1.7031612 4294967295
2.852 0.65151608 1.695842 4294967295
2.852 0.53240776 1.695842 4294967295
2.8652501 -0.89357072 1.7079399 4294967295
2.8659501 2.1149158 1.6736503 4294967295
2.8636668 2.0878432 1.6769997 4294967295
2.8574002 2.0582294 1.6649089 4294967295
2.8640003 2.0330882 1.6609197 4294967295
2.8586316 1.71981 1.6765779 4294967295
2.8569093 1.6951269 1.6737568 4294967295
2.8520002 1.6771708 1.6627564 4294967295
2.8662 0.75781775 1.6784132 4294967295
2.8640001 0.74728692 1.6609197 4294967295
2.852 0.67798454 1.6693735 4294967295
2.8663332 0.52177739 1.6707253 4294967295
2.852 -0.89689159 1.6892248 4294967295
2.8629999 -0.91030961 1.6738026 4294967295
2.8675003 2.1736097 1.6381921 4294967295
2.8638184 2.1419649 1.6517847 4294967295
2.8770003 2.0790298 1.6594234 4294967295
2.8696003 2.0510385 1.6578188 4294967295
2.8676667 2.0223877 1.6579373 4294967295
2.8613753 1.9947059 1.6565454 4294967295
2.8674004 1.962314 1.6502886 4294967295
2.8643334 1.9336197 1.6477417 4294967295
2.8671434 1.9065391 1.646962 4294967295
2.8681433 1.8767691 1.6435308 4294967295
2.8653083 1.8491461 1.6389202 4294967295
2.8520002 1.8293647 1.6362879 4294967295
2.8540003 1.7147666 1.6503189 4294967295
2.8617589 1.6954902 1.6430639 4294967295
2.8637371 1.664821 1.640502 4294967295
2.8606002 1.6351053 1.6343342 4294967295
2.8520002 1.6176165 1.6362879 4294967295
2.86675 1.2983941 1.6337373 4294967295
2.8649092 1.276256 1.643145 4294967295
2.8695624 1.2422396 1.6435591 4294967295
2.8656247 1.2176956 1.6445155 4294967295
2.8666818 1.1857394 1.6444372 4294967295
2.8670001 1.1538347 1.654501 4294967295
2.8663077 1.1249102 1.6439203 4294967295
2.852 1.1047893 1.6395965 4294967295
2.852 0.75077295 1.6561393 4294967295
2.8692501 0.74199212 1.6530234 4294967295
2.8627501 0.54769868 1.643811 4294967295
2.8770001 0.53707474 1.6594234 4294967295
2.8583333 -0.92761636 1.6542361 4294967295
2.8675001 -0.94167703 1.6406934 4294967295
2.8670006 2.1965101 1.6138827 4294967295
2.8565004 2.1835051 1.6264484 4294967295
2.8725002 1.8358458 1.6193147 4294967295
2.863647 1.8145479 1.6154203 4294967295
2.8572502 1.7879813 1.6068453 4294967295
2.8601999 1.7527539 1.6054221 4294967295
2.8619001 1.7241443 1.6195626 4294967295
2.8738337 1.6322252 1.6237127 4294967295
2.8632941 1.6052548 1.6180161 4294967295
2.8629229 1.5752541 1.6083542 4294967295
2.8635333 1.5444149 1.6115546 4294967295
2.8627272 1.5143931 1.6163207 4294967295
2.8652222 1.4832851 1.6170758 4294967295
2.865 1.4557698 1.6135588 4294967295
2.85975 1.4279361 1.6061347 4294967295
2.8606 1.3251432 1.6051308 4294967295
2.8652003 1.3139685 1.6166229 4294967295
2.8752859 1.2400867 1.6168121 4294967295
2.8650553 1.2154779 1.6133273 4294967295
2.8635385 1.1841092 1.6124327 4294967295
2.8706367 1.1201895 1.6139117 4294967295
2.8550003 1.1015365 1.6153841 4294967295
2.8630002 1.0273347 1.603387 4294967295
2.8633337 1.0061957 1.6108164 4294967295
2.8652854 0.97458434 1.6139249 4294967295
2.8606 0.95016271 1.6097784 4294967295
2.8673334 -0.94383746 1.6156685 4294967295
2.8637004 2.1963041 1.5916948 4294967295
2.8660004 2.1841056 1.5769365 4294967295
2.8770003 1.8086872 1.5960095 4294967295
2.8724668 1.7834007 1.5914161 4294967295
2.8717144 1.7610894 1.5964043 4294967295
2.8706667 1.418398 1.5947387 4294967295
2.8644707 1.3951941 1.5887563 4294967295
2.8640525 1.3659753 1.5853748 4294967295
2.866385 1.3372272 1.594842 4294967295
2.8770001 1.2312884 1.5993471 4294967295
2.8745999 1.2129197 1.5957767 4294967295
2.8722501 1.1892613 1.595062 4294967295
2.8683639 1.1205096 1.5870272 4294967295
2.8607891 1.0954376 1.5817125 4294967295
2.8644114 1.0667809 1.5863967 4294967295
2.8665555 1.0420555 1.5961558 4294967295
2.8662858 0.94455159 1.5924687 4294967295
2.8710001 -0.88954425 1.5704513 4294967295
2.863625 -0.9138211 1.5802104 4294967295
2.8623333 -0.93332744 1.5960504 4294967295
2.8651111 2.1745589 1.5549917 4294967295
2.8724289 1.9024533 1.5509847 4294967295
2.8694551 1.8732393 1.5523406 4294967295
2.8739171 1.8461894 1.5498506 4294967295
2.876334 1.8182755 1.5494168 4294967295
2.8638182 -0.88790971 1.5557411 4294967295
2.8665001 2.1983411 1.5183616 4294967295
2.8667505 2.1830177 1.5339707 4294967295
2.8706369 1.906721 1.5255095 4294967295
2.8545718 1.8769029 1.5275446 4294967295
2.8609231 1.842734 1.5289834 4294967295
2.8663476 1.8148336 1.5245247 4294967295
2.8770003 1.7986746 1.539271 4294967295
2.8740001 0.5465135 1.5115354 4294967295
2.8638 -0.88996589 1.5246177 4294967295
2.8639414 2.2040303 1.4939867 4294967295
2.8707502 1.8996719 1.5020807 4294967295
2.8544004 1.878589 1.5007975 4294967295
2.8640003 1.810482 1.5080855 4294967295
2.8610001 0.54737085 1.5037348 4294967295
2.8706667 0.52922702 1.4937366 4294967295
2.8634286 -0.88718581 1.4945861 4294967295
2.8623335 2.1953182 1.4728265 4294967295
2.8655457 2.1861734 1.4578412 4294967295
2.8770001 0.70395303 1.4524943 4294967295
2.8623335 0.51550895 1.4687762 4294967295
2.8730001 0.50743961 1.457859 4294967295
2.8651252 -0.87940216 1.4635851 4294967295
2.8653083 2.1846001 1.4353999 4294967295
2.8770001 0.72397846 1.4257938 4294967295
2.858 0.70925754 1.4231203 4294967295
2.862 0.50438493 1.4343538 4294967295
2.8651114 -0.88254553 1.4338546 4294967295
2.8643572 2.1828516 1.4051883 4294967295
2.8640001 0.72402954 1.4050884 4294967295
2.852 0.71768731 1.4046885 4294967295
2.8606248 0.50497139 1.4073622 4294967295
2.852 -0.89689159 1.4179227 4294967295
2.8632002 -0.91236502 1.4068333 4294967295
2.8634169 2.200398 1.366148 4294967295
2.8617144 2.1855905 1.3801916 4294967295
2.8640001 0.7805118 1.368541 4294967295
2.858 -0.92530268 1.3866565 4294967295
2.8657501 -0.93279213 1.3723936 4294967295
2.8688574 2.2224305 1.34145 4294967295
2.8634169 2.21644 1.3495426 4294967295
2.8640001 0.80709165 1.3552511 4294967295
2.8660002 -0.92787826 1.3391907 4294967295
2.8675001 -0.93169391 1.3529344 4294967295
2.8675003 2.2218552 1.326329 4294967295
2.8649094 2.2171102 1.3138123 4294967295
2.8621249 -0.91915566 1.314851 4294967295
2.8639002 2.2130785 1.2854413 4294967295
2.8638999 -0.91723478 1.2854328 4294967295
2.8631003 2.2117939 1.2533476 4294967295
2.8643751 -0.92154241 1.2540076 4294967295
2.8644617 2.2120764 1.2260411 4294967295
2.8625002 -0.9267596 1.2252995 4294967295
2.8633847 2.215332 1.1956156 4294967295
2.8630002 -0.92292851 1.1995178 4294967295
2.8686669 2.2216504 1.1547178 4294967295
2.8630006 2.2178733 1.1675391 4294967295
2.8670001 -0.9162361 1.1698637 4294967295
2.8644001 2.2267501 1.1364932 4294967295
2.8642502 0.51475793 1.1327025 4294967295
2.8642859 -0.91214126 1.1331818 4294967295
2.8666253 2.2236633 1.1107581 4294967295
2.8656003 2.2183657 1.0964077 4294967295
2.8692501 -0.89564472 1.0971534 4294967295
2.8618002 -0.90527558 1.1102579 4294967295
2.8624618 2.2146211 1.0753491 4294967295
2.8677778 -0.89223284 1.0754173 4294967295
2.8710003 2.2212408 1.0375545 4294967295
2.8607147 2.216114 1.0489813 4294967295
2.8612502 -0.896474 1.0457654 4294967295
2.8710001 2.2212408 1.0242321 4294967295
2.8625 2.215313 1.0134363 4294967295
2.8675001 -0.90675789 1.0152839 4294967295
2.8587501 2.2084405 0.98560297 4294967295
2.8710001 0.50930983 0.97760367 4294967295
2.8634999 -0.91046047 0.97971916 4294967295
2.8586667 2.2080069 0.95500481 4294967295
2.858 0.50258291 0.96227413 4294967295
2.8646667 -0.89200807 0.94558203 4294967295
2.8663332 -0.90360951 0.96134412 4294967295
2.8639286 2.2038841 0.92426342 4294967295
2.8603334 0.50078106 0.91616064 4294967295
2.8612502 -0.88154256 0.93124825 4294967295
2.8622146 2.1959281 0.8936609 4294967295
2.858 0.50700361 0.89263654 4294967295
2.8646002 -0.89153439 0.89550102 4294967295
2.8770001 -0.90475357 0.88510811 4294967295
2.8675001 2.2218552 0.85063708 4294967295
2.8655455 2.2109575 0.86733925 4294967295
2.8631999 0.51456922 0.8634038 4294967295
2.8666668 -0.91480625 0.86827409 4294967295
2.8655999 2.2298958 0.83313113 4294967295
2.852 2.219775 0.84884983 4294967295
2.8740001 0.51651019 0.84138083 4294967295
2.858 -0.92530268 0.84954166 4294967295
2.8640001 -0.94718015 0.82365358 4294967295
2.863421 2.2293391 0.80751669 4294967295
2.8721113 2.2117229 0.79489815 4294967295
2.8642502 0.52306473 0.80539083 4294967295
2.855 2.2254186 0.78957891 4294967295
2.8627408 2.2025163 0.77481246 4294967295
2.8640001 0.54129291 0.7638489 4294967295
2.8640001 0.53464794 0.77713883 4294967295
2.858 -0.99161315 0.76333809 4294967295
2.8638568 2.1995528 0.7448504 4294967295
2.8710001 0.55260772 0.7444613 4294967295
2.8603334 -1.0034752 0.73922133 4294967295
2.8648458 2.2046971 0.71687126 4294967295
2.8625717 0.55429357 0.71058381 4294967295
2.8734002 0.52306634 0.70464826 4294967295
2.8770001 0.49368641 0.70487958 4294967295
2.8770001 0.46698588 0.70487958 4294967295
2.8682001 0.43561175 0.70564914 4294967295
2.8644288 0.40369099 0.71167958 4294967295
2.8696001 0.37588739 0.71639657 4294967295
2.8635714 0.34663808 0.71351939 4294967295
2.8682001 0.31580555 0.71096879 4294967295
2.8594003 0.28700009 0.70508361 4294967295
2.858 0.25502384 0.70365858 4294967295
2.8627501 0.22555231 0.70396388 4294967295
2.8740001 0.2064368 0.70468682 4294967295
2.8770001 -0.44083196 0.70487958 4294967295
2.8770001 -0.45751977 0.70487958 4294967295
2.8770001 -0.89807844 0.70487958 4294967295
2.8670001 -0.91491866 0.70690423 4294967295
2.8672001 -0.94822091 0.70957875 4294967295
2.8668749 -0.97473401 0.70839918 4294967295
2.8645 -0.997199 0.71405303 4294967295
2.8627 2.1982033 0.68404037 4294967295
2.852 0.49270502 0.69665593 4294967295
2.852 0.46623653 0.69665593 4294967295
2.858 0.19201846 0.69702756 4294967295
2.8634999 0.16583422 0.69405967 4294967295
2.8656666 0.13711938 0.69529676 4294967295
2.8642499 0.10606801 0.6974147 4294967295
2.858 0.075985551 0.69702756 4294967295
2.852 0.046048962 0.69665593 4294967295
2.858 0.0096657965 0.69702756 4294967295
2.87075 -0.013605278 0.69781733 4294967295
2.8770001 -0.050336786 0.69820446 4294967295
2.8770001 -0.11375053 0.69820446 4294967295
2.8710001 -0.13349693 0.69783282 4294967295
2.8681428 -0.16426095 0.69576526 4294967295
2.8652503 -0.19471902 0.69416636 4294967295
2.8657501 -0.2263453 0.6908586 4294967295
2.8634999 -0.25383824 0.6874159 4294967295
2.8633335 -0.28482544 0.69182706 4294967295
2.8692501 -0.31315657 0.6977244 4294967295
2.8681431 -0.34582525 0.69576526 4294967295
2.8555999 -0.37461084 0.69025344 4294967295
2.8682001 -0.40421441 0.69633591 4294967295
2.855 -0.43082991 0.69684172 4294967295
2.852 -0.46677837 0.69665593 4294967295
2.8628001 -0.49512032 0.69732487 4294967295
2.8640001 -0.52522457 0.6973992 4294967295
2.8707502 -0.55311626 0.69781733 4294967295
2.8631108 -0.58446074 0.69366795 4294967295
2.8708334 -0.6163919 0.69671965 4294967295
2.8710001 -0.64641005 0.69783282 4294967295
2.8654287 -0.6760056 0.69465178 4294967295
2.8613751 -0.70230603 0.69310093 4294967295
2.8603334 -0.73578715 0.69276071 4294967295
2.8686666 -0.76683056 0.69548255 4294967295
2.8710001 -0.7962873 0.69783282 4294967295
2.875 -0.82408339 0.69808054 4294967295
2.852 -0.84726316 0.6900388 4294967295
2.8645 -0.87753564 0.69743019 4294967295
2.8610666 2.2064526 0.65163481 4294967295
2.8629999 2.2376752 0.62517291 4294967295
2.8770001 2.2192075 0.63812828 4294967295
2.852 2.2528605 0.58416474 4294967295
2.8629527 2.2406032 0.59390265 4294967295
2.8643334 2.3157496 0.5545364 4294967295
2.8671432 2.2937841 0.56453294 4294967295
2.8627374 2.264482 0.566203 4294967295
2.8612382 2.2351735 0.5669921 4294967295
2.8610871 2.2066221 0.55984831 4294967295
2.8640001 2.189245 0.55120993 4294967295
2.8675001 2.3174853 0.53877449 4294967295
2.8708003 2.29567 0.52730966 4294967295
2.8725457 2.2684884 0.53434426 4294967295
2.8623331 2.2359369 0.53458935 4294967295
2.8664169 2.2043679 0.53515697 4294967295
2.858 2.2874398 0.51798928 4294967295
2.8566668 2.2616999 0.51504773 4294967295
2.8564999 2.235425 0.51136857 4294967295
2.8640802 2.2105455 0.50470155 4294967295
2.8609443 2.2034802 0.47520852 4294967295
2.8710001 2.2212408 0.43138438 4294967295
2.8628464 2.2103148 0.44799113 4294967295
2.8644001 2.2114675 0.41563785 4294967295
2.8644001 2.1975126 0.38639307 4294967295
2.8651001 2.1967144 0.35179928 4294967295
2.852 2.1866894 0.36579961 4294967295
2.8666 2.2078362 0.32310593 4294967295
2.8622663 2.2011776 0.30016714 4294967295
2.8635714 2.1841514 0.28829873 4294967295
2.8629229 2.177675 0.26812699 4294967295
2.8643751 2.1845365 0.23553997 4294967295
2.8696668 2.1935499 0.19840851 4294967295
2.8618 2.1862309 0.21122709 4294967295
2.8645 2.2294965 0.16906294 4294967295
2.8658752 2.2106078 0.18218949 4294967295
2.8770001 2.2525833 0.13749343 4294967295
2.8639286 2.2451751 0.14303407 4294967295
2.8625715 2.2317693 0.12518311 4294967295
2.8631334 2.2049453 0.11498439 4294967295
2.852 2.1866894 0.10111451 4294967295
2.8665001 2.1955767 0.081262976 4294967295
2.8559999 2.1875412 0.091694891 4294967295
2.8635004 2.2097189 0.052924931 4294967295
2.8626428 2.2232947 0.02791521 4294967295
2.8691251 2.21893 0.021232933 4294967295
2.8626661 2.2092328 -0.0037706494 4294967295
2.8647366 2.2058744 -0.034032643 4294967295
2.8628333 2.2265246 -0.065973282 4294967295
2.8623333 2.2189319 -0.053148508 4294967295
2.8688571 2.2271821 -0.091544151 4294967295
2.855 2.2187943 -0.098055661 4294967295
2.8705001 2.2241764 -0.12801415 4294967295
2.858 2.2178137 -0.12190682 4294967295
2.8640001 2.2224698 -0.1564793 4294967295
2.852 2.219775 -0.16357052 4294967295
2.8706667 2.2231977 -0.17692542 4294967295
2.8629999 2.2128212 -0.19056088 4294967295
2.864357 2.2032669 -0.21636844 4294967295
2.8633847 2.2071493 -0.24600953 4294967295
2.8694003 2.2226608 -0.28225029 4294967295
2.8627501 2.2165079 -0.26577061 4294967295
2.8770001 2.2258828 -0.29639012 4294967295
2.858875 2.2126813 -0.30451506 4294967295
2.8670001 2.1995163 -0.32813829 4294967295
2.8600001 2.1833286 -0.3427527 4294967295
2.8636 2.1805034 -0.36522025 4294967295
2.855 2.1922979 -0.40275675 4294967295
2.8634615 2.1847255 -0.39475143 4294967295
2.8644288 2.1848066 -0.41624159 4294967295
2.8940001 -0.88995129 2.1227517 4294967295
2.9089999 -0.90131807 2.1108062 4294967295
2.8900001 -0.89543122 2.1071215 4294967295
2.9089997 -0.90131807 2.0905581 4294967295
2.8963335 -0.89290863 2.0635595 4294967295
2.8940001 -0.87876654 2.0377021 4294967295
2.8900001 0.76077628 2.006542 4294967295
2.8987999 -0.88067144 2.0083625 4294967295
2.8900001 0.76077628 1.9830734 4294967295
2.8940001 -0.8921957 1.972782 4294967295
2.9089999 -0.90131807 1.9623199 4294967295
2.8994999 0.75654978 1.9475298 4294967295
2.8940001 -0.90338504 1.9414489 4294967295
2.8959999 -0.89729017 1.9021206 4294967295
2.89925 -0.90502393 1.9204923 4294967295
2.8900001 0.754071 1.872436 4294967295
2.9024999 -0.86563265 1.8816602 4294967295
2.8940001 -0.880997 1.8922118 4294967295
2.8988001 0.75636715 1.8563505 4294967295
2.8983333 -0.86662507 1.8628911 4294967295
2.9089999 -0.87432057 1.8543298 4294967295
2.8900001 0.76077628 1.8187937 4294967295
2.9014001 -0.88415879 1.8252314 4294967295
2.8915002 0.76117116 1.7959923 4294967295
2.901 -0.88031572 1.7917442 4294967295
2.8977499 0.75776941 1.7668035 4294967295
2.9042501 -0.87456924 1.7695816 4294967295
2.8912003 0.7543841 1.7321224 4294967295
2.8959999 0.54062164 1.7207018 4294967295
2.8983333 -0.88455892 1.7339963 4294967295
2.8945 0.75524509 1.7032958 4294967295
2.9089999 0.74552971 1.6923448 4294967295
2.9089999 0.6915347 1.6990942 4294967295
2.8900001 0.68031275 1.7048037 4294967295
2.8900001 0.52609098 1.7081563 4294967295
2.8900001 -0.89543122 1.711509 4294967295
2.9026668 -0.90384066 1.7032617 4294967295
2.9000003 2.1400442 1.6631449 4294967295
2.8939095 2.1181035 1.6661135 4294967295
2.8960001 2.0994792 1.6602288 4294967295
2.8960001 2.0558043 1.6602288 4294967295
2.8960001 2.0390062 1.6602288 4294967295
2.8986249 0.74369973 1.6763929 4294967295
2.8959999 0.54734081 1.6602288 4294967295
2.9024999 0.52500683 1.682976 4294967295
2.8930001 -0.91984659 1.6758354 4294967295
2.8959999 -0.93760544 1.6602288 4294967295
2.902667 2.1985831 1.6381648 4294967295
2.8978753 2.1756155 1.6492019 4294967295
2.8983335 2.1549575 1.6566581 4294967295
2.9090004 2.1089036 1.648474 4294967295
2.8972354 2.0837631 1.6472591 4294967295
2.9019477 2.0608897 1.6480304 4294967295
2.8995004 2.024641 1.6582323 4294967295
2.8978333 1.9948995 1.6519716 4294967295
2.9000001 1.9650993 1.6463177 4294967295
2.899091 1.933555 1.6418655 4294967295
2.8966 1.9054607 1.6416298 4294967295
2.8900003 1.8711729 1.6323866 4294967295
2.8995001 1.7118092 1.631323 4294967295
2.8983338 1.6961886 1.6334894 4294967295
2.8900003 1.6693436 1.6310455 4294967295
2.8924003 1.2969332 1.6346502 4294967295
2.8929999 1.2750558 1.6389064 4294967295
2.8900001 1.2552917 1.6394271 4294967295
2.8983333 1.1748387 1.6437736 4294967295
2.9001875 1.1562642 1.6467242 4294967295
2.8900001 1.1362727 1.6343981 4294967295
2.8976002 -0.9475286 1.6406813 4294967295
2.8975003 2.2027392 1.6144238 4294967295
2.9025004 2.0828688 1.6139531 4294967295
2.9018338 2.0606706 1.6176354 4294967295
2.9090002 1.9266707 1.6046029 4294967295
2.9082782 1.9037011 1.6140759 4294967295
2.9059417 1.8774451 1.6169327 4294967295
2.8927274 1.8475602 1.6119566 4294967295
2.8900003 1.826918 1.6042243 4294967295
2.9005003 1.7482978 1.6081585 4294967295
2.8946252 1.7290938 1.6210678 4294967295
2.8960001 1.7097648 1.6266328 4294967295
2.9007146 1.6673588 1.6255417 4294967295
2.8990002 1.6375382 1.6173052 4294967295
2.8961999 1.6063974 1.6092324 4294967295
2.9003334 1.574353 1.6081009 4294967295
2.8971665 1.5457484 1.6136347 4294967295
2.8993332 1.513272 1.6200546 4294967295
2.9014001 1.488097 1.617915 4294967295
2.8974001 1.4591726 1.6096854 4294967295
2.8900001 1.3240209 1.6042243 4294967295
2.8972726 1.3041199 1.6133573 4294967295
2.898 1.2759093 1.6139364 4294967295
2.8938751 1.2544553 1.6107016 4294967295
2.8900001 1.1765045 1.6042243 4294967295
2.8958497 1.1587273 1.6151514 4294967295
2.8900001 1.1362727 1.6243402 4294967295
2.8994999 1.0290067 1.6044136 4294967295
2.8990908 1.0047003 1.6119057 4294967295
2.8983333 0.98040277 1.6095806 4294967295
2.9089999 -0.92156619 1.6046029 4294967295
2.8959999 -0.93760544 1.6131943 4294967295
2.8983335 2.1953008 1.5961365 4294967295
2.8951669 2.1828301 1.5792884 4294967295
2.9090002 1.9317327 1.5809802 4294967295
2.8997502 1.9037194 1.5843515 4294967295
2.9008951 1.8752353 1.5842403 4294967295
2.8968334 1.8439405 1.5862534 4294967295
2.8899999 1.8139017 1.5797697 4294967295
2.899579 1.7833807 1.5812528 4294967295
2.8980002 1.7599221 1.5966554 4294967295
2.8959999 1.4409963 1.599756 4294967295
2.8978751 1.4234275 1.5878313 4294967295
2.896889 1.393643 1.5754341 4294967295
2.8994167 1.3647668 1.5825186 4294967295
2.8996363 1.3351552 1.5943773 4294967295
2.9071429 1.3087425 1.5971611 4294967295
2.9041252 1.2403662 1.5968796 4294967295
2.8988571 1.2175748 1.593125 4294967295
2.9011111 1.1832592 1.5971687 4294967295
2.898 1.152874 1.5956955 4294967295
2.8985455 1.126785 1.5756226 4294967295
2.8988001 1.0980257 1.5745602 4294967295
2.899375 1.0659574 1.5858711 4294967295
2.895 1.0428522 1.5953484 4294967295
2.9007144 0.96838516 1.5928445 4294967295
2.8900001 0.95522982 1.5841084 4294967295
2.9015 -0.8888877 1.5804857 4294967295
2.8920002 -0.91170585 1.5915546 4294967295
2.8993752 2.1818013 1.553923 4294967295
2.8961432 1.9335183 1.5546986 4294967295
2.8900003 1.8604444 1.5639925 4294967295
2.8900003 1.8447988 1.5639925 4294967295
2.8911998 1.8075495 1.5577193 4294967295
2.9007275 1.7945343 1.5562341 4294967295
2.8915 -0.88415474 1.5544695 4294967295
2.9004672 2.2022994 1.5224584 4294967295
2.8930004 2.1879163 1.5382272 4294967295
2.8983338 1.9353031 1.5221668 4294967295
2.8910003 1.8040721 1.5308135 4294967295
2.9012003 1.7976418 1.5330319 4294967295
2.9089997 1.2787304 1.5303597 4294967295
2.9046667 0.54896879 1.526605 4294967295
2.9089999 0.53292435 1.5134864 4294967295
2.8941667 -0.88888228 1.5218356 4294967295
2.8972502 2.2023211 1.4954658 4294967295
2.9090002 2.1898961 1.4831142 4294967295
2.9025002 1.9257252 1.5045247 4294967295
2.8962502 0.51714522 1.492336 4294967295
2.8977499 -0.8860622 1.4961963 4294967295
2.8995001 2.1961772 1.4664702 4294967295
2.8943 2.1882229 1.4661608 4294967295
2.8971665 0.50386512 1.4657526 4294967295
2.901 -0.88032323 1.4653096 4294967295
2.9038 2.1981063 1.4342253 4294967295
2.8900003 2.1890035 1.4432973 4294967295
2.9026668 0.72820216 1.4383595 4294967295
2.8900001 0.71383923 1.4432973 4294967295
2.8945 0.50004715 1.4346595 4294967295
2.9046667 -0.88649678 1.4412436 4294967295
2.9026668 -0.9060905 1.4248902 4294967295
2.9090002 2.2033949 1.4054964 4294967295
2.8994999 0.7397424 1.4126735 4294967295
2.8940001 0.49996084 1.4110069 4294967295
2.8900001 -0.91889971 1.4131234 4294967295
2.8959999 -0.93088627 1.3981795 4294967295
2.8974547 2.2025836 1.3741686 4294967295
2.9089999 0.81302351 1.3751242 4294967295
2.8900001 0.79430276 1.3762443 4294967295
2.8983333 -0.93836093 1.3742191 4294967295
2.8996155 2.226805 1.3454472 4294967295
2.8962502 2.2122061 1.3562493 4294967295
2.9026668 -0.92627978 1.3395743 4294967295
2.9089999 -0.93506497 1.354876 4294967295
2.9010003 2.2276146 1.3147204 4294967295
2.8912003 -0.91726822 1.3162301 4294967295
2.8930004 2.2248373 1.2865177 4294967295
2.9012001 -0.91909522 1.2853066 4294967295
2.9018753 2.2274439 1.2568675 4294967295
2.8994999 -0.92527658 1.2545996 4294967295
2.9008574 2.2270226 1.2227315 4294967295
2.8900001 -0.9289577 1.2253752 4294967295
2.8959999 -0.93088627 1.2268395 4294967295
2.896167 2.2261474 1.1977601 4294967295
2.8983333 -0.92491174 1.197163 4294967295
2.8993335 2.2308252 1.1626146 4294967295
2.89925 -0.91847742 1.1671033 4294967295
2.8953753 2.2342138 1.1359993 4294967295
2.9024999 0.51489788 1.134131 4294967295
2.8973334 -0.91225803 1.1341617 4294967295
2.9000003 2.2329051 1.1073735 4294967295
2.901 -0.89546472 1.1001577 4294967295
2.8900001 -0.9021365 1.1147379 4294967295
2.8986003 2.2291439 1.076144 4294967295
2.9042501 -0.89478433 1.0738876 4294967295
2.8963337 2.2318707 1.0477312 4294967295
2.8983333 -0.90248799 1.0492165 4294967295
2.8962002 2.2286391 1.0152247 4294967295
2.8963335 -0.91306853 1.0174912 4294967295
2.8900001 2.2225301 0.98398471 4294967295
2.8959999 0.51374477 0.98830754 4294967295
2.9046667 0.50629306 0.97623038 4294967295
2.8983333 -0.91144764 0.97969115 4294967295
2.8951666 2.2242587 0.95346153 4294967295
2.8915002 0.49952894 0.95067632 4294967295
2.8900001 -0.89207858 0.95045817 4294967295
2.8994999 -0.90172726 0.96196413 4294967295
2.8961999 2.2125058 0.9238252 4294967295
2.9089999 0.50255215 0.93304002 4294967295
2.9046667 -0.88649678 0.92231578 4294967295
2.8991113 2.2078528 0.89538896 4294967295
2.8994999 0.51436567 0.88458884 4294967295
2.8959999 0.50702554 0.90767694 4294967295
2.9089999 -0.90131807 0.89591849 4294967295
2.899857 2.227216 0.86302024 4294967295
2.8900001 2.2158248 0.87334728 4294967295
2.8994999 -0.92190927 0.87115622 4294967295
2.8975554 2.233557 0.83093929 4294967295
2.8920002 0.51974511 0.82661766 4294967295
2.8962858 2.224463 0.81267273 4294967295
2.89625 2.2079971 0.79851013 4294967295
2.8959999 0.52718318 0.80016953 4294967295
2.8972499 2.1967237 0.77619684 4294967295
2.9024999 0.54520971 0.76711178 4294967295
2.8959999 0.53390241 0.78673112 4294967295
2.9024999 -1.0003335 0.77047145 4294967295
2.8969998 2.2060635 0.74564832 4294967295
2.8959999 0.56077927 0.73297739 4294967295
2.9089999 2.2236431 0.71031058 4294967295
2.9003334 2.2147682 0.72432709 4294967295
2.9024999 0.56203789 0.72336149 4294967295
2.9026 0.43409523 0.71595895 4294967295
2.8930001 0.40917614 0.71933228 4294967295
2.9089997 0.36756468 0.72718406 4294967295
2.8983333 0.34157825 0.72194952 4294967295
2.9046667 0.31983182 0.72013611 4294967295
2.8900001 0.28134778 0.71242028 4294967295
2.8930001 0.25478384 0.71262002 4294967295
2.9003334 0.23187415 0.7131083 4294967295
2.8983333 0.19136187 0.70625049 4294967295
2.9089999 0.17858212 0.70693594 4294967295
2.9089999 0.12458713 0.70693594 4294967295
2.9012001 0.10407732 0.70643467 4294967295
2.8959999 0.073636249 0.70610052 4294967295
2.8900001 0.046662521 0.705715 4294967295
2.8930001 0.01985498 0.70590776 4294967295
2.9089999 -0.23987921 0.70018655 4294967295
2.9089999 -0.25675264 0.70018655 4294967295
2.9089999 -0.27362606 0.70018655 4294967295
2.9089999 -0.31749701 0.70693594 4294967295
2.9089999 -0.41536298 0.70693594 4294967295
2.8940001 -0.4266457 0.70597202 4294967295
2.8900001 -0.47635037 0.705715 4294967295
2.89925 -0.49806657 0.70630938 4294967295
2.89925 -0.52495092 0.70630938 4294967295
2.9025002 -0.55250299 0.70651823 4294967295
2.9089999 -0.5739733 0.70693594 4294967295
2.9089999 -0.65834051 0.70693594 4294967295
2.9089999 -0.6684646 0.70693594 4294967295
2.8994999 -0.89499992 0.70632541 4294967295
2.8994999 -0.92190927 0.71305275 4294967295
2.9089999 -0.95193839 0.72043467 4294967295
2.9089999 -0.96543711 0.72043467 4294967295
2.8977499 -1.0020301 0.72133934 4294967295
2.8924003 2.210954 0.68574494 4294967295
2.8900001 0.15394722 0.69900966 4294967295
2.8900001 -0.033801001 0.69900966 4294967295
2.8900001 -0.074032761 0.69900966 4294967295
2.8900001 -0.097501285 0.69900966 4294967295
2.8945 -0.22189941 0.69928843 4294967295
2.8900001 -0.25842831 0.69230437 4294967295
2.8920002 -0.28544223 0.69913357 4294967295
2.8900001 -0.37577096 0.69900966 4294967295
2.8900001 -0.3925342 0.69900966 4294967295
2.8900001 -0.59369296 0.69900966 4294967295
2.8900001 -0.71438825 0.69900966 4294967295
2.8900001 -0.73450416 0.69900966 4294967295
2.8940001 -0.76237446 0.69925743 4294967295
2.8945 -0.85988367 0.69928843 4294967295
2.9089999 2.2236431 0.64619154 4294967295
2.8930001 2.213089 0.65556586 4294967295
2.9089999 2.2506404 0.61581933 4294967295
2.8967497 2.2400243 0.62606478 4294967295
