# .PCD v0.7 - Point Cloud Data file format
VERSION 0.7
FIELDS x y z rgb
SIZE 4 4 4 4
TYPE F F F U
COUNT 1 1 1 1
WIDTH 1150
HEIGHT 1
VIEWPOINT 0 0 0 1 0 0 0
POINTS 1150
DATA ascii
2.7482002 2.1804106 1.2475162 4294967295
2.7431667 -0.89660454 1.2553085 4294967295
2.7450771 2.2354932 1.2176781 4294967295
2.7431667 2.2061172 1.2305458 4294967295
2.748364 2.1733108 1.2345662 4294967295
2.756 0.51448661 1.2278383 4294967295
2.7431667 -0.90509135 1.2256038 4294967295
2.748286 2.2519958 1.200351 4294967295
2.7421253 2.2463653 1.1932454 4294967295
2.7424443 -0.91050345 1.1974814 4294967295
2.7448003 2.2401271 1.1644506 4294967295
2.7404997 -0.91825056 1.1666315 4294967295
2.7427781 2.2394032 1.1339356 4294967295
2.737 -0.92740017 1.1356463 4294967295
2.7559998 -0.9306457 1.1383169 4294967295
2.7463751 2.2586253 1.1042919 4294967295
2.7330003 2.2476342 1.1141337 4294967295
2.7451427 -0.91786802 1.1058488 4294967295
2.7447779 2.2594318 1.0770643 4294967295
2.7379999 0.517479 1.0834575 4294967295
2.7401998 -0.90876931 1.0762815 4294967295
2.7432501 2.2520812 1.045548 4294967295
2.7330003 2.2476342 1.0475528 4294967295
2.7424445 -0.91616052 1.0447731 4294967295
2.7428892 2.2628307 1.015869 4294967295
2.7421665 -0.91006422 1.0143321 4294967295
2.7424619 2.2661614 0.98500168 4294967295
2.744 0.50269663 0.97327769 4294967295
2.7481668 -0.90355241 0.98565787 4294967295
2.7354999 2.2528605 0.96870017 4294967295
2.7423334 2.2367334 0.95337796 4294967295
2.7342498 0.49773851 0.952631 4294967295
2.7379999 -0.89915681 0.95958126 4294967295
2.744 -0.90112722 0.94781148 4294967295
2.7432857 2.2306259 0.92451084 4294967295
2.7443333 0.50168771 0.92772633 4294967295
2.7440002 -0.89899576 0.92974973 4294967295
2.7393334 -0.90382409 0.91636759 4294967295
2.7439997 2.2365153 0.89582032 4294967295
2.7354999 0.50431281 0.88935614 4294967295
2.7483811 -0.91651857 0.8945874 4294967295
2.7367499 -0.93208021 0.88635874 4294967295
2.7451432 2.2412322 0.86382282 4294967295
2.75 0.50698608 0.87217438 4294967295
2.756 -0.89867365 0.86975253 4294967295
2.7436154 -0.90980273 0.86769319 4294967295
2.7413747 2.2600698 0.83212471 4294967295
2.7366667 2.2442915 0.84613669 4294967295
2.7379999 0.51112634 0.8420577 4294967295
2.7440002 -0.90961128 0.84064591 4294967295
2.7403331 2.2727304 0.80489874 4294967295
2.7423332 0.51829803 0.8043735 4294967295
2.733 -0.91970843 0.8034234 4294967295
2.7458572 2.2609272 0.77654111 4294967295
2.733 0.52287507 0.7780593 4294967295
2.7385001 -0.92790669 0.7754209 4294967295
2.7559998 2.2537606 0.74825907 4294967295
2.7349999 2.2429333 0.7465198 4294967295
2.7379999 0.54288948 0.74041563 4294967295
2.733 0.53555709 0.7526952 4294967295
2.7379999 -0.93091989 0.74676824 4294967295
2.756 2.2537606 0.70669556 4294967295
2.737 2.2445731 0.71493852 4294967295
2.7417998 -0.92202783 0.71273196 4294967295
2.756 -0.93064564 0.72907591 4294967295
2.756 2.2537606 0.69710398 4294967295
2.742125 2.2424006 0.68188441 4294967295
2.7385001 0.54298866 0.69280887 4294967295
2.7465999 0.53055447 0.67482442 4294967295
2.756 0.45373991 0.67152643 4294967295
2.7431667 0.43041629 0.67294765 4294967295
2.7384 0.40827879 0.6756441 4294967295
2.7354996 0.3752588 0.67568928 4294967295
2.7432499 0.34900367 0.67321634 4294967295
2.756 0.31626052 0.67152643 4294967295
2.756 0.28428856 0.67152643 4294967295
2.7431667 0.25432727 0.67400873 4294967295
2.7432001 0.22565861 0.67974508 4294967295
2.7502503 0.19598603 0.68238711 4294967295
2.7427502 0.16519518 0.67557633 4294967295
2.7460001 0.14307696 0.67097658 4294967295
2.7512002 0.073162772 0.6712625 4294967295
2.7457144 0.042962626 0.67370135 4294967295
2.744875 0.018053662 0.67331266 4294967295
2.756 -0.0066561955 0.67152643 4294967295
2.756 -0.5054186 0.67152643 4294967295
2.7421665 -0.89415157 0.67395145 4294967295
2.7428749 -0.9102937 0.68751729 4294967295
2.7427499 2.2413232 0.65488875 4294967295
2.7409999 0.5195061 0.65652668 4294967295
2.7512002 0.49442598 0.65211642 4294967295
2.7421331 0.46355587 0.65423119 4294967295
2.7346666 0.44282591 0.65978122 4294967295
2.7343636 0.33915442 0.65649867 4294967295
2.7379999 0.31525248 0.65572363 4294967295
2.7362499 0.28780606 0.66012883 4294967295
2.7354999 0.26630977 0.66405249 4294967295
2.7362502 0.1330546 0.65457535 4294967295
2.7402499 0.10663649 0.65676653 4294967295
2.7350001 0.07779514 0.66275793 4294967295
2.733 0.056809619 0.66392082 4294967295
2.733 0.0092519196 0.66392082 4294967295
2.7415555 -0.017589528 0.66155052 4294967295
2.7457139 -0.043484278 0.66096032 4294967295
2.7465 -0.073540583 0.66145658 4294967295
2.7384999 -0.10509763 0.66103995 4294967295
2.7406156 -0.13696265 0.65406561 4294967295
2.75 -0.16205966 0.6493246 4294967295
2.75 -0.29216424 0.64727324 4294967295
2.7443886 -0.31650695 0.6539247 4294967295
2.7440832 -0.34247977 0.65231293 4294967295
2.756 -0.36154485 0.64594883 4294967295
2.75 -0.47240898 0.64886487 4294967295
2.7420588 -0.4929342 0.65542686 4294967295
2.7396922 -0.52613956 0.65743893 4294967295
2.7464998 -0.55083913 0.65189654 4294967295
2.756 -0.57255971 0.64594883 4294967295
2.7468462 -0.6480996 0.65043855 4294967295
2.7386923 -0.67503196 0.65103042 4294967295
2.7525713 -0.70049369 0.65126908 4294967295
2.75 -0.86799812 0.64567465 4294967295
2.7415552 -0.87981373 0.65659571 4294967295
2.7424998 2.2637095 0.62496662 4294967295
2.733 2.2476342 0.63855672 4294967295
2.7359998 0.51392472 0.62599087 4294967295
2.7480798 0.49386555 0.62645996 4294967295
2.7399998 0.46382993 0.62614262 4294967295
2.733 0.4446691 0.61530626 4294967295
2.733 0.32630324 0.63855672 4294967295
2.733 0.15826605 0.61953366 4294967295
2.7330008 0.13554403 0.62534624 4294967295
2.733 0.11387887 0.62191153 4294967295
2.733 -0.14927374 0.63855672 4294967295
2.7388997 -0.16675968 0.63373637 4294967295
2.7420769 -0.19282849 0.62820184 4294967295
2.7392499 -0.22641179 0.62135714 4294967295
2.7427499 -0.25480646 0.62785417 4294967295
2.739125 -0.2806724 0.63644308 4294967295
2.733 -0.31414044 0.63855672 4294967295
2.7371664 -0.3495566 0.62886411 4294967295
2.7457855 -0.3738606 0.62274653 4294967295
2.756 -0.39351681 0.61717409 4294967295
2.7540004 -0.47150216 0.62614834 4294967295
2.7377222 -0.48864633 0.62605822 4294967295
2.7357063 -0.55826634 0.62561017 4294967295
2.7476664 -0.58500189 0.62468207 4294967295
2.7530003 -0.61632174 0.62473392 4294967295
2.7404444 -0.64419806 0.62615472 4294967295
2.7368639 -0.67480612 0.62687963 4294967295
2.7491999 -0.70170325 0.62734556 4294967295
2.75 -0.83290553 0.61537087 4294967295
2.7441502 -0.8569085 0.62408704 4294967295
2.733 -0.87215078 0.63855672 4294967295
2.733 -1.0179943 0.61319262 4294967295
2.733 -1.0243354 0.61319262 4294967295
2.7418997 2.2663913 0.59695655 4294967295
2.7395 2.2360096 0.58375162 4294967295
2.733 0.51019299 0.60685158 4294967295
2.7376997 0.49264336 0.603194 4294967295
2.7369373 0.4644939 0.59865052 4294967295
2.7352731 0.43475518 0.59365737 4294967295
2.735692 0.40669587 0.5888682 4294967295
2.733 0.38717711 0.58909672 4294967295
2.733 0.28372777 0.59326369 4294967295
2.7333131 0.2553916 0.59100676 4294967295
2.733 0.23541521 0.59205586 4294967295
2.733 0.1572092 0.60473788 4294967295
2.733 0.13607243 0.60368109 4294967295
2.733 0.11197654 0.60431516 4294967295
2.733 -0.02879424 0.5941695 4294967295
2.7372501 -0.044723827 0.59427804 4294967295
2.74156 -0.073400058 0.59438384 4294967295
2.733 -0.094318181 0.59099901 4294967295
2.733 -0.3585276 0.60685158 4294967295
2.7351 -0.37657633 0.60121024 4294967295
2.7444501 -0.40460825 0.59640998 4294967295
2.7449999 -0.43505442 0.58715951 4294967295
2.7430501 -0.46611756 0.59445828 4294967295
2.73575 -0.48583016 0.60535371 4294967295
2.7334545 -0.56326431 0.59706628 4294967295
2.7447219 -0.58509004 0.59484726 4294967295
2.7559998 -0.64929241 0.60758251 4294967295
2.7560003 -0.67344904 0.59337276 4294967295
2.756 -0.70684195 0.58200496 4294967295
2.7559998 -0.73241949 0.58200496 4294967295
2.7530003 -0.80827141 0.5915221 4294967295
2.74172 -0.82402992 0.59441531 4294967295
2.7355001 -0.84544373 0.60270172 4294967295
2.7411664 2.2066319 0.56469572 4294967295
2.7349999 -0.049122833 0.57265037 4294967295
2.7363749 -0.07088434 0.57283664 4294967295
2.733 -0.44730198 0.57514644 4294967295
2.7385001 -0.5911687 0.57525742 4294967295
2.744875 -0.61481959 0.57221121 4294967295
2.744889 -0.64241773 0.57327139 4294967295
2.737 -0.67656302 0.57522714 4294967295
2.733 -0.70728403 0.57514644 4294967295
2.7382498 -0.73724169 0.57525241 4294967295
2.75 -0.76593149 0.57548946 4294967295
2.7458751 -0.79501599 0.57302839 4294967295
2.7346668 -0.81874716 0.57306641 4294967295
2.7429998 2.1947546 0.53715265 4294967295
2.7418571 2.20946 0.50808662 4294967295
2.75 2.2265153 0.47657132 4294967295
2.7372 2.2180612 0.46853817 4294967295
2.756 2.2249858 0.44452554 4294967295
2.7383335 2.2170725 0.44500935 4294967295
2.7425714 2.2318621 0.41807842 4294967295
2.7436249 2.2404468 0.38439399 4294967295
2.7484999 2.253994 0.34908831 4294967295
2.7366667 2.2442915 0.35723111 4294967295
2.7491431 2.2554331 0.32762295 4294967295
2.7354999 2.2465138 0.31814754 4294967295
2.7431002 2.2374678 0.29530451 4294967295
2.743 2.2343674 0.26589257 4294967295
2.756 2.2537606 0.22391909 4294967295
2.7427502 2.2429118 0.23490629 4294967295
2.7435999 2.2582483 0.20361009 4294967295
2.7406249 2.2586622 0.17946815 4294967295
2.7383335 2.2456582 0.1643967 4294967295
2.742125 2.2360435 0.14588788 4294967295
2.7391999 2.2273111 0.11768752 4294967295
2.7455001 2.2292366 0.084909976 4294967295
2.7436249 2.2293041 0.05576992 4294967295
2.7434285 2.2407379 0.026142031 4294967295
2.7449999 2.2511272 -0.0052279234 4294967295
2.7342501 2.2470739 -0.00053459406 4294967295
2.7559998 2.2537606 -0.031856537 4294967295
2.7382855 2.2438085 -0.037386298 4294967295
2.7447999 2.2433119 -0.067178607 4294967295
2.741833 2.2416317 -0.096877635 4294967295
2.7437856 2.2287505 -0.12353081 4294967295
2.7379999 2.2199829 -0.12989426 4294967295
2.7433 2.2248931 -0.15341473 4294967295
2.7379999 2.2199829 -0.15530473 4294967295
2.7445002 2.2236278 -0.17759639 4294967295
2.7412498 2.2114666 -0.18949676 4294967295
2.7354999 2.2274733 -0.22450328 4294967295
2.742238 2.2018821 -0.21360964 4294967295
2.744 2.1866484 -0.21408355 4294967295
2.756 2.2537606 -0.25566018 4294967295
2.7423332 2.2354817 -0.23977393 4294967295
2.756 2.2153943 -0.23008263 4294967295
2.756 2.2537606 -0.26525182 4294967295
2.7425711 2.2391312 -0.27824515 4294967295
2.7423334 2.2340906 -0.30412877 4294967295
2.743 2.2571263 -0.33855671 4294967295
2.744 2.2439473 -0.32231486 4294967295
2.7431667 2.266593 -0.36343199 4294967295
2.7850001 0.75252062 2.0753045 4294967295
2.7835 -0.91409904 2.0647779 4294967295
2.7765715 -0.91641963 2.0347009 4294967295
2.779 -0.91906899 2.0042522 4294967295
2.779 -0.91745704 1.9768493 4294967295
2.76475 0.75346363 1.9388995 4294967295
2.779 -0.89972574 1.9301031 4294967295
2.77 -0.90579146 1.9460773 4294967295
2.773 0.75571197 1.9174079 4294967295
2.776 -0.89875442 1.9124857 4294967295
2.7620001 0.75271422 1.8830272 4294967295
2.779 -0.89972574 1.8881925 4294967295
2.7767999 0.75674754 1.8580906 4294967295
2.7709999 -0.89584339 1.8540243 4294967295
2.7711668 0.76164198 1.8264592 4294967295
2.7708888 -0.89494586 1.8252549 4294967295
2.7741668 0.76353455 1.7914035 4294967295
2.776 -0.89875442 1.8029819 4294967295
2.7720001 -0.9022755 1.7866634 4294967295
2.7620003 2.1048677 1.7612692 4294967295
2.7620003 2.0952554 1.758065 4294967295
2.7674999 0.85052919 1.7541029 4294967295
2.7681112 0.81931376 1.7568725 4294967295
2.774833 0.79484016 1.7627298 4294967295
2.7787144 0.77337992 1.7669162 4294967295
2.7771666 -0.9109422 1.7637755 4294967295
2.7620003 2.0984595 1.7484525 4294967295
2.7720003 1.06057 1.7250206 4294967295
2.7737861 1.0358661 1.7279328 4294967295
2.7697999 1.0131779 1.7249215 4294967295
2.7744 0.87710857 1.726927 4294967295
2.7735715 0.85697538 1.7425488 4294967295
2.7753808 0.82534808 1.7387496 4294967295
2.7736518 0.79478103 1.7354592 4294967295
2.7815711 0.77463979 1.7359539 4294967295
2.77475 -0.91846108 1.7331929 4294967295
2.7810004 2.2021492 1.6934515 4294967295
2.7761254 2.1776085 1.6935378 4294967295
2.7707279 2.1424737 1.6915464 4294967295
2.7620003 2.1112761 1.6907778 4294967295
2.7620003 2.0984595 1.6907778 4294967295
2.7620003 2.0023348 1.6993222 4294967295
2.7620003 1.960681 1.6907778 4294967295
2.77442 1.7839347 1.7039182 4294967295
2.7783637 1.7554532 1.7105829 4294967295
2.7771666 1.7271148 1.7106143 4294967295
2.7729287 1.6954515 1.710103 4294967295
2.776263 1.6617852 1.7079934 4294967295
2.7642004 1.6351612 1.7006845 4294967295
2.7722006 1.5984793 1.6985244 4294967295
2.7760003 1.5744946 1.7113391 4294967295
2.7780769 1.5444491 1.7055175 4294967295
2.7656667 1.5215956 1.6944681 4294967295
2.779 1.3505405 1.6915361 4294967295
2.7707777 1.3322489 1.691633 4294967295
2.7746668 1.3047957 1.6925603 4294967295
2.7740004 1.2751553 1.6937106 4294967295
2.7783749 1.2406429 1.7001284 4294967295
2.7757144 1.2127776 1.700264 4294967295
2.7779002 1.1856399 1.6949276 4294967295
2.7770002 1.1530435 1.6966629 4294967295
2.7742777 1.1247346 1.6995362 4294967295
2.7780371 1.0953413 1.7047141 4294967295
2.7780912 1.0735062 1.7134025 4294967295
2.779125 1.0040222 1.7141453 4294967295
2.7751248 0.97761297 1.7003419 4294967295
2.7767999 0.94744265 1.6963944 4294967295
2.7774289 0.91248143 1.7046829 4294967295
2.7762499 0.89185321 1.7145269 4294967295
2.7850001 0.81390661 1.7166815 4294967295
2.7766666 0.7932182 1.7141614 4294967295
2.7850001 0.77836734 1.7199123 4294967295
2.7762501 -0.92781144 1.7161289 4294967295
2.7764542 -0.93695664 1.7033335 4294967295
2.7790003 2.253226 1.6657451 4294967295
2.7733638 2.2345986 1.678627 4294967295
2.7675002 2.2150006 1.6866881 4294967295
2.7840004 2.1410139 1.6839538 4294967295
2.7773573 2.1174972 1.6751807 4294967295
2.7620003 2.0963233 1.6822335 4294967295
2.7727308 1.9640763 1.6752768 4294967295
2.7728236 1.9363785 1.6749187 4294967295
2.7620003 1.9110166 1.6715529 4294967295
2.7730002 1.833379 1.6632713 4294967295
2.7737062 1.8131907 1.6654394 4294967295
2.7766433 1.7874407 1.6762577 4294967295
2.7850003 1.6555398 1.6779113 4294967295
2.7728128 1.6358367 1.6748419 4294967295
2.7733638 1.5993025 1.6753951 4294967295
2.7850003 1.5860767 1.6746805 4294967295
2.78425 1.537201 1.6775969 4294967295
2.7720001 1.5148245 1.6711138 4294967295
2.7675557 1.4848139 1.6645868 4294967295
2.7770002 1.462323 1.6627666 4294967295
2.77475 1.3838751 1.6639795 4294967295
2.7770588 1.3674024 1.677061 4294967295
2.7850001 1.3469948 1.6876038 4294967295
2.7850001 0.54574698 1.6746805 4294967295
2.7850001 0.53282362 1.6617571 4294967295
2.7765715 -0.92469835 1.6757859 4294967295
2.7674999 -0.93773311 1.6866881 4294967295
2.7748575 2.2627356 1.6447263 4294967295
2.7620003 2.2458506 1.6587362 4294967295
2.7810004 2.1075172 1.6536578 4294967295
2.7726672 2.0851047 1.6495367 4294967295
2.7726667 2.0543532 1.6445349 4294967295
2.779 2.0243235 1.6431711 4294967295
2.7766428 1.9940633 1.6468146 4294967295
2.7704706 1.9649903 1.6474769 4294967295
2.7620003 1.9350477 1.6507257 4294967295
2.7620003 1.9126188 1.6566001 4294967295
2.7724173 1.8737186 1.6378251 4294967295
2.7733126 1.8480459 1.6525352 4294967295
2.7790003 1.8276744 1.6592973 4294967295
2.7814004 1.6304922 1.656407 4294967295
2.7747502 1.6092016 1.6553901 4294967295
2.7808001 1.5120703 1.6535764 4294967295
2.7806361 1.4873995 1.6558574 4294967295
2.7825999 1.4504212 1.6568962 4294967295
2.7761669 1.4264356 1.6559731 4294967295
2.7777693 1.3970321 1.6553073 4294967295
2.7620001 0.62454802 1.6587362 4294967295
2.7693331 0.54482156 1.6424581 4294967295
2.7779999 0.53362906 1.6492136 4294967295
2.7676001 -0.91658044 1.6482103 4294967295
2.7802005 2.2722583 1.61463 4294967295
2.7810004 1.9655693 1.6214006 4294967295
2.7647502 1.9369775 1.6101546 4294967295
2.7710004 1.9059818 1.6135845 4294967295
2.7733335 1.8882759 1.624801 4294967295
2.7850001 0.76867479 1.6036021 4294967295
2.7814002 0.5514949 1.6151164 4294967295
2.7814002 -0.91340947 1.6151164 4294967295
2.7720003 2.2571726 1.5937145 4294967295
2.7747505 2.2368824 1.5835192 4294967295
2.7820003 2.2136993 1.5766159 4294967295
2.779 0.78743672 1.5926753 4294967295
2.7709999 0.77187586 1.5891623 4294967295
2.7789998 -0.91262126 1.5819075 4294967295
2.7748184 2.2041695 1.5563159 4294967295
2.7704999 -0.91732597 1.5572317 4294967295
2.7752225 2.2100904 1.5239536 4294967295
2.7731998 -0.92229277 1.5282122 4294967295
2.7784445 2.2241147 1.4914553 4294967295
2.7733335 2.2164404 1.5046883 4294967295
2.7757146 -0.91245371 1.4950973 4294967295
2.7724171 2.223213 1.46737 4294967295
2.7810004 2.2182777 1.4557946 4294967295
2.7820001 0.54838997 1.4636619 4294967295
2.779 0.53812349 1.4529693 4294967295
2.7751427 -0.90766209 1.4645367 4294967295
2.7764549 2.217181 1.4351242 4294967295
2.7756 0.52972782 1.4376562 4294967295
2.7744002 -0.91111064 1.4320951 4294967295
2.7774291 2.2280118 1.3999636 4294967295
2.765667 2.2146034 1.4142728 4294967295
2.7762499 0.51986897 1.4053247 4294967295
2.7771666 -0.90771604 1.4008033 4294967295
2.7770004 2.2580428 1.368542 4294967295
2.7770004 2.2408626 1.3835682 4294967295
2.7756 0.51427406 1.3745358 4294967295
2.7762501 -0.89399612 1.3763585 4294967295
2.7620001 -0.90063018 1.3831789 4294967295
2.7820003 2.2685678 1.3458617 4294967295
2.7705002 0.76786703 1.3376349 4294967295
2.7775002 0.51205593 1.346123 4294967295
2.7697999 -0.8928892 1.3496214 4294967295
2.779 -0.90617353 1.3336787 4294967295
2.7747502 2.257813 1.3163397 4294967295
2.7705004 2.2463145 1.305475 4294967295
2.773 0.51766014 1.3222783 4294967295
2.7709999 -0.90722668 1.3152592 4294967295
2.7742503 2.2316585 1.2883124 4294967295
2.7790003 2.2096968 1.2764654 4294967295
2.776 -0.89875442 1.2812879 4294967295
2.773 -0.904217 1.2965429 4294967295
2.765667 2.2006891 1.2645413 4294967295
2.7733338 2.1749759 1.250873 4294967295
2.7850001 0.51666945 1.24821 4294967295
2.776 -0.89875442 1.2619553 4294967295
2.77475 -0.90317225 1.2471354 4294967295
2.7730002 2.2547948 1.212903 4294967295
2.7732735 2.2345312 1.2176436 4294967295
2.7743638 2.2067342 1.2255206 4294967295
2.7726669 2.1780188 1.2306846 4294967295
2.779 0.51233244 1.2305217 4294967295
2.7690001 0.50726849 1.2151176 4294967295
2.776875 -0.90869433 1.2235281 4294967295
2.776 2.2546411 1.1969043 4294967295
2.7620001 0.50279003 1.2037461 4294967295
2.7771111 -0.91199189 1.1946046 4294967295
2.7805002 2.2528198 1.1744543 4294967295
2.7758894 2.2456748 1.1599452 4294967295
2.7725716 -0.92336249 1.1631775 4294967295
2.7755001 2.257612 1.1290115 4294967295
2.7740002 2.245132 1.1423485 4294967295
2.7744 -0.92783993 1.1334283 4294967295
2.779 -0.93196452 1.143477 4294967295
2.7767694 2.2702382 1.1058092 4294967295
2.7739997 -0.91337889 1.1045327 4294967295
2.7775338 2.2653372 1.0739776 4294967295
2.7735 0.52418846 1.0810974 4294967295
2.7739999 -0.90954047 1.0736904 4294967295
2.7740004 2.261646 1.0461898 4294967295
2.7766001 -0.91827524 1.0462974 4294967295
2.7730002 2.2805302 1.0038035 4294967295
2.7745004 2.276598 1.0156568 4294967295
2.7722001 -0.91037744 1.0132985 4294967295
2.7733078 2.2693756 0.9842959 4294967295
2.773 0.5112263 0.98771894 4294967295
2.7850001 0.50374609 0.98005044 4294967295
2.779 -0.90617353 0.9855175 4294967295
2.779 2.2532165 0.96723378 4294967295
2.7740002 2.2443278 0.95247626 4294967295
2.7688 0.49760389 0.95486367 4294967295
2.7708001 -0.90349966 0.95521438 4294967295
2.7820001 2.2524276 0.91501117 4294967295
2.7724285 2.2432923 0.92789733 4294967295
2.779 0.50588471 0.92424411 4294967295
2.7805002 -0.89859593 0.91802037 4294967295
2.7711999 -0.9010455 0.92955911 4294967295
2.7820001 2.2572668 0.89565396 4294967295
2.7620001 2.2458506 0.89614719 4294967295
2.7850001 0.50697696 0.89927948 4294967295
2.7807143 -0.89751142 0.89408827 4294967295
2.76475 -0.90392995 0.89411545 4294967295
2.7753749 2.2559116 0.86335874 4294967295
2.779 0.51233244 0.85977584 4294967295
2.7620001 0.50919837 0.86410564 4294967295
2.7774999 -0.89601272 0.87570143 4294967295
2.7688 -0.90283686 0.86366606 4294967295
2.779 2.2854578 0.82431316 4294967295
2.7739 2.269664 0.83727324 4294967295
2.77475 0.51798689 0.83026397 4294967295
2.7696667 -0.91596448 0.83723807 4294967295
2.7725716 2.2884343 0.80568087 4294967295
2.7620001 2.2778921 0.79361421 4294967295
2.773 0.52409399 0.7947039 4294967295
2.779 2.2822337 0.78885055 4294967295
2.7747502 2.2690852 0.7723496 4294967295
2.7674999 0.53267974 0.76848751 4294967295
2.7804999 -0.93891877 0.7728554 4294967295
2.7764444 2.2625957 0.74494928 4294967295
2.7810001 0.54926169 0.73958337 4294967295
2.7756 -0.9359718 0.74344486 4294967295
2.7708571 2.262228 0.71825349 4294967295
2.7820001 0.55161381 0.71492201 4294967295
2.7756 -0.92437881 0.71253508 4294967295
2.7761998 2.2580297 0.68551421 4294967295
2.779 0.54457122 0.6921342 4294967295
2.7738893 0.5242607 0.67895329 4294967295
2.779 0.49574858 0.67556024 4294967295
2.774857 0.46742284 0.6762476 4294967295
2.7746 0.4342443 0.68286079 4294967295
2.773 0.40506807 0.68532872 4294967295
2.7697999 0.37566093 0.68513793 4294967295
2.7753334 0.34531495 0.68333173 4294967295
2.7708001 0.31794864 0.67876887 4294967295
2.773 0.28604215 0.67889488 4294967295
2.7756 0.2541036 0.68420208 4294967295
2.7674999 0.23090209 0.68500084 4294967295
2.7620001 0.18557866 0.68467289 4294967295
2.7732499 0.16382743 0.68213308 4294967295
2.7763336 0.13286959 0.6769498 4294967295
2.7752225 0.10455537 0.67545354 4294967295
2.7741668 0.071615934 0.68003869 4294967295
2.7768002 0.046761438 0.6842736 4294967295
2.7761667 0.0147735 0.68337715 4294967295
2.7741668 -0.01635256 0.67574906 4294967295
2.7805002 -0.045427997 0.67287344 4294967295
2.7850001 -0.074573822 0.67312086 4294967295
2.7814002 -0.10673568 0.67292291 4294967295
2.7850001 -0.1327289 0.67312086 4294967295
2.7850001 -0.29427078 0.67312086 4294967295
2.7741427 -0.31518739 0.67437011 4294967295
2.779 -0.3420054 0.67279094 4294967295
2.7756 -0.4929111 0.67389637 4294967295
2.7749999 -0.52407181 0.67534029 4294967295
2.779 -0.55155623 0.67279094 4294967295
2.7850001 -0.65612459 0.67312086 4294967295
2.7825999 -0.67491913 0.67298889 4294967295
2.783 -0.7008574 0.67301089 4294967295
2.7765713 -0.88696468 0.67634189 4294967295
2.7722001 -0.90910363 0.69301045 4294967295
2.779125 2.2597668 0.65507406 4294967295
2.7620001 0.49638176 0.66544795 4294967295
2.7620001 0.47715685 0.66544795 4294967295
2.7620001 -0.054733023 0.66544795 4294967295
2.7620001 -0.14124523 0.66544795 4294967295
2.7733636 -0.16727641 0.66137993 4294967295
2.7763529 -0.19484486 0.65333503 4294967295
2.7816665 -0.22435962 0.64497411 4294967295
2.7785456 -0.25607371 0.64757168 4294967295
2.7740667 -0.28538504 0.65794361 4294967295
2.7620001 -0.3078613 0.66544795 4294967295
2.7674999 -0.35181981 0.66413552 4294967295
2.7748182 -0.37338465 0.65266937 4294967295
2.783 -0.3984513 0.64287961 4294967295
2.7827499 -0.4384895 0.64313626 4294967295
2.7706001 -0.46458432 0.65433049 4294967295
2.7620001 -0.48408991 0.66544795 4294967295
2.7685001 -0.56124175 0.66151381 4294967295
2.7776923 -0.58549279 0.6558764 4294967295
2.7752857 -0.61611277 0.6528194 4294967295
2.7732997 -0.64306992 0.6615507 4294967295
2.7620001 -0.67633921 0.66544795 4294967295
2.7691426 -0.70928997 0.66032767 4294967295
2.776294 -0.73364592 0.6540885 4294967295
2.7822726 -0.76610988 0.65184641 4294967295
2.7831998 -0.79453534 0.65365076 4294967295
2.7825 -0.82338262 0.65200961 4294967295
2.7781579 -0.85567582 0.65273869 4294967295
2.7697999 -0.87617326 0.66329026 4294967295
2.7774999 2.284224 0.61631846 4294967295
2.7733333 2.2714965 0.62885964 4294967295
2.7620001 -0.20212418 0.63554251 4294967295
2.7620001 -0.22455327 0.6334064 4294967295
2.7620001 -0.25339067 0.63661057 4294967295
2.76475 -0.38354528 0.63351935 4294967295
2.770786 -0.40665364 0.62505639 4294967295
2.7743001 -0.43475264 0.62426627 4294967295
2.7660003 -0.45852873 0.62540072 4294967295
2.7620001 -0.589827 0.63981473 4294967295
2.7620001 -0.61225611 0.63981473 4294967295
2.7620001 -0.71265298 0.61631757 4294967295
2.7700558 -0.73224097 0.62586945 4294967295
2.7819998 -0.76515645 0.62454695 4294967295
2.7801995 -0.79689646 0.62448138 4294967295
2.7685885 -0.8237958 0.62537551 4294967295
2.7620001 -0.8514998 0.63447446 4294967295
2.7744 2.2842395 0.60688049 4294967295
2.7753637 2.2666526 0.59590662 4294967295
2.779 2.2467782 0.58252239 4294967295
2.7653003 -0.43591157 0.60403305 4294967295
2.7620001 -0.4552525 0.60456902 4294967295
2.7620001 -0.5994395 0.59175241 4294967295
2.7642007 -0.61595559 0.59501374 4294967295
2.7645006 -0.64400005 0.59327316 4294967295
2.7620006 -0.67633921 0.59581101 4294967295
2.7701762 -0.70632547 0.59820247 4294967295
2.7760553 -0.7363137 0.59713572 4294967295
2.7757823 -0.76455778 0.59618771 4294967295
2.7700799 -0.79398537 0.59518588 4294967295
2.7620001 -0.8109138 0.60777318 4294967295
2.7767999 2.2295268 0.57087433 4294967295
2.7733333 2.2164407 0.55663872 4294967295
2.779 2.2161479 0.53416771 4294967295
2.7749999 2.2315733 0.50241834 4294967295
2.7733333 2.2364666 0.4715766 4294967295
2.7732856 2.2320392 0.4426735 4294967295
2.7810001 2.2569921 0.40405422 4294967295
2.7713335 2.2437818 0.42053926 4294967295
2.7765999 2.2590091 0.38276064 4294967295
2.7779999 2.2674506 0.35153425 4294967295
2.7764444 2.2661819 0.32336938 4294967295
2.7791252 2.2541163 0.29880285 4294967295
2.773 2.2483611 0.289648 4294967295
2.7825999 2.2561448 0.26624858 4294967295
2.7620001 2.2458506 0.25531605 4294967295
2.7765713 2.2604547 0.23366824 4294967295
2.77475 2.2690854 0.20580509 4294967295
2.77475 2.2701538 0.17469564 4294967295
2.7797778 2.2545578 0.14754164 4294967295
2.7656667 2.2445514 0.1394619 4294967295
2.7850001 2.2516291 0.1141859 4294967295
2.7620001 2.2394423 0.11433321 4294967295
2.7798572 2.2456248 0.083146155 4294967295
2.7768753 2.243438 0.056590766 4294967295
2.7779999 2.2562652 0.024342448 4294967295
2.7674999 2.2471058 0.033268362 4294967295
2.7726665 2.2623754 -0.0037333369 4294967295
2.7738185 2.2595465 -0.034243464 4294967295
2.7767003 2.2552164 -0.062412858 4294967295
2.7746153 2.2536142 -0.091041267 4294967295
2.7758887 2.2435269 -0.10381025 4294967295
2.7747498 2.2336695 -0.12452763 4294967295
2.7744999 2.2334692 -0.15400493 4294967295
2.77475 2.228307 -0.18153101 4294967295
2.7725 2.2114871 -0.19596845 4294967295
2.7738888 2.201165 -0.21707052 4294967295
2.7733333 2.2550483 -0.25410396 4294967295
2.7722001 2.2348249 -0.24414104 4294967295
2.7743332 2.2107961 -0.23614931 4294967295
2.7789998 2.2633543 -0.27410781 4294967295
2.783 2.2521615 -0.30200607 4294967295
2.7753999 2.2477279 -0.30490655 4294967295
2.7791111 2.2633283 -0.33379889 4294967295
2.7620001 2.2458506 -0.32143199 4294967295
2.779 2.2841723 -0.36529469 4294967295
2.7620001 2.2778921 -0.36949438 4294967295
2.7820001 2.2847011 -0.38884819 4294967295
2.8110001 -0.91225386 2.0876472 4294967295
2.7909999 0.75414181 2.0624661 4294967295
2.809 -0.91269022 2.0658896 4294967295
2.7969999 0.75576305 2.0365791 4294967295
2.8066924 -0.91569179 2.0348117 4294967295
2.7969997 0.75576305 2.0041203 4294967295
2.8043334 -0.91803938 2.0036733 4294967295
2.809 0.75900555 1.974642 4294967295
2.8036666 -0.91203344 1.9736897 4294967295
2.8150001 0.76062679 1.9451044 4294967295
2.806 -0.90303612 1.9459617 4294967295
2.8066001 0.75705081 1.9115486 4294967295
2.809 -0.90292114 1.9159974 4294967295
2.8050001 0.75502181 1.8832672 4294967295
2.809 -0.89856696 1.8779747 4294967295
2.8069999 -0.90227824 1.8922135 4294967295
2.8067503 0.75920177 1.8538266 4294967295
2.8042002 -0.89485526 1.8550334 4294967295
2.8015001 0.76021856 1.8245153 4294967295
2.8070002 -0.89412344 1.8238171 4294967295
2.8048 0.76111406 1.7967527 4294967295
2.8069999 -0.89792871 1.8075296 4294967295
2.8052502 -0.9049657 1.7937131 4294967295
2.8053999 0.76452595 1.7655729 4294967295
2.8078003 -0.91229886 1.7655532 4294967295
2.7909999 1.0552571 1.7224972 4294967295
2.7909999 1.0358303 1.7224972 4294967295
2.8056669 0.8796106 1.7273587 4294967295
2.8046672 0.85544109 1.7316186 4294967295
2.8005998 0.83211166 1.7253243 4294967295
2.8050001 0.76832372 1.7341664 4294967295
2.804579 -0.91278082 1.7331355 4294967295
2.8000002 2.2247567 1.6906338 4294967295
2.8007503 2.2099295 1.6917629 4294967295
2.7940004 2.1778803 1.691377 4294967295
2.7910001 1.7708104 1.693357 4294967295
2.7926369 1.7518156 1.6949273 4294967295
2.8006005 1.7235982 1.6977036 4294967295
2.8000004 1.6956733 1.7010907 4294967295
2.7940001 1.6738565 1.6962372 4294967295
2.7958579 1.576808 1.7007998 4294967295
2.7909999 1.5527986 1.6965948 4294967295
2.7921999 1.3310362 1.6906223 4294967295
2.803 1.3036662 1.6918916 4294967295
2.8047144 1.273317 1.6949271 4294967295
2.8079998 1.2462722 1.6972374 4294967295
2.8016152 1.218522 1.6955563 4294967295
2.7969999 1.1818963 1.6915486 4294967295
2.7980001 1.1563709 1.6908815 4294967295
2.7909999 1.1232507 1.6901193 4294967295
2.7909999 1.0941106 1.6901193 4294967295
2.7935719 1.0637863 1.7026129 4294967295
2.7970006 1.0353501 1.7050668 4294967295
2.7946005 1.0066924 1.7011328 4294967295
2.7969999 0.97315025 1.6915486 4294967295
2.8034616 0.94212598 1.6943303 4294967295
2.8071246 0.91439605 1.7054163 4294967295
2.8110001 0.8921538 1.7169747 4294967295
2.8150001 0.84553343 1.7197751 4294967295
2.8089995 0.8237493 1.7098204 4294967295
2.8051 0.79308492 1.7067475 4294967295
2.813 0.77531207 1.7167456 4294967295
2.8058567 -0.92110556 1.7068828 4294967295
2.804286 2.2616291 1.6701173 4294967295
2.8067503 2.2354093 1.6824648 4294967295
2.8122995 2.203229 1.6758757 4294967295
2.8058417 2.1756282 1.6761146 4294967295
2.7950003 2.1467693 1.6707122 4294967295
2.7955003 1.7785246 1.6676749 4294967295
2.8021429 1.7548747 1.6743439 4294967295
2.8103333 1.7258331 1.674547 4294967295
2.8105001 1.6951566 1.6738306 4294967295
2.7976668 1.6675826 1.6705476 4294967295
2.7956672 1.5753284 1.6723742 4294967295
2.79175 1.5494379 1.6709982 4294967295
2.7952356 1.3618555 1.670526 4294967295
2.8051426 1.3364979 1.6767451 4294967295
2.8127892 1.3075314 1.6772674 4294967295
2.8150001 1.2811195 1.6745586 4294967295
2.8150003 1.2411424 1.6852527 4294967295
2.8130002 1.214053 1.6819354 4294967295
2.8099997 1.1879359 1.6855806 4294967295
2.8105001 1.1522906 1.6868753 4294967295
2.80825 1.1240848 1.6814564 4294967295
2.8062997 1.0935885 1.6795851 4294967295
2.8085001 1.0634977 1.6778923 4294967295
2.8061433 1.0354071 1.6759948 4294967295
2.8055387 1.0049212 1.6759255 4294967295
2.8100431 0.97642261 1.6782483 4294967295
2.8132858 0.94758731 1.6836089 4294967295
2.812 0.66195136 1.6630363 4294967295
2.8110001 0.64214063 1.6789429 4294967295
2.7969999 0.61948317 1.6796558 4294967295
2.7909999 0.54044712 1.6706924 4294967295
2.8066001 0.52783459 1.6706152 4294967295
2.8072002 -0.91926402 1.6741031 4294967295
2.8080001 2.2843289 1.6418675 4294967295
2.799 2.2737682 1.6523405 4294967295
2.8150003 2.1909771 1.6511967 4294967295
2.813 2.1720171 1.6471226 4294967295
2.8102632 2.1450777 1.6446446 4294967295
2.8038576 2.1167657 1.6457671 4294967295
2.8030002 2.0860715 1.6431067 4294967295
2.8065999 2.0554798 1.639773 4294967295
2.8055003 2.0240979 1.6376048 4294967295
2.7970004 1.9972105 1.638762 4294967295
2.8090003 1.8962848 1.6324922 4294967295
2.8050001 1.8729503 1.6395758 4294967295
2.8074346 1.8429644 1.6462873 4294967295
2.8045552 1.8150603 1.6478082 4294967295
2.8096666 1.7867393 1.6472205 4294967295
2.8129995 1.7546172 1.6505431 4294967295
2.8150005 1.7239907 1.647931 4294967295
2.8145387 1.6943231 1.6492513 4294967295
2.8095996 1.6636434 1.6483582 4294967295
2.8073633 1.6355091 1.6442504 4294967295
2.8057272 1.6028943 1.6483327 4294967295
2.8073332 1.5752608 1.6495452 4294967295
2.8045001 1.5438148 1.6469502 4294967295
2.8039474 1.5150193 1.6414244 4294967295
2.8037503 1.4845294 1.6439373 4294967295
2.8022501 1.455025 1.6438841 4294967295
2.802727 1.4244291 1.6418105 4294967295
2.8052499 1.3928467 1.6437272 4294967295
2.8058798 1.3651518 1.646595 4294967295
2.8081424 1.3361597 1.6457988 4294967295
2.8085194 1.3062387 1.6453344 4294967295
2.8138001 1.2799668 1.6448406 4294967295
2.8107145 1.0315008 1.6555283 4294967295
2.8115714 1.0094488 1.6568047 4294967295
2.8150001 0.79001755 1.6348685 4294967295
2.8120003 0.76959568 1.6336803 4294967295
2.8050001 0.54640752 1.6374044 4294967295
2.8050001 0.53231204 1.6493343 4294967295
2.8021426 -0.91649717 1.6437024 4294967295
2.8090003 2.2840559 1.6248816 4294967295
2.8060002 2.2646761 1.6104693 4294967295
2.8138003 2.2357368 1.6082792 4294967295
2.8150003 2.2092648 1.6035184 4294967295
2.8150003 2.1713831 1.6283371 4294967295
2.8150003 2.0407577 1.6283371 4294967295
2.8150005 2.0230298 1.625538 4294967295
2.8090003 1.9929553 1.6199878 4294967295
2.8042002 1.9665598 1.6149663 4294967295
2.8055716 1.9362535 1.6181155 4294967295
2.8036671 1.9031336 1.6253154 4294967295
2.8150003 1.8807414 1.6283371 4294967295
2.8149998 1.4529425 1.6283371 4294967295
2.8150001 1.4268174 1.6283371 4294967295
2.8150001 1.4072236 1.6283371 4294967295
2.8150001 1.3549733 1.6283371 4294967295
2.8142502 1.3325762 1.6239598 4294967295
2.8117692 1.305741 1.6210384 4294967295
2.8150001 1.2844354 1.6257247 4294967295
2.813 0.81447655 1.6079699 4294967295
2.8076155 0.7952171 1.6179224 4294967295
2.803 0.76387507 1.6194814 4294967295
2.8150001 0.7475642 1.6218059 4294967295
2.812 0.55103791 1.6238904 4294967295
2.8083334 -0.90993601 1.6141227 4294967295
2.7910001 2.25648 1.599461 4294967295
2.8003337 2.2315223 1.5944103 4294967295
2.8076363 2.2065442 1.5842836 4294967295
2.8150001 0.84553343 1.5956808 4294967295
2.812 0.82832849 1.5945344 4294967295
2.7969999 0.80444139 1.595292 4294967295
2.8053076 -0.91023451 1.5874554 4294967295
2.8063915 2.2063324 1.5552974 4294967295
2.806 -0.91914845 1.5550303 4294967295
2.8 2.2215257 1.5152395 4294967295
2.8063753 2.2151725 1.5268493 4294967295
2.8057272 -0.91782957 1.5258459 4294967295
2.8004289 2.2246428 1.4935768 4294967295
2.8126926 2.2157815 1.4949006 4294967295
2.8150001 0.55162579 1.4846491 4294967295
2.8057275 -0.90777123 1.4962583 4294967295
2.7987144 2.2218897 1.4679254 4294967295
2.8083336 2.2150853 1.462817 4294967295
2.8009999 0.54454672 1.4711895 4294967295
2.809 0.53219306 1.4604284 4294967295
2.8072 -0.9075439 1.4656882 4294967295
2.805182 2.223561 1.4327562 4294967295
2.8090005 2.2177866 1.4402162 4294967295
2.8055711 0.52187246 1.4349172 4294967295
2.8089998 -0.91305304 1.4355123 4294967295
2.8090003 2.2514806 1.3913499 4294967295
2.8061578 2.2341082 1.4072468 4294967295
2.8056667 0.51506853 1.4054968 4294967295
2.8102002 -0.89547211 1.3982422 4294967295
2.806 -0.90737396 1.4099505 4294967295
2.8150003 2.2824149 1.3638203 4294967295
2.8055003 2.2665632 1.3777865 4294967295
2.8150001 0.76062679 1.3605547 4294967295
2.803 0.51187247 1.3797231 4294967295
2.8105001 0.50672048 1.3657318 4294967295
2.8043334 -0.89129072 1.3747122 4294967295
2.8114004 2.2834065 1.3490381 4294967295
2.8066003 2.2755766 1.3358903 4294967295
2.8150001 0.78022063 1.3540235 4294967295
2.806 0.51079971 1.3480983 4294967295
2.7969999 0.50916135 1.3551799 4294967295
2.8018003 -0.89540118 1.3526971 4294967295
2.8029997 -0.90423727 1.3374519 4294967295
2.8046367 2.2615709 1.3219705 4294967295
2.8075001 2.2362487 1.3117495 4294967295
2.8140004 2.2152236 1.3058496 4294967295
2.8150001 0.51896936 1.3148358 4294967295
2.812 -0.8973611 1.3042057 4294967295
2.8043334 -0.90574735 1.3161674 4294967295
2.7970002 2.228874 1.2967743 4294967295
2.8044116 2.2049038 1.2850509 4294967295
2.7970002 2.1899462 1.2708162 4294967295
2.809 0.51893437 1.2827307 4294967295
2.8009999 -0.89745307 1.2834408 4294967295
2.8030002 2.1913505 1.2691612 4294967295
2.8030002 2.1823461 1.2543523 4294967295
2.80075 0.51633006 1.2612634 4294967295
2.8078003 0.50590795 1.2502723 4294967295
2.809 -0.89802611 1.2626216 4294967295
2.802 -0.90282965 1.249401 4294967295
2.7910001 2.2500043 1.2109251 4294967295
2.8034286 2.233516 1.2153857 4294967295
2.8062313 2.2026646 1.2232013 4294967295
2.8015001 2.1804593 1.2346432 4294967295
2.803 0.50301212 1.225445 4294967295
2.8150001 -0.89831847 1.2136009 4294967295
2.8016667 -0.90416765 1.2251151 4294967295
2.8010004 2.2541502 1.1930325 4294967295
2.8106365 2.2456672 1.1973964 4294967295
2.803 0.50375021 1.2073925 4294967295
2.8149998 -0.89831853 1.1972727 4294967295
2.8034286 -0.90715909 1.1935506 4294967295
2.8000002 2.2523754 1.1757967 4294967295
2.8082497 2.2391822 1.1622583 4294967295
2.8054001 -0.92040622 1.1658828 4294967295
2.7956669 2.2580853 1.1263087 4294967295
2.8069999 2.2374735 1.135422 4294967295
2.8042855 -0.92229879 1.1351991 4294967295
2.8021727 2.2634726 1.1033851 4294967295
2.8103845 2.2337728 1.105376 4294967295
2.8150005 2.2141993 1.1043835 4294967295
2.8149998 -0.89614141 1.0949492 4294967295
2.8046365 -0.90801185 1.1066353 4294967295
2.7957149 2.2588937 1.076804 4294967295
2.8068576 2.2341566 1.0732055 4294967295
2.8150003 2.2157958 1.0784035 4294967295
2.8150001 0.53203195 1.0797096 4294967295
2.8149998 -0.89614141 1.0840638 4294967295
2.8035457 -0.90707368 1.0738671 4294967295
2.8000002 2.2604942 1.0403352 4294967295
2.8080769 2.23719 1.0470014 4294967295
2.8057694 -0.91488725 1.0453131 4294967295
2.7944288 2.2814779 1.0126381 4294967295
2.8065171 2.2656434 1.0144731 4294967295
2.8107498 2.2338557 1.013108 4294967295
2.8150001 2.2171021 1.0045999 4294967295
2.8065002 -0.9091537 1.0161488 4294967295
2.7940001 2.2815909 0.99774349 4294967295
2.801435 2.2615023 0.98573244 4294967295
2.8101993 2.2328765 0.98421311 4294967295
2.8150001 2.2090635 0.98324764 4294967295
2.803 0.51350534 0.99603069 4294967295
2.8074999 0.50130373 0.98377585 4294967295
2.8036668 -0.90481204 0.98494589 4294967295
2.80375 2.2521398 0.95549154 4294967295
2.8100717 2.2367179 0.95554787 4294967295
2.8150003 2.207602 0.96333408 4294967295
2.8060002 0.49777898 0.9574604 4294967295
2.8150001 -0.89831847 0.94581842 4294967295
2.8003335 -0.90301329 0.95478779 4294967295
2.8034616 2.2545314 0.9238053 4294967295
2.8145385 2.2418535 0.92691004 4294967295
2.803 0.50536907 0.92938089 4294967295
2.8046362 -0.89381242 0.92324901 4294967295
2.8065455 2.2607393 0.89481455 4294967295
2.8149998 2.2416906 0.89721799 4294967295
2.806 0.51079971 0.88585991 4294967295
2.7909999 0.50806916 0.90009654 4294967295
2.8044116 -0.88841307 0.89618564 4294967295
2.8067143 2.2604811 0.86409473 4294967295
2.8149996 2.2396352 0.86287117 4294967295
2.8069999 0.51314032 0.86757201 4294967295
2.8074999 -0.89591461 0.87303293 4294967295
2.8054001 -0.90956533 0.8577953 4294967295
2.7969999 2.2872798 0.82303953 4294967295
2.8040714 2.2658644 0.83472061 4294967295
2.8109996 2.2349625 0.83506894 4294967295
2.8125999 2.2165124 0.82733941 4294967295
2.8069999 0.5174945 0.84364718 4294967295
2.7969999 -0.92177016 0.83927023 4294967295
2.7991002 2.2886658 0.80638587 4294967295
2.8085194 2.266732 0.80421913 4294967295
2.8066518 2.2340212 0.80369401 4294967295
2.812273 2.2155428 0.80927062 4294967295
2.8005998 0.52410758 0.80392754 4294967295
2.809 -0.94039249 0.8031652 4294967295
2.8062303 2.2672634 0.77570629 4294967295
2.8139093 2.2405753 0.77976149 4294967295
2.806 0.53358263 0.77844876 4294967295
2.8150001 -0.94403744 0.77600509 4294967295
2.8082173 2.2678292 0.74578857 4294967295
2.812 0.54777926 0.75289023 4294967295
2.8070002 -0.93917978 0.7448864 4294967295
2.8081429 2.2661242 0.71441555 4294967295
2.8150001 2.2481256 0.70579386 4294967295
2.809 0.55045003 0.70377547 4294967295
2.8149998 0.40140635 0.70089537 4294967295
2.8150001 0.37528124 0.70089537 4294967295
2.8150001 0.35568738 0.70089537 4294967295
2.8149998 0.21853051 0.70089537 4294967295
2.8150001 0.20546792 0.70089537 4294967295
2.8150001 0.045451552 0.70089537 4294967295
2.8150001 0.029123353 0.70089537 4294967295
2.8084545 -0.9187277 0.71172822 4294967295
2.7969999 -0.9315114 0.72569674 4294967295
2.8055265 2.2610075 0.6855514 4294967295
2.8149998 2.2475812 0.69218701 4294967295
2.803 0.5427708 0.6936208 4294967295
2.8056667 0.52230698 0.69090176 4294967295
2.802 0.49381766 0.68489921 4294967295
2.80825 0.4655948 0.690696 4294967295
2.802 0.43962929 0.69140035 4294967295
2.7993999 0.40568528 0.69339782 4294967295
2.7970002 0.37286484 0.69324917 4294967295
2.803 0.34246773 0.69232565 4294967295
2.8036001 0.31521934 0.69041872 4294967295
2.8036668 0.28414261 0.69078404 4294967295
2.8041999 0.25671825 0.69239998 4294967295
2.7958 0.22354062 0.69317484 4294967295
2.8015001 0.19472043 0.69352788 4294967295
2.8040001 0.16563976 0.69043803 4294967295
2.8077998 0.13327651 0.68740356 4294967295
2.8041999 0.10707516 0.68589377 4294967295
2.8050003 0.07602784 0.69086045 4294967295
2.803 0.045257796 0.6936208 4294967295
2.8050001 0.013833604 0.69266546 4294967295
2.8045001 -0.017344898 0.68640256 4294967295
2.8066001 -0.043893941 0.68212646 4294967295
2.809 -0.075216465 0.68095773 4294967295
2.809 -0.10454459 0.68095773 4294967295
2.8070002 -0.13594055 0.67976385 4294967295
2.8066001 -0.16632004 0.67757404 4294967295
2.8067501 -0.19562818 0.6775806 4294967295
2.8096001 -0.22516662 0.67773902 4294967295
2.812 -0.25471559 0.67787099 4294967295
2.8053079 -0.28339252 0.68075901 4294967295
2.8054001 -0.31466103 0.68662262 4294967295
2.8055718 -0.3438783 0.6835584 4294967295
2.8075001 -0.37238291 0.67680538 4294967295
2.8150001 -0.39867553 0.67477024 4294967295
2.8150001 -0.44766012 0.67477024 4294967295
2.806 -0.46818671 0.67672122 4294967295
2.8055711 -0.49637383 0.68356037 4294967295
2.8070002 -0.52670372 0.68627656 4294967295
2.8052502 -0.55430752 0.68238264 4294967295
2.8070002 -0.58460641 0.67795426 4294967295
2.8077998 -0.61588991 0.67763722 4294967295
2.8030002 -0.64410144 0.67736918 4294967295
2.8102002 -0.67509764 0.68429214 4294967295
2.8076668 -0.7056101 0.68306303 4294967295
2.8048 -0.73236471 0.67877436 4294967295
2.8047996 -0.7649098 0.67746812 4294967295
2.8083334 -0.79700249 0.67730653 4294967295
2.8102002 -0.82505959 0.6758126 4294967295
2.8072858 -0.85769951 0.67621219 4294967295
2.8048 -0.88529718 0.68397993 4294967295
2.7989998 -0.90619159 0.6955362 4294967295
2.8051 2.2636244 0.65373176 4294967295
2.7909999 -0.2042464 0.6637373 4294967295
2.7952859 -0.22494769 0.6611858 4294967295
2.7959998 -0.25380242 0.66183865 4294967295
2.7909999 -0.27547795 0.66697514 4294967295
2.7946 -0.38087717 0.66457444 4294967295
2.8008823 -0.40680397 0.65719354 4294967295
2.803375 -0.4331997 0.65992051 4294967295
2.7949998 -0.45528385 0.66286635 4294967295
2.7909999 -0.58954436 0.66697514 4294967295
2.793 -0.61156142 0.6660012 4294967295
2.7909999 -0.63163573 0.66697514 4294967295
2.7909999 -0.7449587 0.66697514 4294967295
2.7909997 -0.76114762 0.66697514 4294967295
2.7909999 -0.83561701 0.66697514 4294967295
2.7940001 -0.85595596 0.66713309 4294967295
2.7939999 2.2815909 0.61527264 4294967295
2.8071744 2.2703774 0.62506562 4294967295
2.7909999 2.2823822 0.60869473 4294967295
2.8044999 2.2624881 0.59936744 4294967295
2.8124287 2.2486246 0.59260488 4294967295
2.8076155 2.2353253 0.56462425 4294967295
2.8070002 2.2281561 0.53322768 4294967295
2.809 2.2514806 0.4919543 4294967295
2.8068819 2.2386556 0.5046137 4294967295
2.803 2.2515352 0.48388144 4294967295
2.8085999 2.2428854 0.47415161 4294967295
2.8057692 2.2350912 0.44616687 4294967295
2.8053071 2.2585201 0.40987179 4294967295
2.809 2.2422245 0.42243117 4294967295
2.8066919 2.2681482 0.38527966 4294967295
2.8081112 2.2686019 0.35393041 4294967295
2.8128185 2.2379289 0.34715694 4294967295
2.812 2.217998 0.341865 4294967295
2.8010802 2.2646165 0.32514924 4294967295
2.7984121 2.2334409 0.32440737 4294967295
2.8027141 2.212353 0.32233748 4294967295
2.799 2.2535572 0.29433745 4294967295
2.8032725 2.2341647 0.29421687 4294967295
2.8108001 2.2131369 0.30085382 4294967295
2.8069 2.2595482 0.2640278 4294967295
2.8138747 2.2394733 0.2670708 4294967295
2.8069997 2.2685263 0.23450977 4294967295
2.7969999 2.2807994 0.19355634 4294967295
2.8085001 2.2711489 0.20307124 4294967295
2.7950001 2.281327 0.18514171 4294967295
2.8044481 2.2648633 0.17407575 4294967295
2.8144548 2.2433851 0.17430541 4294967295
2.8025997 2.2541392 0.14608634 4294967295
2.8119996 2.2375677 0.14613542 4294967295
2.8034003 2.2534871 0.11475697 4294967295
2.8128996 2.2382848 0.11338153 4294967295
2.801286 2.2527142 0.090926856 4294967295
2.8087139 2.2397454 0.08265534 4294967295
2.8009999 2.2515533 0.043617129 4294967295
2.8087597 2.2411001 0.056632787 4294967295
2.8052497 2.260251 0.024997652 4294967295
2.8150001 2.2448599 0.033071965 4294967295
2.8073196 2.2673044 -0.005911231 4294967295
2.8037195 2.2602391 -0.034900665 4294967295
2.8150001 2.2484522 -0.035833061 4294967295
2.8003333 2.2549832 -0.065273643 4294967295
2.8150003 2.2464929 -0.06326437 4294967295
2.8016665 2.2528102 -0.087222695 4294967295
2.8098998 2.2391486 -0.098381877 4294967295
2.812 2.217998 -0.10831308 4294967295
2.7980917 2.2294428 -0.12261271 4294967295
2.812273 2.215543 -0.12557518 4294967295
2.8035712 2.2331669 -0.15506142 4294967295
2.812 2.217998 -0.14419681 4294967295
2.8056247 2.2333012 -0.18377656 4294967295
2.809 2.2221456 -0.20213753 4294967295
2.8057694 2.2123234 -0.21757668 4294967295
2.7909999 2.253242 -0.25903511 4294967295
2.8000002 2.2279897 -0.25505078 4294967295
2.8055711 2.2105863 -0.24404073 4294967295
2.8039474 2.2635026 -0.27737331 4294967295
2.8108749 2.2395208 -0.27111304 4294967295
2.802294 2.2552714 -0.30118853 4294967295
2.8125999 2.2426138 -0.30508554 4294967295
2.805625 2.2617805 -0.33594239 4294967295
2.8138001 2.2435744 -0.32676816 4294967295
2.8068569 2.2906826 -0.36579633 4294967295
2.8150001 2.2726181 -0.35390645 4294967295
2.8094614 2.2914495 -0.39003944 4294967295
2.813 2.2688217 -0.39788109 4294967295
2.8120003 2.2343149 -0.39798599 4294967295
2.809 2.2156281 -0.4041757 4294967295
2.8269999 0.75731009 2.0889208 4294967295
2.8387694 -0.89221603 2.0941801 4294967295
2.8240001 -0.90446311 2.0905321 4294967295
2.8269999 0.75731009 2.065964 4294967295
2.8392224 -0.89652956 2.0675178 4294967295
2.8256667 -0.90463138 2.0666847 4294967295
2.8270001 0.75731009 2.03316 4294967295
2.8319333 -0.90765101 2.0357938 4294967295
2.8354001 0.75956029 2.0047631 4294967295
2.8311665 -0.91112411 2.0047302 4294967295
2.8418 0.76127481 1.9751523 4294967295
2.839 -0.89939034 1.9638413 4294967295
2.8321667 -0.90488011 1.9789752 4294967295
2.8379998 0.75893611 1.9402827 4294967295
2.8271666 -0.90110052 1.9479768 4294967295
2.8306 0.75432509 1.9142431 4294967295
2.839 -0.89939034 1.9012651 4294967295
2.8307998 -0.90203989 1.9169618 4294967295
2.8341999 0.75266308 1.8857727 4294967295
2.8340001 -0.89309877 1.88098 4294967295
2.8210001 -0.90023321 1.8957803 4294967295
2.8352001 0.75620681 1.8566386 4294967295
2.8304999 -0.88519007 1.8549863 4294967295
2.8269999 0.75731009 1.8232764 4294967295
2.8328235 -0.88350159 1.8247858 4294967295
2.8329999 0.75891739 1.7931772 4294967295
2.8351109 -0.89596248 1.7984926 4294967295
2.8252857 -0.90347093 1.7887635 4294967295
2.8329999 0.75891739 1.7635986 4294967295
2.8392 -0.89813304 1.7643434 4294967295
2.8252857 -0.90534091 1.7653619 4294967295
2.8210001 0.87678903 1.7223324 4294967295
2.8210001 0.86042607 1.7223324 4294967295
2.8326666 0.76100373 1.7327818 4294967295
2.8354001 -0.89495635 1.7350483 4294967295
2.8210001 -0.90023321 1.7354227 4294967295
2.8270001 0.9127515 1.6966811 4294967295
2.828846 0.88401437 1.7044572 4294967295
2.8278999 0.8540023 1.7055755 4294967295
2.8251998 0.82696879 1.6965853 4294967295
2.8248177 0.79485488 1.695356 4294967295
2.8352504 0.76904535 1.7037203 4294967295
2.846 0.66335177 1.6933683 4294967295
2.839 0.64195931 1.6970693 4294967295
2.8329999 0.54200697 1.6945816 4294967295
2.8393333 -0.89729488 1.714775 4294967295
2.8304999 -0.90858871 1.7041979 4294967295
2.8294001 2.2638824 1.6668181 4294967295
2.8242307 2.2369721 1.6692631 4294967295
2.8210003 2.2120099 1.6634256 4294967295
2.8209999 1.2744099 1.6759704 4294967295
2.8216312 1.2468675 1.6716032 4294967295
2.8292105 1.2153152 1.6695033 4294967295
2.8356087 1.1858201 1.6733259 4294967295
2.8328097 1.155089 1.6728812 4294967295
