# .PCD v0.7 - Point Cloud Data file format
VERSION 0.7
FIELDS x y z rgb
SIZE 4 4 4 4
TYPE F F F U
COUNT 1 1 1 1
WIDTH 1065
HEIGHT 1
VIEWPOINT 0 0 0 1 0 0 0
POINTS 1065
DATA ascii
1.963174 0.71492535 -0.47352198 4278190080
1.9794083 0.71302098 -0.4768962 4278190080
1.9864746 0.70774192 -0.478021 4278190080
2.0073125 0.70728028 -0.48252001 4278190080
2.0281718 0.70668072 -0.48701903 4278190080
2.0536568 0.70753205 -0.49264282 4278190080
2.0699489 0.70507115 -0.49601707 4278190080
2.0908661 0.70405984 -0.50051606 4278190080
2.1071784 0.70137358 -0.50389034 4278190080
2.1327531 0.7016257 -0.50951409 4278190080
2.1537216 0.70020258 -0.51401311 4278190080
2.1839831 0.7016207 -0.52076173 4278190080
2.2049932 0.69988805 -0.52526075 4278190080
2.2354372 0.70054322 -0.53200924 4278190080
2.2611382 0.69993979 -0.537633 4278190080
2.2915218 0.70058852 -0.5443815 4278190080
2.3172731 0.69962549 -0.55000532 4278190080
2.3103633 0.68874949 -0.54775578 4278190080
2.3548164 0.69305986 -0.55787861 4278190080
2.2964017 0.66716689 -0.54325676 4278190080
2.2331531 0.64034635 -0.52751023 4278190080
2.1556823 0.60999614 -0.50838935 4278190080
2.1249516 0.59329742 -0.50051606 4278190080
2.1177175 0.58291954 -0.49826658 4278190080
2.1197395 0.57552332 -0.49826658 4278190080
2.0983033 0.56145412 -0.49264282 4278190080
2.1142848 0.55822372 -0.49601707 4278190080
2.111506 0.54961246 -0.49489233 4278190080
2.1181304 0.54345 -0.49601707 4278190080
2.1200144 0.53605258 -0.49601707 4278190080
2.1266003 0.5298264 -0.49714184 4278190080
2.1284366 0.52240068 -0.49714184 4278190080
2.1302474 0.51496738 -0.49714184 4278190080
2.136771 0.50865716 -0.49826658 4278190080
2.1432772 0.50230658 -0.49939135 4278190080
2.1450176 0.49482161 -0.49939135 4278190080
2.1514823 0.48841029 -0.50051606 4278190080
2.1580133 0.48158172 -0.50164086 4278190080
2.1644394 0.47509107 -0.5027656 4278190080
2.1708469 0.46856031 -0.50389034 4278190080
2.1629379 0.458958 -0.50164086 4278190080
2.1692958 0.45239925 -0.5027656 4278190080
2.1994979 0.45069149 -0.50951409 4278190080
2.3156836 0.46608278 -0.53650826 4278190080
2.4415605 0.48255607 -0.56575185 4278190080
2.4097514 0.46753582 -0.55787861 4278190080
2.3826537 0.45365354 -0.55113012 4278190080
2.4081678 0.4498058 -0.55675381 4278190080
2.4001389 0.43964216 -0.55450433 4278190080
2.401659 0.43126091 -0.55450433 4278190080
2.3984253 0.42161241 -0.5533796 4278190080
2.3998826 0.41323727 -0.5533796 4278190080
2.3965061 0.40404838 -0.5522548 4278190080
2.397902 0.39568004 -0.5522548 4278190080
2.394459 0.38653177 -0.55113012 4278190080
2.3909812 0.37741107 -0.55000532 4278190080
2.3922842 0.36906219 -0.55000532 4278190080
2.3935578 0.36071005 -0.55000532 4278190080
2.3899825 0.35164312 -0.54888058 4278190080
2.3911953 0.34329915 -0.54888058 4278190080
2.392379 0.33494973 -0.54888058 4278190080
2.3887067 0.32593754 -0.54775578 4278190080
2.3898296 0.31759816 -0.54775578 4278190080
2.3909237 0.30925366 -0.54775578 4278190080
2.3871548 0.30029857 -0.54663104 4278190080
2.3833528 0.29137233 -0.5455063 4278190080
2.3843555 0.2830506 -0.5455063 4278190080
2.3804889 0.27416924 -0.5443815 4278190080
2.3814316 0.26585761 -0.5443815 4278190080
2.3823898 0.25712779 -0.5443815 4278190080
2.3832729 0.24880962 -0.5443815 4278190080
2.3841269 0.24048969 -0.5443815 4278190080
2.3849518 0.23216556 -0.5443815 4278190080
2.3808973 0.22338353 -0.54325676 4278190080
2.3816626 0.21507205 -0.54325676 4278190080
2.3775451 0.20633544 -0.54213202 4278190080
2.3782508 0.19803576 -0.54213202 4278190080
2.3789277 0.1897324 -0.54213202 4278190080
2.3795755 0.18142673 -0.54213202 4278190080
2.3801942 0.17312013 -0.54213202 4278190080
2.380784 0.16481014 -0.54213202 4278190080
2.3813448 0.1564994 -0.54213202 4278190080
2.3818765 0.14818549 -0.54213202 4278190080
2.3823793 0.13986978 -0.54213202 4278190080
2.3828299 0.13196993 -0.54213202 4278190080
2.3832977 0.12323462 -0.54213202 4278190080
2.3837132 0.11491537 -0.54213202 4278190080
2.3841 0.10659345 -0.54213202 4278190080
2.3844576 0.09827023 -0.54213202 4278190080
2.3847861 0.089947082 -0.54213202 4278190080
2.3850856 0.081621572 -0.54213202 4278190080
2.3853559 0.073296331 -0.54213202 4278190080
2.3855972 0.064968936 -0.54213202 4278190080
2.3858094 0.05664074 -0.54213202 4278190080
2.3811219 0.048214503 -0.54100728 4278190080
2.3764045 0.03982041 -0.53988248 4278190080
2.376529 0.031525727 -0.53988248 4278190080
2.3766246 0.023229394 -0.53988248 4278190080
2.3766911 0.01493278 -0.53988248 4278190080
2.3767288 0.0066372477 -0.53988248 4278190080
2.3816094 -0.0016626773 -0.54100728 4278190080
2.3815873 -0.010391701 -0.54100728 4278190080
2.3815365 -0.018704928 -0.54100728 4278190080
2.376585 -0.026962658 -0.53988248 4278190080
2.3764765 -0.035258327 -0.53988248 4278190080
2.376339 -0.043553557 -0.53988248 4278190080
2.3761723 -0.051848266 -0.53988248 4278190080
2.375977 -0.060142342 -0.53988248 4278190080
2.3757524 -0.068435684 -0.53988248 4278190080
2.3754992 -0.076728188 -0.53988248 4278190080
2.375217 -0.08501976 -0.53988248 4278190080
2.3700376 -0.093119033 -0.53875774 4278190080
2.3696983 -0.10139144 -0.53875774 4278190080
2.3693106 -0.11007614 -0.53875774 4278190080
2.368912 -0.1183459 -0.53875774 4278190080
2.3684845 -0.12661423 -0.53875774 4278190080
2.3680515 -0.13446771 -0.53875774 4278190080
2.3675678 -0.14273293 -0.53875774 4278190080
2.3670552 -0.15099642 -0.53875774 4278190080
2.3713744 -0.15958516 -0.53988248 4278190080
2.3708029 -0.16786185 -0.53988248 4278190080
2.365344 -0.17577542 -0.53875774 4278190080
2.3646839 -0.18444367 -0.53875774 4278190080
2.3640258 -0.19269682 -0.53875774 4278190080
2.3633387 -0.20094766 -0.53875774 4278190080
2.3626227 -0.20919602 -0.53875774 4278190080
2.3667295 -0.21788846 -0.53988248 4278190080
2.3708043 -0.22661212 -0.54100728 4278190080
2.3699989 -0.23488639 -0.54100728 4278190080
2.3691645 -0.2431578 -0.54100728 4278190080
2.3683014 -0.25142625 -0.54100728 4278190080
2.3625662 -0.2591604 -0.53988248 4278190080
2.3616474 -0.26740572 -0.53988248 4278190080
2.3606994 -0.27564776 -0.53988248 4278190080
2.3645599 -0.28446838 -0.54100728 4278190080
2.3635526 -0.2927205 -0.54100728 4278190080
2.3625164 -0.30096906 -0.54100728 4278190080
2.3614514 -0.30921397 -0.54100728 4278190080
2.365186 -0.31810445 -0.54213202 4278190080
2.3640611 -0.32635856 -0.54213202 4278190080
2.3629074 -0.3346087 -0.54213202 4278190080
2.3617251 -0.34285474 -0.54213202 4278190080
2.3653328 -0.35181335 -0.54325676 4278190080
2.3640904 -0.36006775 -0.54325676 4278190080
2.3628192 -0.36831775 -0.54325676 4278190080
2.3663301 -0.37733048 -0.5443815 4278190080
2.407234 -0.38816237 -0.46652797 4278190080
2.4058645 -0.39656281 -0.46652797 4278190080
2.4044654 -0.40495846 -0.46652797 4278190080
2.4078743 -0.41418117 -0.46748206 4278190080
2.406414 -0.4225837 -0.46748206 4278190080
2.4049242 -0.43098107 -0.46748206 4278190080
2.4034052 -0.4393732 -0.46748206 4278190080
2.4018569 -0.44775999 -0.46748206 4278190080
2.4051011 -0.4570576 -0.46843606 4278190080
2.4034908 -0.4654502 -0.46843606 4278190080
2.4018514 -0.47383708 -0.46843606 4278190080
2.404995 -0.48318502 -0.46939012 4278190080
2.4032936 -0.49157709 -0.46939012 4278190080
2.406368 -0.50096345 -0.47034416 4278190080
2.4046047 -0.50936019 -0.47034416 4278190080
2.402812 -0.51775074 -0.47034416 4278190080
2.4009902 -0.52613497 -0.47034416 4278190080
2.3991389 -0.53451282 -0.47034416 4278190080
2.4020457 -0.54396814 -0.47129822 4278190080
2.4001322 -0.55234957 -0.47129822 4278190080
2.3981895 -0.5607242 -0.47129822 4278190080
2.3962176 -0.56909204 -0.47129822 4278190080
2.3942165 -0.57745296 -0.47129822 4278190080
2.3921862 -0.58580679 -0.47129822 4278190080
2.3947859 -0.59575552 -0.47225225 4278190080
2.3926919 -0.60411125 -0.47225225 4278190080
2.395323 -0.61367774 -0.47320631 4278190080
2.3931663 -0.62203526 -0.47320631 4278190080
2.3909805 -0.63038522 -0.47320631 4278190080
2.393507 -0.63999522 -0.47416034 4278190080
2.3912582 -0.64834625 -0.47416034 4278190080
2.3937132 -0.65799028 -0.47511441 4278190080
2.391402 -0.66634184 -0.47511441 4278190080
2.3890615 -0.67468536 -0.47511441 4278190080
2.3914104 -0.68437099 -0.47606841 4278190080
2.3890069 -0.69271439 -0.47606841 4278190080
2.3912835 -0.70243275 -0.4770225 4278190080
2.3888171 -0.71077555 -0.4770225 4278190080
2.3910208 -0.72052592 -0.4779765 4278190080
2.3884912 -0.72886765 -0.4779765 4278190080
2.3859322 -0.73720068 -0.4779765 4278190080
2.3833444 -0.74552464 -0.4779765 4278190080
2.3854067 -0.75532115 -0.47893056 4278190080
2.3827558 -0.76364321 -0.47893056 4278190080
2.3847442 -0.7734701 -0.47988459 4278190080
2.3866932 -0.78332031 -0.48083866 4278190080
2.3839443 -0.79164666 -0.48083866 4278190080
2.385819 -0.80152631 -0.48179269 4278190080
2.3830066 -0.80984956 -0.48179269 4278190080
2.3848069 -0.81975836 -0.48274675 4278190080
2.3819308 -0.82807791 -0.48274675 4278190080
2.383656 -0.8380152 -0.48370078 4278190080
2.3807163 -0.84633058 -0.48370078 4278190080
2.3823664 -0.85629588 -0.48465484 4278190080
2.3793628 -0.86460662 -0.48465484 4278190080
2.3809373 -0.87459928 -0.48560888 4278190080
2.3778698 -0.88290495 -0.48560888 4278190080
2.3793688 -0.89292437 -0.48656294 4278190080
2.3762374 -0.90122449 -0.48656294 4278190080
2.37766 -0.91127008 -0.48751694 4278190080
2.3744648 -0.91956413 -0.48751694 4278190080
2.3712404 -0.92784697 -0.48751694 4278190080
2.3725517 -0.93792295 -0.48847103 4278190080
2.3692632 -0.946199 -0.48847103 4278190080
2.3704977 -0.95629972 -0.48942509 4278190080
2.3671453 -0.9645685 -0.48942509 4278190080
2.3683023 -0.97469348 -0.4903791 4278190080
2.3648858 -0.98295438 -0.4903791 4278190080
2.3659658 -0.99310309 -0.49133319 4278190080
2.3670037 -1.0032711 -0.49228719 4278190080
2.3634872 -1.0115274 -0.49228719 4278190080
2.3644476 -1.0217184 -0.49324125 4278190080
2.3653653 -1.0319281 -0.49419528 4278190080
2.3617487 -1.0401785 -0.49419528 4278190080
2.3625884 -1.0504102 -0.49514934 4278190080
2.3633852 -1.0606604 -0.49610338 4278190080
2.3596683 -1.0689037 -0.49610338 4278190080
2.3603866 -1.0791748 -0.49705744 4278190080
2.3610616 -1.0894638 -0.49801147 4278190080
2.3616939 -1.0997708 -0.49896553 4278190080
2.3578405 -1.108008 -0.49896553 4278190080
2.3583932 -1.1183345 -0.49991953 4278190080
2.3590996 -1.1282667 -0.50087363 4278190080
2.3551469 -1.1364948 -0.50087363 4278190080
2.3555782 -1.1468571 -0.50182766 4278190080
2.3557639 -1.1576478 -0.50278169 4278190080
2.356106 -1.168044 -0.50373572 4278190080
2.3520143 -1.1762612 -0.50373572 4278190080
2.3522763 -1.1866748 -0.50468981 4278190080
2.352494 -1.1971045 -0.50564378 4278190080
2.3526676 -1.2075502 -0.50659788 4278190080
2.3527968 -1.2180115 -0.50755191 4278190080
2.3487449 -1.225807 -0.50755191 4278190080
2.3487949 -1.2362843 -0.50850594 4278190080
2.3488004 -1.2467767 -0.50945997 4278190080
2.3487613 -1.2572843 -0.51041406 4278190080
2.3484557 -1.2682166 -0.5113681 4278190080
2.3483253 -1.2787538 -0.51232213 4278190080
2.3481495 -1.2893056 -0.51327622 4278190080
2.3436348 -1.2974942 -0.51327622 4278190080
2.3433769 -1.3080593 -0.51423025 4278190080
2.3430741 -1.3186386 -0.51518428 4278190080
2.3427258 -1.3292314 -0.51613832 4278190080
2.3423319 -1.3398379 -0.51709241 4278190080
2.3418925 -1.3504578 -0.51804638 4278190080
2.3414078 -1.361091 -0.51900047 4278190080
2.3411162 -1.3713287 -0.5199545 4278190080
2.3405416 -1.3819878 -0.52090853 4278190080
2.3357034 -1.3901495 -0.52090853 4278190080
2.3350453 -1.4008189 -0.52186257 4278190080
2.3343415 -1.4115009 -0.52281666 4278190080
2.3333428 -1.4226022 -0.52377069 4278190080
2.3325448 -1.433308 -0.52472472 4278190080
2.3316998 -1.4440255 -0.52567875 4278190080
2.3310628 -1.4543478 -0.52663285 4278190080
2.330127 -1.4650884 -0.52758682 4278190080
2.3291447 -1.4758402 -0.52854091 4278190080
2.3281155 -1.4866029 -0.52949494 4278190080
2.331167 -1.5000322 -0.53140301 4278190080
2.330035 -1.5108308 -0.5323571 4278190080
2.3288558 -1.5216395 -0.53331113 4278190080
2.3276296 -1.5324584 -0.53426516 4278190080
2.3263559 -1.5432873 -0.53521919 4278190080
2.3250353 -1.5541259 -0.53617328 4278190080
2.323667 -1.564974 -0.53712732 4278190080
2.3222516 -1.5758317 -0.53808135 4278190080
2.3207884 -1.5866984 -0.53903544 4278190080
2.3233197 -1.6003582 -0.5409435 4278190080
2.3217516 -1.6112566 -0.54189754 4278190080
2.3201356 -1.6221637 -0.54285163 4278190080
2.3184717 -1.6330789 -0.5438056 4278190080
2.3167598 -1.6440024 -0.54475969 4278190080
2.3149996 -1.6549337 -0.54571372 4278190080
2.3131919 -1.6658727 -0.54666775 4278190080
2.3113353 -1.6768192 -0.54762179 4278190080
2.3133934 -1.6906692 -0.54952991 4278190080
2.3114305 -1.7016439 -0.55048394 4278190080
2.3094187 -1.7126256 -0.55143797 4278190080
2.311291 -1.7265511 -0.55334604 4278190080
2.3091719 -1.7375597 -0.55430013 4278190080
2.3073092 -1.7481717 -0.55525416 4278190080
2.3089964 -1.7621702 -0.55716223 4278190080
2.3028312 -1.7702194 -0.55716223 4278190080
0.85181016 -0.69348252 -0.2060737 4278190080
0.86077058 -0.70578778 -0.20893586 4278190080
2.3057213 -2.0291934 -0.58959979 4278190080
2.2912779 -2.0307186 -0.58769166 4278190080
2.2914987 -2.0452409 -0.58959979 4278190080
2.2989469 -2.0663512 -0.59341598 4278190080
2.2917199 -2.0743635 -0.59341598 4278190080
2.2880926 -2.0856569 -0.59437001 4278190080
2.2844141 -2.0969501 -0.59532404 4278190080
2.2774475 -2.1045139 -0.59532404 4278190080
2.2664948 -2.1091073 -0.59437001 4278190080
2.2734442 -2.1304305 -0.59818619 4278190080
2.2407262 -2.1293449 -0.59341598 4278190080
0.66276759 -0.67537975 -0.17649831 4278190080
0.69466072 -0.71284026 -0.18603876 4278190080
0.57612038 -0.59534115 -0.15360124 4278190080
0.81836861 -0.91948569 -0.23183291 4278190080
0.84115654 -0.95175821 -0.23946528 4278190080
0.79574233 -0.90673149 -0.22706269 4278190080
1.9972814 -2.3912652 -0.59818619 4278190080
1.9857889 -2.3944445 -0.5972321 4278190080
1.9805388 -2.4051504 -0.59818619 4278190080
1.962811 -2.4006498 -0.59532404 4278190080
1.9482323 -2.3998656 -0.59341598 4278190080
1.933683 -2.399009 -0.59150785 4278190080
1.9191636 -2.3980801 -0.58959979 4278190080
1.9050927 -2.3967466 -0.58769166 4278190080
1.8906336 -2.3956764 -0.5857836 4278190080
1.8792325 -2.3983977 -0.58482951 4278190080
1.8618082 -2.3933208 -0.58196741 4278190080
1.8504424 -2.3959208 -0.58101338 4278190080
1.8360947 -2.3945756 -0.57910526 4278190080
1.8045367 -2.3877571 -0.5743351 4278190080
0.43504435 -0.59267461 -0.13547438 4278190080
0.45966223 -0.63546532 -0.14501484 4278190080
0.44885311 -0.62510556 -0.1421527 4278190080
1.689077 -2.4050975 -0.56384057 4278190080
1.6582817 -2.3966498 -0.55907035 4278190080
1.6304557 -2.3741028 -0.55239207 4278190080
1.6221585 -2.3797796 -0.55239207 4278190080
1.6083413 -2.3772972 -0.55048394 4278190080
1.597297 -2.3788218 -0.54952991 4278190080
1.5866772 -2.380022 -0.54857588 4278190080
1.5729433 -2.3773594 -0.54666775 4278190080
1.5619411 -2.3787327 -0.54571372 4278190080
1.548269 -2.3759463 -0.5438056 4278190080
1.5346354 -2.3730934 -0.54189754 4278190080
1.5183899 -2.3660438 -0.53903544 4278190080
1.5153946 -2.3796093 -0.5409435 4278190080
1.4992131 -2.372437 -0.53808135 4278190080
1.488315 -2.3734975 -0.53712732 4278190080
1.4562385 -2.358772 -0.53140301 4278190080
1.3902286 -2.3982704 -0.53140301 4278190080
1.3564295 -2.3780739 -0.52472472 4278190080
1.3360357 -2.3614352 -0.5199545 4278190080
1.3253827 -2.3618042 -0.51900047 4278190080
1.3171303 -2.3664165 -0.51900047 4278190080
1.3183502 -2.3881872 -0.52281666 4278190080
1.2958637 -2.3669436 -0.51709241 4278190080
1.2829098 -2.3628259 -0.51518428 4278190080
1.2746542 -2.3672898 -0.51518428 4278190080
1.1619585 -2.3918962 -0.50945997 4278190080
1.1346629 -2.3778019 -0.50468981 4278190080
1.114177 -2.3549316 -0.49896553 4278190080
1.1055382 -2.3589995 -0.49896553 4278190080
1.0952299 -2.3583925 -0.49801147 4278190080
1.0787838 -2.3443663 -0.49419528 4278190080
1.0669297 -2.339 -0.49228719 4278190080
1.06078 -2.3471825 -0.49324125 4278190080
1.0344175 -2.332098 -0.48847103 4278190080
0.35321769 -0.81937492 -0.16600382 4278190080
0.40431759 -0.94699305 -0.19271709 4278190080
0.37042621 -0.87606847 -0.17745237 4278190080
0.39011386 -0.93168348 -0.1889009 4278190080
0.34926233 -0.84236223 -0.16982 4278190080
0.33140779 -0.80725294 -0.16218764 4278190080
0.93545902 -2.3471262 -0.48370078 4278190080
0.92185652 -2.3366804 -0.48083866 4278190080
0.91547972 -2.344456 -0.48179269 4278190080
0.90198237 -2.3339031 -0.47893056 4278190080
0.89383018 -2.3370373 -0.47893056 4278190080
0.88392973 -2.3355525 -0.4779765 4278190080
0.87405032 -2.3340275 -0.4770225 4278190080
0.86930829 -2.3462691 -0.47893056 4278190080
0.85942358 -2.344681 -0.4779765 4278190080
0.8334977 -2.3227582 -0.47225225 4278190080
0.74649882 -2.4190187 -0.48465484 4278190080
0.73518831 -2.41222 -0.48274675 4278190080
0.17227724 -0.57241458 -0.10876112 4278190080
0.70336396 -2.3654182 -0.47225225 4278190080
0.1669945 -0.56886458 -0.10780708 4278190080
0.16637383 -0.57415825 -0.10876112 4278190080
0.17516518 -0.61248708 -0.11639349 4278190080
0.17302616 -0.61309481 -0.11639349 4278190080
0.18668407 -0.670434 -0.12784202 4278190080
0.20124377 -0.73260826 -0.1402446 4278190080
0.1884169 -0.69540763 -0.13261224 4278190080
0.18218724 -0.68183577 -0.12975012 4278190080
0.16980252 -0.64449817 -0.12211776 4278190080
0.16508396 -0.63558596 -0.12020966 4278190080
0.14338784 -0.56008172 -0.10494495 4278190080
0.15354481 -0.60814208 -0.11448539 4278190080
0.1514211 -0.60867435 -0.11448539 4278190080
0.57687801 -2.3539472 -0.46366581 4278190080
0.56520301 -2.3416333 -0.46080372 4278190080
0.55475599 -2.3340418 -0.45889562 4278190080
0.54436857 -2.326406 -0.45698753 4278190080
0.53624469 -2.3282919 -0.45698753 4278190080
0.52702904 -2.3253627 -0.45603347 4278190080
0.5178408 -2.3223979 -0.45507947 4278190080
0.50973111 -2.3241913 -0.45507947 4278190080
0.50058013 -2.3211586 -0.45412537 4278190080
0.49247485 -2.3228917 -0.45412537 4278190080
0.48436326 -2.3245966 -0.45412537 4278190080
0.47624609 -2.3262732 -0.45412537 4278190080
0.46715552 -2.3231099 -0.45317137 4278190080
0.45904332 -2.3247263 -0.45317137 4278190080
0.45039707 -2.3214173 -0.45221731 4278190080
0.44229087 -2.3229754 -0.45221731 4278190080
0.43327847 -2.3196805 -0.45126328 4278190080
0.42517844 -2.3211789 -0.45126328 4278190080
0.41747901 -2.322576 -0.45126328 4278190080
0.40896356 -2.3240905 -0.45126328 4278190080
0.4008483 -2.3255041 -0.45126328 4278190080
0.39354527 -2.3317285 -0.45221731 4278190080
0.38540345 -2.3330882 -0.45221731 4278190080
0.37725723 -2.3344193 -0.45221731 4278190080
0.36910641 -2.3357217 -0.45221731 4278190080
0.36095077 -2.3369961 -0.45221731 4278190080
0.35319895 -2.3381801 -0.45221731 4278190080
0.34503514 -2.3393989 -0.45221731 4278190080
0.33616796 -2.335731 -0.45126328 4278190080
0.3280125 -2.3368902 -0.45126328 4278190080
0.31918809 -2.333158 -0.45030922 4278190080
0.31104171 -2.3342578 -0.45030922 4278190080
0.30289185 -2.3353295 -0.45030922 4278190080
0.29228109 -2.3168943 -0.44649303 4278190080
0.28579259 -2.327594 -0.44840112 4278190080
0.27185473 -2.2798414 -0.43886068 4278190080
0.062490717 -0.71283889 -0.13165821 4278190080
0.060825117 -0.72283435 -0.13356629 4278190080
0.05514577 -0.68390423 -0.12593393 4278190080
0.049738988 -0.64494371 -0.11830158 4278190080
0.042803235 -0.58147985 -0.10589899 4278190080
0.041459721 -0.59141791 -0.10780708 4278190080
0.13227428 -2.3511722 -0.45030922 4278190080
0.12329042 -2.3369157 -0.44744709 4278190080
0.11513244 -2.3373318 -0.44744709 4278190080
0.10738083 -2.3377008 -0.44744709 4278190080
0.099428296 -2.3429651 -0.44840112 4278190080
0.091249339 -2.3432977 -0.44840112 4278190080
0.083068967 -2.3436019 -0.44840112 4278190080
0.074887887 -2.3438778 -0.44840112 4278190080
0.066705577 -2.3441248 -0.44840112 4278190080
0.058522776 -2.3443434 -0.44840112 4278190080
0.050339259 -2.3445334 -0.44840112 4278190080
0.042154815 -2.3446949 -0.44840112 4278190080
0.033970173 -2.3448277 -0.44840112 4278190080
0.025838768 -2.3498399 -0.44935519 4278190080
0.017636264 -2.3499157 -0.44935519 4278190080
0.0097817881 -2.335237 -0.44649303 4278190080
0.0016303544 -2.3352571 -0.44649303 4278190080
-0.0096321255 -0.98547316 -0.18413067 4278190080
-0.013072088 -0.98543352 -0.18413067 4278190080
-0.016511761 -0.9853819 -0.18413067 4278190080
-0.019156462 -0.94606119 -0.17649831 4278190080
-0.02187621 -0.92145479 -0.17172809 4278190080
-0.024290798 -0.89193493 -0.16600382 4278190080
-0.027102668 -0.88203305 -0.16409573 4278190080
-0.030013459 -0.87702781 -0.16314168 4278190080
-0.032889757 -0.87201303 -0.16218764 4278190080
-0.035731293 -0.86698896 -0.16123359 4278190080
-0.038757388 -0.86685896 -0.16123359 4278190080
-0.041546784 -0.86181593 -0.16027956 4278190080
-0.044404361 -0.86167341 -0.16027956 4278190080
-0.047411963 -0.8615132 -0.16027956 4278190080
-0.050418869 -0.86134243 -0.16027956 4278190080
-0.053425279 -0.86116117 -0.16027956 4278190080
-0.056751925 -0.86586708 -0.16123359 4278190080
-0.059773974 -0.86566371 -0.16123359 4278190080
-0.062795408 -0.86544979 -0.16123359 4278190080
-0.065815963 -0.86522532 -0.16123359 4278190080
-0.068684831 -0.86500227 -0.16123359 4278190080
-0.071703784 -0.8647573 -0.16123359 4278190080
-0.074721985 -0.86450171 -0.16123359 4278190080
-0.078178875 -0.869124 -0.16218764 4278190080
-0.081363834 -0.86883163 -0.16218764 4278190080
-0.084396198 -0.86854231 -0.16218764 4278190080
-0.087427415 -0.86824244 -0.16218764 4278190080
-0.091983914 -0.88257712 -0.16504978 4278190080
-0.092960916 -0.86273104 -0.16123359 4278190080
-0.097057492 -0.87215734 -0.16314168 4278190080
-0.10106722 -0.88158309 -0.16504978 4278190080
-0.1507435 -0.84456122 -0.15932551 4278190080
-0.15456986 -0.84885865 -0.16027956 4278190080
-0.16201256 -0.87244213 -0.16504978 4278190080
-0.16414407 -0.86704874 -0.16409573 4278190080
-0.16716959 -0.86647052 -0.16409573 4278190080
-0.16924658 -0.86106569 -0.16314168 4278190080
-0.17225118 -0.8604697 -0.16314168 4278190080
-0.17525369 -0.85986316 -0.16314168 4278190080
-0.17810416 -0.85927731 -0.16314168 4278190080
-0.18125236 -0.85861874 -0.16314168 4278190080
-0.18424846 -0.85798079 -0.16314168 4278190080
-0.18724221 -0.85733247 -0.16314168 4278190080
-0.19023368 -0.85667366 -0.16314168 4278190080
-0.19322294 -0.85600436 -0.16314168 4278190080
-0.19606052 -0.8553589 -0.16314168 4278190080
-0.19904505 -0.85466933 -0.16314168 4278190080
-0.20300728 -0.85878104 -0.16409573 4278190080
-0.20600371 -0.85806721 -0.16409573 4278190080
-0.20899762 -0.8573429 -0.16409573 4278190080
-0.2119891 -0.85660809 -0.16409573 4278190080
-0.21497788 -0.85586292 -0.16409573 4278190080
-0.21917647 -0.8598634 -0.16504978 4278190080
-0.22217658 -0.85909307 -0.16504978 4278190080
-0.22392848 -0.8535648 -0.16409573 4278190080
-0.22690669 -0.8527779 -0.16409573 4278190080
-0.229882 -0.85198069 -0.16409573 4278190080
-0.23285465 -0.85117304 -0.16409573 4278190080
-0.23582433 -0.85035503 -0.16409573 4278190080
-0.23864295 -0.84956837 -0.16409573 4278190080
-0.241607 -0.84873015 -0.16409573 4278190080
-0.24456809 -0.84788162 -0.16409573 4278190080
-0.24752633 -0.84702277 -0.16409573 4278190080
-0.25187463 -0.85085988 -0.16504978 4278190080
-0.25484321 -0.84997547 -0.16504978 4278190080
-0.25780857 -0.84908074 -0.16504978 4278190080
-0.26221317 -0.85286707 -0.16600382 4278190080
-0.26503998 -0.85199285 -0.16600382 4278190080
-0.26801243 -0.85106248 -0.16600382 4278190080
-0.27098152 -0.85012174 -0.16600382 4278190080
-0.2724404 -0.84449959 -0.16504978 4278190080
-0.27386343 -0.83887762 -0.16409573 4278190080
-0.27832946 -0.84257704 -0.16504978 4278190080
-0.78647661 -2.3546271 -0.47511441 4278190080
-0.79337138 -2.3212132 -0.46939012 4278190080
-0.78543293 -2.2720418 -0.45984966 4278190080
-0.79011935 -2.26002 -0.45794156 4278190080
-0.80127555 -2.2665031 -0.45984966 4278190080
-0.80918211 -2.2636921 -0.45984966 4278190080
-0.81707913 -2.2608538 -0.45984966 4278190080
-0.82328159 -2.2533779 -0.45889562 4278190080
-0.83454305 -2.2596989 -0.46080372 4278190080
-0.84242594 -2.256772 -0.46080372 4278190080
-0.85029829 -2.2538176 -0.46080372 4278190080
-1.0980232 -2.3082707 -0.48942509 4278190080
-1.1012751 -2.2740445 -0.48370078 4278190080
-1.1027426 -2.2569568 -0.48083866 4278190080
-1.112784 -2.2574961 -0.48179269 4278190080
-1.1162868 -2.2448084 -0.47988459 4278190080
-1.128517 -2.2496724 -0.48179269 4278190080
-1.1363629 -2.2457194 -0.48179269 4278190080
-1.1464266 -2.2461107 -0.48274675 4278190080
-1.1538687 -2.2422967 -0.48274675 4278190080
-1.1639496 -2.2426116 -0.48370078 4278190080
-1.1740468 -2.2428834 -0.48465484 4278190080
-1.1818689 -2.2387717 -0.48465484 4278190080
-1.1919829 -2.2389648 -0.48560888 4278190080
-1.2021129 -2.2391148 -0.48656294 4278190080
-1.212258 -2.2392211 -0.48751694 4278190080
-1.2224187 -2.239284 -0.48847103 4278190080
-1.2325947 -2.2393031 -0.48942509 4278190080
-1.2427855 -2.2392786 -0.4903791 4278190080
-1.2529914 -2.2392099 -0.49133319 4278190080
-1.2632115 -2.2390971 -0.49228719 4278190080
-1.2734462 -2.2389407 -0.49324125 4278190080
-1.2812541 -2.2344818 -0.49324125 4278190080
-1.2911121 -2.2344704 -0.49419528 4278190080
-1.3013746 -2.2341912 -0.49514934 4278190080
-1.3116504 -2.2338672 -0.49610338 4278190080
-1.3219402 -2.2334988 -0.49705744 4278190080
-1.3318532 -2.2333183 -0.49801147 4278190080
-1.3421696 -2.2328622 -0.49896553 4278190080
-1.3524987 -2.2323616 -0.49991953 4278190080
-1.362841 -2.2318156 -0.50087363 4278190080
-1.3731955 -2.2312248 -0.50182766 4278190080
-1.3835627 -2.2305889 -0.50278169 4278190080
-1.3939421 -2.2299075 -0.50373572 4278190080
-1.4069496 -2.2333338 -0.50564378 4278190080
-1.4173678 -2.2325525 -0.50659788 4278190080
-1.4277971 -2.2317257 -0.50755191 4278190080
-1.4408975 -2.2349787 -0.50945997 4278190080
-1.4513643 -2.2340512 -0.51041406 4278190080
-1.461452 -2.2333329 -0.5113681 4278190080
-1.4746429 -2.236413 -0.51327622 4278190080
-1.4851563 -2.2353401 -0.51423025 4278190080
-1.4956807 -2.234221 -0.51518428 4278190080
-1.5089595 -2.2371244 -0.51709241 4278190080
-1.5171489 -2.2315788 -0.51709241 4278190080
-1.5193821 -2.2181706 -0.51518428 4278190080
-1.5271156 -2.2128537 -0.51518428 4278190080
-1.7092375 -2.2690587 -0.54475969 4278190080
-1.7052805 -2.2474384 -0.5409435 4278190080
-1.7190759 -2.2492714 -0.54285163 4278190080
-1.7149408 -2.2277005 -0.53903544 4278190080
-1.7227066 -2.2217004 -0.53903544 4278190080
-1.7304512 -2.2156737 -0.53903544 4278190080
-1.7442441 -2.2173347 -0.5409435 4278190080
-1.7550212 -2.2150798 -0.54189754 4278190080
-1.7688653 -2.2166128 -0.5438056 4278190080
-1.7827414 -2.2180762 -0.54571372 4278190080
-1.7966498 -2.2194693 -0.54762179 4278190080
-1.810589 -2.2207925 -0.54952991 4278190080
-1.8245592 -2.2220454 -0.55143797 4278190080
-1.8381723 -2.2235484 -0.55334604 4278190080
-1.849063 -2.2208905 -0.55430013 4278190080
-1.8631113 -2.2219446 -0.55620819 4278190080
-1.8740224 -2.2191775 -0.55716223 4278190080
-1.8881173 -2.2200997 -0.55907035 4278190080
-1.9022409 -2.2209508 -0.56097841 4278190080
-1.9163934 -2.2217307 -0.56288654 4278190080
-1.9305744 -2.2224383 -0.56479466 4278190080
-1.9447836 -2.2230742 -0.56670272 4278190080
-1.9590212 -2.2236371 -0.56861079 4278190080
-1.9728978 -2.2244725 -0.57051891 4278190080
-1.98392 -2.2212329 -0.57147294 4278190080
-1.9982258 -2.2215927 -0.57338101 4278190080
-2.0092635 -2.2182419 -0.5743351 4278190080
-2.026917 -2.2220933 -0.57719719 4278190080
-2.0379822 -2.2186186 -0.57815123 4278190080
-2.0457141 -2.2114913 -0.57815123 4278190080
-2.0678189 -2.2043154 -0.58005935 4278190080
-2.2521744 -2.2093453 -0.60581857 4278190080
-2.2704196 -2.211745 -0.60868067 4278190080
-2.2781262 -2.2038064 -0.60868067 4278190080
-2.3035026 -2.212842 -0.61345088 4278190080
-2.314379 -2.2085795 -0.61440498 4278190080
-2.3291993 -2.2072396 -0.61631304 4278190080
-2.344039 -2.2058225 -0.61822116 4278190080
-2.3624825 -2.2076802 -0.62108326 4278190080
-2.3773696 -2.2060974 -0.62299132 4278190080
-2.395884 -2.2077634 -0.62585348 4278190080
-2.4071968 -2.2027004 -0.62680751 4278190080
-2.418504 -2.1975844 -0.6277616 4278190080
-2.4261601 -2.1891291 -0.6277616 4278190080
-2.7648587 -2.029505 -0.65924507 4278190080
-2.7560592 -2.0082798 -0.65542889 4278190080
-2.7550988 -1.9928941 -0.65352082 4278190080
-2.742105 -1.9689506 -0.64875054 4278190080
-2.7449644 -1.9565184 -0.64779651 4278190080
-2.7317433 -1.9327508 -0.64302629 4278190080
-2.7264235 -1.9147413 -0.6401642 4278190080
-2.7340102 -1.7809193 -0.62680751 4278190080
-2.731966 -1.766036 -0.62489945 4278190080
-2.7339835 -1.7538383 -0.62394542 4278190080
-2.7356439 -1.7421266 -0.62299132 4278190080
-2.7251122 -1.7220784 -0.6191752 4278190080
-2.7227902 -1.7073407 -0.61726707 4278190080
-2.7203987 -1.6926403 -0.61535901 4278190080
-2.7221143 -1.6805559 -0.61440498 4278190080
-2.7237782 -1.66848 -0.61345088 4278190080
-2.7211976 -1.6538633 -0.61154282 4278190080
-2.7227509 -1.6418201 -0.61058873 4278190080
-2.7200413 -1.6272664 -0.60868067 4278190080
-2.7214844 -1.6152569 -0.60772663 4278190080
-2.7313354 -1.6082377 -0.60868067 4278190080
-2.7630174 -1.5127077 -0.60486448 4278190080
-2.7510276 -1.4936861 -0.60104829 4278190080
-2.7519033 -1.4817474 -0.60009426 4278190080
-2.7570586 -1.4721326 -0.60009426 4278190080
-2.7448304 -1.4533125 -0.59627813 4278190080
-2.7498865 -1.4437225 -0.59627813 4278190080
-2.7505555 -1.4318486 -0.59532404 4278190080
-2.7642598 -1.426741 -0.5972321 4278190080
-1.7622283 -0.84053975 -0.37207752 4278190080
-1.7163405 -0.81131059 -0.36158305 4278190080
-1.7191621 -0.8053146 -0.36158305 4278190080
-2.7868693 -1.1441154 -0.57815123 4278190080
-2.7726588 -1.1269872 -0.5743351 4278190080
-2.0281124 -0.80790418 -0.41691765 4278190080
-2.8162699 -1.1104941 -0.58101338 4278190080
-2.7972679 -1.0917346 -0.57624316 4278190080
-2.7644343 -1.0678149 -0.56861079 4278190080
-2.8218634 -1.0120405 -0.57528907 4278190080
-2.7929988 -0.99069881 -0.56861079 4278190080
-2.8010712 -0.98256809 -0.56956482 4278190080
-2.7766614 -0.96313399 -0.56384057 4278190080
-1.78183 -0.611099 -0.3587209 4278190080
-1.7421182 -0.59069121 -0.35013449 4278190080
-2.3425646 -0.77609015 -0.47225225 4278190080
-2.3499238 -0.76943582 -0.47320631 4278190080
-2.8320892 -0.90546894 -0.57051891 4278190080
-2.7931108 -0.88227254 -0.5619325 4278190080
-2.7422092 -0.81384134 -0.54857588 4278190080
-2.8203955 -0.82634473 -0.56384057 4278190080
-2.8091178 -0.8124041 -0.56097841 4278190080
-2.7600207 -0.7877748 -0.55048394 4278190080
-2.0702984 -0.57531202 -0.41023931 4278190080
-2.8438544 -0.77959138 -0.56574863 4278190080
-2.8086545 -0.75941128 -0.55811632 4278190080
-2.8064151 -0.74882776 -0.55716223 4278190080
-2.7805321 -0.73153442 -0.55143797 4278190080
-2.2652164 -0.58751202 -0.44744709 4278190080
-2.2387221 -0.57230771 -0.44172284 4278190080
-2.2930598 -0.57767892 -0.45221731 4278190080
-2.3188803 -0.57558328 -0.45698753 4278190080
-2.3064737 -0.56439054 -0.45412537 4278190080
-2.3084297 -0.5563361 -0.45412537 4278190080
-2.8571131 -0.6674996 -0.56288654 4278190080
-2.7972426 -0.64322352 -0.55048394 4278190080
-2.7420256 -0.62045705 -0.53903544 4278190080
-2.6148212 -0.58208656 -0.51327622 4278190080
-2.5929635 -0.56725389 -0.50850594 4278190080
-2.5949278 -0.55819941 -0.50850594 4278190080
-2.5824544 -0.54609185 -0.50564378 4278190080
-2.8437366 -0.59149808 -0.55716223 4278190080
-2.7976966 -0.57174093 -0.54762179 4278190080
-2.7948632 -0.56100589 -0.54666775 4278190080
-2.772727 -0.54650033 -0.54189754 4278190080
-2.7794366 -0.53775084 -0.54285163 4278190080
-2.7861187 -0.52896118 -0.5438056 4278190080
-2.7879481 -0.51923269 -0.5438056 4278190080
-2.7897437 -0.50949794 -0.5438056 4278190080
-2.786674 -0.49889129 -0.54285163 4278190080
-2.7883985 -0.4891611 -0.54285163 4278190080
-2.7852516 -0.47859374 -0.54189754 4278190080
-2.7869051 -0.46886864 -0.54189754 4278190080
-2.7884448 -0.45962423 -0.54189754 4278190080
-2.7900319 -0.44988808 -0.54189754 4278190080
-2.7867372 -0.43938208 -0.5409435 4278190080
-2.788254 -0.42965126 -0.5409435 4278190080
-2.789737 -0.41991597 -0.5409435 4278190080
-2.7911856 -0.41017556 -0.5409435 4278190080
-2.7877419 -0.39973348 -0.53998947 4278190080
-2.7891202 -0.39000016 -0.53998947 4278190080
-2.7856016 -0.37959865 -0.53903544 4278190080
-2.786974 -0.36938679 -0.53903544 4278190080
-2.7833786 -0.3590284 -0.53808135 4278190080
-2.7846148 -0.34930983 -0.53808135 4278190080
-2.7808857 -0.33947966 -0.53712732 4278190080
-2.7820539 -0.32976988 -0.53712732 4278190080
-2.7831881 -0.32005686 -0.53712732 4278190080
-2.7794106 -0.30979621 -0.53617328 4278190080
-2.7804749 -0.30009252 -0.53617328 4278190080
-2.7815056 -0.29038519 -0.53617328 4278190080
-2.7825022 -0.28067353 -0.53617328 4278190080
-2.7834649 -0.27095923 -0.53617328 4278190080
-2.7795072 -0.26078314 -0.53521919 4278190080
-2.7804005 -0.25107941 -0.53521919 4278190080
-2.78126 -0.24137262 -0.53521919 4278190080
-2.7771945 -0.23125486 -0.53426516 4278190080
-2.7779849 -0.22155939 -0.53426516 4278190080
-2.7787411 -0.21186121 -0.53426516 4278190080
-2.7745686 -0.2018044 -0.53331113 4278190080
-2.7752559 -0.19211826 -0.53331113 4278190080
-2.7759097 -0.18242905 -0.53331113 4278190080
-2.771631 -0.1724336 -0.5323571 4278190080
-2.7722161 -0.16275789 -0.5323571 4278190080
-2.7727673 -0.15308021 -0.5323571 4278190080
-2.7732849 -0.14340065 -0.5323571 4278190080
-2.7737684 -0.13371862 -0.5323571 4278190080
-2.7742183 -0.1240357 -0.5323571 4278190080
-2.7746344 -0.11435126 -0.5323571 4278190080
-2.7750168 -0.10466543 -0.5323571 4278190080
-2.7753651 -0.094978325 -0.5323571 4278190080
-2.7756798 -0.085289322 -0.5323571 4278190080
-2.7759604 -0.075600021 -0.5323571 4278190080
-2.7713006 -0.065793306 -0.53140301 4278190080
-2.7715135 -0.056119405 -0.53140301 4278190080
-2.7716925 -0.046444822 -0.53140301 4278190080
-2.7718377 -0.036768939 -0.53140301 4278190080
-2.7670414 -0.027045373 -0.53044897 4278190080
-2.7671189 -0.01738658 -0.53044897 4278190080
-2.7671628 -0.0077275732 -0.53044897 4278190080
-2.7671728 0.0019315272 -0.53044897 4278190080
-2.7671492 0.01159134 -0.53044897 4278190080
-2.767092 0.021250276 -0.53044897 4278190080
-2.7670062 0.030426284 -0.53044897 4278190080
-2.7668831 0.040084608 -0.53044897 4278190080
-2.7667265 0.049742438 -0.53044897 4278190080
-2.766536 0.059399668 -0.53044897 4278190080
-2.7662997 0.06953945 -0.53044897 4278190080
-2.7660401 0.079195067 -0.53044897 4278190080
-2.7657468 0.088849723 -0.53044897 4278190080
-2.7654197 0.098503292 -0.53044897 4278190080
-2.765059 0.1081564 -0.53044897 4278190080
-2.7646646 0.11780745 -0.53044897 4278190080
-2.7642367 0.12745707 -0.53044897 4278190080
-2.7637749 0.13710512 -0.53044897 4278190080
-2.7632794 0.14675152 -0.53044897 4278190080
-2.7627504 0.15639685 -0.53044897 4278190080
-2.7622166 0.165557 -0.53044897 4278190080
-2.7616217 0.17519851 -0.53044897 4278190080
-2.7609935 0.18483715 -0.53044897 4278190080
-2.7603314 0.19447355 -0.53044897 4278190080
-2.7596357 0.20410757 -0.53044897 4278190080
-2.7589066 0.2137391 -0.53044897 4278190080
-2.7581434 0.22336876 -0.53044897 4278190080
-2.7524562 0.2325817 -0.52949494 4278190080
-2.7516277 0.24218801 -0.52949494 4278190080
-2.7507656 0.25179136 -0.52949494 4278190080
-2.7498698 0.26139164 -0.52949494 4278190080
-2.7538252 0.27147099 -0.53044897 4278190080
-2.7528608 0.28108183 -0.53044897 4278190080
-2.7518628 0.29068926 -0.53044897 4278190080
-2.7557104 0.30082574 -0.53140301 4278190080
-2.7546437 0.31044298 -0.53140301 4278190080
-2.7535431 0.32005718 -0.53140301 4278190080
-2.7524092 0.32966673 -0.53140301 4278190080
-2.7512417 0.33927229 -0.53140301 4278190080
-2.7500405 0.3488737 -0.53140301 4278190080
-2.748806 0.35847086 -0.53140301 4278190080
-2.7475379 0.3680644 -0.53140301 4278190080
-2.7462363 0.3776527 -0.53140301 4278190080
-2.7449014 0.38723642 -0.53140301 4278190080
-2.7435331 0.39681539 -0.53140301 4278190080
-2.7469864 0.40710911 -0.5323571 4278190080
-2.7455485 0.41669598 -0.5323571 4278190080
-2.7440772 0.42627704 -0.5323571 4278190080
-2.7425725 0.43585292 -0.5323571 4278190080
-2.7458789 0.44621071 -0.53331113 4278190080
-2.7443047 0.45579275 -0.53331113 4278190080
-2.742697 0.46536997 -0.53331113 4278190080
-2.745892 0.47577876 -0.53426516 4278190080
-2.7442145 0.48536068 -0.53426516 4278190080
-2.7425036 0.49493667 -0.53426516 4278190080
-2.7407591 0.50450665 -0.53426516 4278190080
-2.7389812 0.51407117 -0.53426516 4278190080
-2.7371702 0.52362871 -0.53426516 4278190080
-2.7353258 0.53317988 -0.53426516 4278190080
-2.733448 0.54272455 -0.53426516 4278190080
-2.7315369 0.5522626 -0.53426516 4278190080
-2.7295923 0.5617947 -0.53426516 4278190080
-2.7325184 0.57184869 -0.53521919 4278190080
-2.7304041 0.58185965 -0.53521919 4278190080
-2.7283566 0.59138685 -0.53521919 4278190080
-2.7262757 0.60090685 -0.53521919 4278190080
-2.7289507 0.61149347 -0.53617328 4278190080
-2.7267997 0.62101537 -0.53617328 4278190080
-2.7293971 0.63163632 -0.53712732 4278190080
-2.7271755 0.64115971 -0.53712732 4278190080
-2.724921 0.6506753 -0.53712732 4278190080
-2.7226329 0.66018367 -0.53712732 4278190080
-2.7203119 0.66968328 -0.53712732 4278190080
-2.7179577 0.67917466 -0.53712732 4278190080
-2.7203281 0.68986434 -0.53808135 4278190080
-2.7179034 0.69935572 -0.53808135 4278190080
-2.7201946 0.71007901 -0.53903544 4278190080
-2.7176995 0.7195698 -0.53903544 4278190080
-2.7151711 0.72905183 -0.53903544 4278190080
-2.7126098 0.73852491 -0.53903544 4278190080
-2.7100153 0.74798906 -0.53903544 4278190080
-2.7121143 0.75876713 -0.53998947 4278190080
-2.7094493 0.76822942 -0.53998947 4278190080
-2.7067511 0.77768236 -0.53998947 4278190080
-2.7087326 0.78849763 -0.5409435 4278190080
-2.7059639 0.79794788 -0.5409435 4278190080
-2.703162 0.8073892 -0.5409435 4278190080
-2.7003272 0.81681991 -0.5409435 4278190080
-2.6974595 0.82624072 -0.5409435 4278190080
-2.6945589 0.8356514 -0.5409435 4278190080
-2.6869428 0.84358174 -0.53998947 4278190080
-2.6793041 0.85146987 -0.53903544 4278190080
-2.6669705 0.85781127 -0.53712732 4278190080
-2.6546259 0.86407709 -0.53521919 4278190080
-2.6469319 0.87180269 -0.53426516 4278190080
-2.6392162 0.87948501 -0.53331113 4278190080
-2.6454318 0.89182872 -0.53521919 4278190080
-2.5912027 0.88363171 -0.52472472 4278190080
-2.5602632 0.88306904 -0.51900047 4278190080
-2.5293596 0.88230121 -0.51327622 4278190080
-2.5031211 0.88296121 -0.50850594 4278190080
-2.486155 0.88674724 -0.50564378 4278190080
-2.4507248 0.88376516 -0.49896553 4278190080
-2.4061236 0.87718439 -0.4903791 4278190080
-2.3615987 0.87030315 -0.48179269 4278190080
-2.3217514 0.86483532 -0.47416034 4278190080
-2.281971 0.85910064 -0.46652797 4278190080
-2.2514343 0.85658896 -0.46080372 4278190080
-2.2301056 0.85739732 -0.45698753 4278190080
-2.2087991 0.85806733 -0.45317137 4278190080
-2.1875153 0.85859913 -0.44935519 4278190080
-2.1708171 0.86080259 -0.44649303 4278190080
-2.1495745 0.86107433 -0.44267684 4278190080
-2.1283565 0.86120838 -0.43886068 4278190080
-2.1071641 0.86120492 -0.4350445 4278190080
-2.0859978 0.86106402 -0.43122834 4278190080
-2.060328 0.85889798 -0.42645809 4278190080
-2.039223 0.8584671 -0.4226419 4278190080
-2.018146 0.85789949 -0.41882575 4278190080
-1.9970983 0.85719532 -0.41500956 4278190080
-1.9805835 0.85830629 -0.4121474 4278190080
-1.9595889 0.8573457 -0.40833122 4278190080
-1.9431154 0.85823166 -0.40546912 4278190080
-1.9221767 0.85701442 -0.40165293 4278190080
-1.9057461 0.85767579 -0.39879078 4278190080
-1.8847164 0.85653239 -0.39497462 4278190080
-1.8683314 0.85696715 -0.39211249 4278190080
-1.8475124 0.85523611 -0.38829628 4278190080
-1.8311754 0.85544777 -0.38543418 4278190080
-1.8104198 0.85346341 -0.38161799 4278190080
-1.7941331 0.85345256 -0.37875587 4278190080
-1.7778685 0.85333842 -0.37589371 4278190080
-1.7616268 0.85312128 -0.37303156 4278190080
-1.7454084 0.85280126 -0.37016943 4278190080
-1.7292138 0.8523789 -0.36730731 4278190080
-1.7130437 0.85185349 -0.36444518 4278190080
-1.6968985 0.85122567 -0.36158305 4278190080
-1.6807787 0.85049564 -0.3587209 4278190080
-1.6646849 0.8496635 -0.35585877 4278190080
-1.6486171 0.84872979 -0.35299662 4278190080
-1.6369327 0.8499558 -0.35108852 4278190080
-1.6209118 0.84883362 -0.3482264 4278190080
-1.6049188 0.84761006 -0.34536427 4278190080
-1.5889544 0.84628522 -0.34250215 4278190080
-1.5773426 0.84718221 -0.34059405 4278190080
-1.5614284 0.84567058 -0.33773193 4278190080
-1.5498518 0.84641075 -0.33582383 4278190080
-1.5382891 0.84708047 -0.33391574 4278190080
-1.5224496 0.84529734 -0.33105361 4278190080
-1.510924 0.8458119 -0.32914549 4278190080
-1.4994136 0.84625596 -0.3272374 4278190080
-1.4879187 0.84663004 -0.32532933 4278190080
-1.4721823 0.84449202 -0.32246718 4278190080
-1.4607278 0.8447116 -0.32055911 4278190080
-1.4492897 0.84486198 -0.31865102 4278190080
-1.4377211 0.84519327 -0.31674293 4278190080
-1.4263172 0.84520239 -0.31483483 4278190080
-1.4149307 0.8451426 -0.31292674 4278190080
-1.4037099 0.84476811 -0.31101868 4278190080
-1.3923594 0.84457213 -0.30911058 4278190080
-1.3810277 0.84430695 -0.30720249 4278190080
-1.3695676 0.84421188 -0.30529436 4278190080
-1.3582741 0.8438077 -0.3033863 4278190080
-1.3428402 0.84073007 -0.30052415 4278190080
-1.3315954 0.8401742 -0.29861605 4278190080
-1.3203712 0.83955008 -0.29670799 4278190080
-1.3133 0.84150589 -0.29575393 4278190080
-1.3021078 0.84076053 -0.29384583 4278190080
-1.2950511 0.84262383 -0.2928918 4278190080
-1.2838928 0.841757 -0.29098371 4278190080
-1.2768515 0.84352803 -0.29002967 4278190080
-1.2657279 0.8425405 -0.28812158 4278190080
-1.2546266 0.84148598 -0.28621349 4278190080
-1.2435484 0.84036398 -0.28430539 4278190080
-1.2324935 0.83917493 -0.28239733 4278190080
-1.2255094 0.8406955 -0.28144327 4278190080
-1.2144921 0.83938694 -0.27953517 4278190080
-1.2075266 0.8408168 -0.27858111 4278190080
-1.1965482 0.83938926 -0.27667302 4278190080
-1.1896027 0.8407281 -0.27571899 4278190080
-1.1786643 0.83918202 -0.27381089 4278190080
-1.1677513 0.83756995 -0.2719028 4278190080
-1.1608421 0.83876675 -0.27094877 4278190080
-1.1499707 0.83703691 -0.26904067 4278190080
-1.1430837 0.83814371 -0.26808664 4278190080
-1.1362032 0.8392126 -0.26713258 4278190080
-1.1293291 0.8402437 -0.26617855 4278190080
-1.1183878 0.838489 -0.26427045 4278190080
-1.1115375 0.83942986 -0.26331642 4278190080
-1.1007878 0.83736157 -0.26140833 4278190080
-1.093962 0.83821404 -0.26045427 4278190080
-1.0832584 0.83603001 -0.2585462 4278190080
-1.0764586 0.83679384 -0.25759214 4278190080
-1.0696666 0.83752042 -0.25663811 4278190080
-1.0628827 0.83820975 -0.25568405 4278190080
-1.0522635 0.83580965 -0.25377595 4278190080
-1.0455071 0.83641148 -0.25282189 4278190080
-1.0387592 0.83697635 -0.25186786 4278190080
-1.0282092 0.83441162 -0.24995977 4278190080
-1.02149 0.83488953 -0.24900573 4278190080
-1.0147799 0.83533102 -0.24805169 4278190080
-1.0080794 0.83573556 -0.24709764 4278190080
-0.99762094 0.83295792 -0.24518955 4278190080
-0.99095082 0.83327633 -0.24423552 4278190080
-0.98803616 0.83673024 -0.24423552 4278190080
-0.97017163 0.82743436 -0.24041933 4278190080
-0.99706352 0.85639971 -0.24805169 4278190080
-0.99035603 0.85666388 -0.24709764 4278190080
-0.9873597 0.86011559 -0.24709764 4278190080
-0.81552911 0.89562631 -0.22801673 4278190080
-0.79264677 0.87662435 -0.22229247 4278190080
-0.78302377 0.87208176 -0.22038439 4278190080
-0.76364338 0.85649234 -0.21561417 4278190080
-0.76064903 0.85915273 -0.21561417 4278190080
-0.75440478 0.85811645 -0.21466012 4278190080
-0.74817687 0.85704726 -0.21370608 4278190080
-0.74196583 0.85594493 -0.21275203 4278190080
-0.73577166 0.8548097 -0.21179798 4278190080
-0.73278338 0.85737276 -0.21179798 4278190080
-0.72661036 0.85618323 -0.21084395 4278190080
-0.72045434 0.85496128 -0.2098899 4278190080
-0.71731603 0.85759604 -0.2098899 4278190080
-0.71118236 0.85631889 -0.20893586 4278190080
-0.70506608 0.85500962 -0.20798181 4278190080
-0.69896787 0.85366786 -0.20702775 4278190080
-0.69288766 0.85229409 -0.2060737 4278190080
-0.68682563 0.85088831 -0.20511965 4278190080
-0.68385136 0.85328054 -0.20511965 4278190080
-0.67781246 0.85182202 -0.20416561 4278190080
-0.67483497 0.85418278 -0.20416561 4278190080
-0.66882008 0.85267127 -0.20321156 4278190080
-0.66282398 0.85112828 -0.20225753 4278190080
-0.65684688 0.84955382 -0.20130348 4278190080
-0.65074068 0.8480618 -0.20034944 4278190080
-0.64480221 0.8464238 -0.19939539 4278190080
-0.6418438 0.84866941 -0.19939539 4278190080
-0.63887727 0.85090482 -0.19939539 4278190080
-0.63590324 0.85312968 -0.19939539 4278190080
-0.63000196 0.85139877 -0.19844134 4278190080
-0.6270262 0.85359263 -0.19844134 4278190080
-0.62115097 0.8518104 -0.19748731 4278190080
-0.61817366 0.85397357 -0.19748731 4278190080
-0.61232489 0.85214037 -0.19653326 4278190080
-0.60934669 0.85427254 -0.19653326 4278190080
-0.60636103 0.85639435 -0.19653326 4278190080
-0.60054582 0.8544901 -0.19557922 4278190080
-0.59475112 0.85255587 -0.19462517 4278190080
-0.58897746 0.85059154 -0.19367112 4278190080
-0.58600479 0.85264224 -0.19367112 4278190080
-0.58025914 0.85062796 -0.19271709 4278190080
-0.57453471 0.848584 -0.19176304 4278190080
-0.57156891 0.85058445 -0.19176304 4278190080
-0.56859636 0.85257441 -0.19176304 4278190080
-0.56561691 0.85455394 -0.19176304 4278190080
-0.55993587 0.85242081 -0.190809 4278190080
-0.55680776 0.85446745 -0.190809 4278190080
-0.55115652 0.85228437 -0.18985495 4278190080
-0.54552728 0.85007232 -0.1889009 4278190080
-0.5425567 0.85197133 -0.1889009 4278190080
-0.53695732 0.84971106 -0.18794686 4278190080
-0.53138059 0.84742194 -0.18699281 4278190080
-0.52841938 0.8492716 -0.18699281 4278190080
-0.52287334 0.84693456 -0.18603876 4278190080
-0.51991385 0.84875453 -0.18603876 4278190080
-0.51439863 0.8463701 -0.18508472 4278190080
-0.51144117 0.84816051 -0.18508472 4278190080
-0.50595766 0.84572864 -0.18413067 4278190080
-0.50300246 0.8474896 -0.18413067 4278190080
-0.50004119 0.84924018 -0.18413067 4278190080
-0.4944503 0.84682876 -0.18317664 4278190080
-0.49149135 0.84854954 -0.18317664 4278190080
-0.4885264 0.85025996 -0.18317664 4278190080
-0.483125 0.84769595 -0.18222259 4278190080
-0.4801631 0.84937716 -0.18222259 4278190080
-0.47479486 0.84676701 -0.18126854 4278190080
-0.46945074 0.84412974 -0.1803145 4278190080
-0.46650138 0.84576327 -0.1803145 4278190080
-0.46119058 0.84308064 -0.17936045 4278190080
-0.45824492 0.84468532 -0.17936045 4278190080
-0.45529369 0.84627974 -0.17936045 4278190080
-0.45233688 0.84786379 -0.17936045 4278190080
-0.44937459 0.84943759 -0.17936045 4278190080
-0.44640657 0.85100108 -0.17936045 4278190080
-0.44116855 0.84819978 -0.17840642 4278190080
-0.43820512 0.84973454 -0.17840642 4278190080
-0.43523636 0.85125899 -0.17840642 4278190080
-0.43004325 0.84839517 -0.17745237 4278190080
-0.42693073 0.84996575 -0.17745237 4278190080
-0.42177352 0.84705716 -0.17649831 4278190080
-0.41866598 0.84859741 -0.17649831 4278190080
-0.4158498 0.84998095 -0.17649831 4278190080
-0.41073853 0.84701121 -0.17554426 4278190080
-0.40777946 0.84843975 -0.17554426 4278190080
-0.40481541 0.84985799 -0.17554426 4278190080
-0.40184644 0.85126585 -0.17554426 4278190080
-0.39872357 0.85273302 -0.17554426 4278190080
-0.3936812 0.8496663 -0.17459023 4278190080
-0.39071298 0.8510353 -0.17459023 4278190080
-0.38570771 0.84792632 -0.17363618 4278190080
-0.38274539 0.8492676 -0.17363618 4278190080
-0.3779254 0.84605068 -0.17268214 4278190080
-0.37496963 0.84736484 -0.17268214 4278190080
-0.37003908 0.84417331 -0.17172809 4278190080
-0.36709017 0.84545982 -0.17172809 4278190080
-0.36219773 0.84222716 -0.17077404 4278190080
-0.3591083 0.84354907 -0.17077404 4278190080
-0.35616159 0.84479743 -0.17077404 4278190080
-0.3532106 0.84603554 -0.17077404 4278190080
-0.35025528 0.84726328 -0.17077404 4278190080
-0.34543622 0.84393847 -0.16982 4278190080
-0.34248826 0.84513909 -0.16982 4278190080
-0.33953613 0.84632945 -0.16982 4278190080
-0.33657986 0.84750944 -0.16982 4278190080
-0.33361951 0.84867918 -0.16982 4278190080
