# .PCD v0.7 - Point Cloud Data file format
VERSION 0.7
FIELDS x y z rgb
SIZE 4 4 4 4
TYPE F F F U
COUNT 1 1 1 1
WIDTH 1154
HEIGHT 1
VIEWPOINT 0 0 0 1 0 0 0
POINTS 1154
DATA ascii
2.8643334 0.50148141 0.98982251 4294967295
2.8658001 -0.92117 0.98341513 4294967295
2.8594446 2.2270331 0.95438993 4294967295
2.8770001 0.51037425 0.96520972 4294967295
2.8610001 0.50753587 0.96272677 4294967295
2.8675001 -0.89511293 0.94711792 4294967295
2.8656001 -0.90647656 0.95812631 4294967295
2.8643527 2.2336707 0.9218055 4294967295
2.8680003 -0.88861471 0.92388594 4294967295
2.8649092 2.2551839 0.89203203 4294967295
2.8644001 2.246685 0.90609646 4294967295
2.8603334 0.50741756 0.89625126 4294967295
2.8603334 -0.89508617 0.89405096 4294967295
2.862875 2.2531288 0.87169242 4294967295
2.8683639 2.2373385 0.85739303 4294967295
2.8770001 2.2192075 0.85173249 4294967295
2.8627501 0.51448834 0.86002898 4294967295
2.8706002 -0.9027409 0.86429697 4294967295
2.8555999 2.23052 0.83999538 4294967295
2.8632503 2.2156336 0.83146602 4294967295
2.852 0.5191735 0.82238132 4294967295
2.8627143 -0.90973687 0.83300948 4294967295
2.8555 2.2285647 0.80452979 4294967295
2.8667367 2.2144229 0.80573487 4294967295
2.8686666 0.52443254 0.80637205 4294967295
2.8623333 -0.92448521 0.81462079 4294967295
2.8658001 -0.93446547 0.79857689 4294967295
2.8545711 2.2265029 0.78386068 4294967295
2.8656845 2.2157009 0.77519441 4294967295
2.8645 0.53804982 0.77387512 4294967295
2.8710001 -0.92951155 0.76444489 4294967295
2.8630998 -0.93624341 0.77507287 4294967295
2.8706667 2.2231977 0.73333478 4294967295
2.8624001 2.2172289 0.74844664 4294967295
2.8692501 0.55725372 0.74267018 4294967295
2.8634284 -0.91660476 0.74481988 4294967295
2.8598573 -0.97852141 0.74216306 4294967295
2.8620002 -0.99521136 0.732692 4294967295
2.8755002 2.2247221 0.71479589 4294967295
2.8550003 2.2176912 0.71781683 4294967295
2.8644001 0.55332524 0.70806056 4294967295
2.8725002 0.52624285 0.70459038 4294967295
2.8710001 0.50930983 0.704494 4294967295
2.8660002 0.43196571 0.70417273 4294967295
2.8675001 0.40558463 0.71092218 4294967295
2.8642001 0.37518281 0.71070248 4294967295
2.8595002 0.34471163 0.70375502 4294967295
2.875 0.32324106 0.70475107 4294967295
2.8770001 0.28341979 0.70487958 4294967295
2.8657501 0.25239697 0.70415664 4294967295
2.8610001 0.22541355 0.7038514 4294967295
2.8740001 0.2064368 0.70468682 4294967295
2.8665001 0.074010856 0.70531738 4294967295
2.8610001 0.04620124 0.71048939 4294967295
2.8604 0.016311465 0.71044946 4294967295
2.8725002 -0.013607473 0.71125507 4294967295
2.8555999 -0.043350801 0.70350438 4294967295
2.8740001 -0.066958196 0.70468682 4294967295
2.8606 -0.31550983 0.70382571 4294967295
2.872 -0.3434214 0.70989835 4294967295
2.8675001 -0.37286398 0.70426911 4294967295
2.8666668 -0.86157775 0.70421553 4294967295
2.8667502 -0.8848806 0.71751982 4294967295
2.852 -0.98070848 0.72533011 4294967295
2.8634286 2.2101445 0.68312395 4294967295
2.852 0.48939645 0.69665593 4294967295
2.8532 0.46643546 0.69673026 4294967295
2.852 0.44638515 0.69665593 4294967295
2.855 0.18519975 0.69684172 4294967295
2.8740001 0.17309596 0.69801861 4294967295
2.8770001 0.13434185 0.69820446 4294967295
2.8675001 0.1061956 0.69761598 4294967295
2.858 -0.083168872 0.69702756 4294967295
2.8642499 -0.10658956 0.69243795 4294967295
2.8635714 -0.13741681 0.68789077 4294967295
2.8685555 -0.16480675 0.68807876 4294967295
2.8591664 -0.19374 0.68494487 4294967295
2.8610001 -0.22597103 0.68393737 4294967295
2.8606 -0.25447911 0.68524945 4294967295
2.8633335 -0.2826097 0.6940397 4294967295
2.858 -0.3848792 0.69702756 4294967295
2.8644001 -0.40367508 0.6907869 4294967295
2.858 -0.43460512 0.68376547 4294967295
2.8645 -0.4655197 0.68747199 4294967295
2.858 -0.4876442 0.69039655 4294967295
2.8666 -0.52236384 0.69756025 4294967295
2.8696001 -0.55619758 0.69642264 4294967295
2.8564999 -0.58350247 0.69030708 4294967295
2.8628001 -0.61467957 0.69068271 4294967295
2.8675001 -0.64563018 0.69096291 4294967295
2.8696001 -0.67604917 0.69108808 4294967295
2.858 -0.70646691 0.69039655 4294967295
2.852 -0.73146343 0.6900388 4294967295
2.8745999 -0.76392961 0.6980558 4294967295
2.8668001 -0.79513222 0.69757265 4294967295
2.8640001 -0.82424819 0.6973992 4294967295
2.858 -0.84572083 0.69702756 4294967295
2.8634999 2.201786 0.65351564 4294967295
2.8651602 2.2060571 0.62434566 4294967295
2.8710001 2.2212408 0.58459222 4294967295
2.8640628 2.2150142 0.59482062 4294967295
2.868 2.2217674 0.56931305 4294967295
2.8634167 2.2181113 0.56283182 4294967295
2.8648458 2.2154424 0.53485906 4294967295
2.8663332 2.22206 0.49359688 4294967295
2.8621767 2.2175159 0.50665432 4294967295
2.8710001 2.2212408 0.47801286 4294967295
2.8643637 2.2184963 0.47508401 4294967295
2.8619232 2.2116508 0.44545299 4294967295
2.8644445 2.2072957 0.41607922 4294967295
2.8643124 2.2035878 0.38424557 4294967295
2.8631876 2.2052078 0.35523158 4294967295
2.8644116 2.2106495 0.3256489 4294967295
2.8613331 2.213747 0.29558545 4294967295
2.8605626 2.2123179 0.26495111 4294967295
2.8643997 2.201046 0.23398057 4294967295
2.8601665 2.1968045 0.2127403 4294967295
2.8666816 2.1803834 0.20176142 4294967295
2.8620908 2.1678483 0.1781145 4294967295
2.8740001 2.163548 0.1545662 4294967295
2.8642001 2.156162 0.14317387 4294967295
2.8555999 2.2026949 0.10456163 4294967295
2.8631999 2.174669 0.1147483 4294967295
2.858 2.1581345 0.12675744 4294967295
2.8710001 2.2212408 0.078340262 4294967295
2.8647368 2.2149673 0.084907174 4294967295
2.8650525 2.20542 0.054774314 4294967295
2.8659999 2.2273231 0.012613356 4294967295
2.8652856 2.2101412 0.029369086 4294967295
2.8659999 2.2539179 -0.013970554 4294967295
2.8642502 2.2425804 0.00046819448 4294967295
2.8647857 2.2553453 -0.035595119 4294967295
2.858 2.2509692 -0.052280843 4294967295
2.8632774 2.2388654 -0.067356884 4294967295
2.8636003 2.2322266 -0.094052374 4294967295
2.8622665 2.2295184 -0.12308806 4294967295
2.8682501 2.2240953 -0.15416121 4294967295
2.8540001 2.2191212 -0.15743279 4294967295
2.8638334 2.2123597 -0.18578058 4294967295
2.865308 2.2096572 -0.2153365 4294967295
2.8636663 2.2133281 -0.24609244 4294967295
2.8627272 2.2256863 -0.27906495 4294967295
2.863625 2.2179995 -0.26767612 4294967295
2.8662496 2.2296031 -0.30455571 4294967295
2.8638 2.2316058 -0.33582169 4294967295
2.8671429 2.2286963 -0.36487061 4294967295
2.8640001 2.2158248 -0.37908578 4294967295
2.868 2.2042761 -0.39231497 4294967295
2.858 2.1879673 -0.4037264 4294967295
2.8770001 2.192507 -0.41654247 4294967295
2.8610001 2.1836293 -0.41465646 4294967295
2.9089999 -0.87432057 2.1445532 4294967295
2.9026668 -0.87465215 2.1275616 4294967295
2.8930001 0.76156598 2.0852723 4294967295
2.8983333 -0.87895685 2.0959935 4294967295
2.8930001 0.76156598 2.065146 4294967295
2.8994999 -0.88154519 2.0685997 4294967295
2.8977499 0.76281637 2.0407665 4294967295
2.9007144 -0.88144243 2.0351186 4294967295
2.8930001 -0.89300108 2.0047324 4294967295
2.9089999 -0.90469277 1.9994415 4294967295
2.9089999 0.76577789 1.9690692 4294967295
2.9024999 -0.91613984 1.9759253 4294967295
2.8900001 0.76077628 1.9528996 4294967295
2.9000001 -0.92544353 1.9443769 4294967295
2.8930001 0.75485373 1.9174731 4294967295
2.9025998 -0.91548032 1.9119961 4294967295
2.9089997 0.7522791 1.8835772 4294967295
2.8995001 -0.88490897 1.8852854 4294967295
2.8900001 -0.90884179 1.8992572 4294967295
2.8962002 0.75568867 1.8484383 4294967295
2.8993332 -0.88486916 1.8532532 4294967295
2.9089999 0.75902849 1.8340818 4294967295
2.8930001 -0.8963607 1.8302068 4294967295
2.9089999 -0.90131807 1.8239577 4294967295
2.9089999 0.75902849 1.7834615 4294967295
2.8987999 -0.89276701 1.7958335 4294967295
2.9057498 0.7581805 1.7618281 4294967295
2.8915 -0.88247842 1.7624483 4294967295
2.8933332 0.78924936 1.7255596 4294967295
2.8999166 0.76843029 1.7346464 4294967295
2.9089999 0.52280033 1.7260917 4294967295
2.898 -0.89213955 1.7359411 4294967295
2.8917143 0.79093635 1.7112579 4294967295
2.9020002 0.76515961 1.7072866 4294967295
2.9025002 0.73823941 1.6975845 4294967295
2.89625 0.70364171 1.6955951 4294967295
2.8959999 0.68844432 1.7072634 4294967295
2.9089999 0.51605093 1.6923448 4294967295
2.9089999 0.50930154 1.7193424 4294967295
2.8977499 -0.89614505 1.7046096 4294967295
2.8900001 1.4346583 1.6679245 4294967295
2.892 0.72886831 1.6832588 4294967295
2.8936 0.71069974 1.6780866 4294967295
2.9089999 0.52954966 1.6720967 4294967295
2.8940001 -0.89219099 1.6773547 4294967295
2.9089999 -0.90131807 1.6653473 4294967295
2.9090002 2.1021543 1.6316005 4294967295
2.9000003 2.0875692 1.6321902 4294967295
2.8900003 2.0683084 1.6310455 4294967295
2.9042501 1.512485 1.6314617 4294967295
2.8936 1.4867892 1.6324295 4294967295
2.8958418 1.4518753 1.6407021 4294967295
2.8899999 1.4321438 1.6452942 4294967295
2.9089999 1.1741151 1.6316005 4294967295
2.8971248 1.1541774 1.6312536 4294967295
2.8900001 1.1362727 1.6310455 4294967295
2.8900001 0.53950155 1.6511613 4294967295
2.9024999 -0.9094131 1.6493044 4294967295
2.9010003 2.2242475 1.6049764 4294967295
2.8971431 2.2068827 1.6097776 4294967295
2.8962002 2.1762311 1.6052004 4294967295
2.8950002 2.1457577 1.6047503 4294967295
2.8962226 2.1153114 1.6147685 4294967295
2.8983335 2.0809629 1.6252748 4294967295
2.8988004 2.0598021 1.6169248 4294967295
2.9026003 1.9345422 1.6076014 4294967295
2.8995001 1.9069461 1.611141 4294967295
2.8900003 1.873855 1.6109296 4294967295
2.8970001 1.8422589 1.6093612 4294967295
2.8900003 1.8235652 1.607577 4294967295
2.8976672 1.7196939 1.6078358 4294967295
2.8997777 1.6970228 1.6108742 4294967295
2.896167 1.666164 1.6121324 4294967295
2.8971429 1.6374633 1.6116974 4294967295
2.8986001 1.6036838 1.6141758 4294967295
2.8973334 1.5716164 1.6192952 4294967295
2.89625 1.5436015 1.6250411 4294967295
2.8959999 1.5249865 1.6266328 4294967295
2.9089999 1.4440901 1.6214764 4294967295
2.8978331 1.4239719 1.6155516 4294967295
2.8988571 1.3962973 1.6123444 4294967295
2.8973334 1.3665997 1.6181704 4294967295
2.8930001 1.3354707 1.6187742 4294967295
2.9008574 1.305892 1.6179017 4294967295
2.8963335 1.2731773 1.6177905 4294967295
2.8912003 1.2440791 1.6180906 4294967295
2.8983333 1.2123827 1.6185501 4294967295
2.8973999 1.1889271 1.6231302 4294967295
2.8959999 1.1587893 1.6266328 4294967295
2.9018998 1.126143 1.6147362 4294967295
2.8900001 1.1094515 1.6042243 4294967295
2.8978331 1.0071131 1.6161216 4294967295
2.8991108 0.97541928 1.6218306 4294967295
2.8989999 0.94550049 1.6143171 4294967295
2.8938003 0.92291528 1.6069822 4294967295
2.8977499 -0.91800219 1.6172152 4294967295
2.899091 2.2362397 1.5874488 4294967295
2.9025002 2.0469422 1.5954301 4294967295
2.8983338 2.0238106 1.5826749 4294967295
2.8978333 1.9926522 1.5740899 4294967295
2.8988335 1.9653232 1.5811938 4294967295
2.8960001 1.9449373 1.599756 4294967295
2.8968003 1.8150878 1.5832419 4294967295
2.8950591 1.7222351 1.585574 4294967295
2.9089999 1.153867 1.5708561 4294967295
2.9038 1.1223965 1.5819921 4294967295
2.8900001 1.1027462 1.5841084 4294967295
2.8989999 1.0158474 1.589342 4294967295
2.9005001 0.91271532 1.5946945 4294967295
2.8963335 -0.91081882 1.5841758 4294967295
2.9090002 2.2506404 1.5641067 4294967295
2.8936002 2.2440958 1.5572326 4294967295
2.9089999 2.115653 1.5438585 4294967295
2.9090002 2.09203 1.5438585 4294967295
2.9090004 1.9862902 1.5584822 4294967295
2.9090004 1.9716665 1.5517329 4294967295
2.8995001 1.8077013 1.5606859 4294967295
2.8946249 1.7861893 1.5488678 4294967295
2.8900003 1.759865 1.5438766 4294967295
2.902667 1.7114364 1.5618188 4294967295
2.8980002 1.706129 1.551504 4294967295
2.9089999 1.1724277 1.5539826 4294967295
2.9038002 1.1538202 1.5561872 4294967295
2.8959999 1.1280729 1.556561 4294967295
2.8900001 1.1072165 1.5572872 4294967295
2.9042501 -0.9015227 1.5539541 4294967295
2.9090002 2.2506404 1.5371091 4294967295
2.8993752 2.2389698 1.5219549 4294967295
2.9090002 2.1122782 1.5371091 4294967295
2.9046669 2.0922732 1.5378338 4294967295
2.9090002 1.7714349 1.5371091 4294967295
2.8940003 1.757826 1.5363394 4294967295
2.8920002 1.6984537 1.5334004 4294967295
2.8945 1.154833 1.5387552 4294967295
2.8959999 1.1386317 1.539283 4294967295
2.8959999 0.54062164 1.5191255 4294967295
2.9089999 0.52280033 1.5101118 4294967295
2.8977499 -0.89614511 1.5163581 4294967295
2.9089999 -0.90131807 1.5371091 4294967295
2.8977504 2.2234356 1.5012391 4294967295
2.8983335 2.2121124 1.4885447 4294967295
2.8915002 0.51797545 1.4940906 4294967295
2.9089999 0.50930154 1.4898636 4294967295
2.8977499 -0.88773096 1.4961812 4294967295
2.9090002 2.2236431 1.4561167 4294967295
2.8953753 2.2115409 1.4634893 4294967295
2.901 0.50115913 1.4686693 4294967295
2.8976002 -0.87626731 1.4672263 4294967295
2.8976669 2.2299111 1.4337872 4294967295
2.8959999 0.72204041 1.4250565 4294967295
2.9026668 0.7147181 1.4316394 4294967295
2.9025002 0.49469498 1.4371893 4294967295
2.8959999 -0.89057094 1.4317757 4294967295
2.9089999 -0.90131807 1.4223698 4294967295
2.8978753 2.2319386 1.4054682 4294967295
2.9089999 0.7556538 1.4088712 4294967295
2.8945 0.73845059 1.4128394 4294967295
2.8959999 0.49358714 1.4082584 4294967295
2.89625 -0.90744013 1.4016039 4294967295
2.8975003 2.2269375 1.3798075 4294967295
2.8983335 2.2154746 1.3630142 4294967295
2.8900001 0.80771333 1.3628337 4294967295
2.9024999 -0.8959294 1.3765731 4294967295
2.8959999 -0.9040094 1.3847412 4294967295
2.8983335 2.2037005 1.3462026 4294967295
2.89925 -0.88484365 1.3487031 4294967295
2.9025717 2.1994791 1.3116643 4294967295
2.8900003 2.1890035 1.3226019 4294967295
2.8959999 -0.89057094 1.3242682 4294967295
2.9026668 -0.90384066 1.3059156 4294967295
2.9042504 2.2284267 1.2793908 4294967295
2.8920004 2.2084086 1.2896078 4294967295
2.8945 -0.91025692 1.2801942 4294967295
2.9089999 2.2551398 1.2491359 4294967295
2.8983335 2.2401426 1.2621503 4294967295
2.901 -0.9106136 1.2549851 4294967295
2.9090002 2.2573898 1.2333872 4294967295
2.8983335 2.2423732 1.2173076 4294967295
2.8983333 -0.8957634 1.2173121 4294967295
2.8930001 -0.90307295 1.2328231 4294967295
2.8977504 2.2318406 1.194483 4294967295
2.89925 -0.89157039 1.1939952 4294967295
2.9025559 2.228436 1.1659573 4294967295
2.8994999 0.51436567 1.1671588 4294967295
2.9089999 0.50930154 1.1523948 4294967295
2.8963335 -0.89514375 1.174286 4294967295
2.9046667 -0.90446496 1.158192 4294967295
2.8971667 2.2213123 1.1352489 4294967295
2.8959999 0.50702554 1.1428494 4294967295
2.9025002 -0.9161399 1.1341385 4294967295
2.9000003 2.2248328 1.1046793 4294967295
2.9089999 0.50930154 1.105149 4294967295
2.8975999 -0.91928691 1.1028384 4294967295
2.9090002 2.2506404 1.0646529 4294967295
2.8962226 2.2370148 1.0749502 4294967295
2.8930001 -0.8963607 1.0650167 4294967295
2.8900001 -0.90548915 1.0778587 4294967295
2.9090002 2.2506404 1.0444047 4294967295
2.8977501 2.2452779 1.04404 4294967295
2.9089999 0.51605093 1.0579035 4294967295
2.8959999 0.50702554 1.0420612 4294967295
2.8930001 -0.8963607 1.0515854 4294967295
2.8959999 -0.90736896 1.0387015 4294967295
2.8990002 2.233285 1.0166593 4294967295
2.9089999 0.50255215 1.0140326 4294967295
2.8930001 -0.92488259 1.0146818 4294967295
2.9089999 2.2506404 0.97691095 4294967295
2.8940001 2.2367957 0.98798412 4294967295
2.8900001 0.50597513 0.98063201 4294967295
2.9026668 -0.92404467 0.98265088 4294967295
2.9089999 2.2506404 0.94316411 4294967295
2.8900001 2.242646 0.95045817 4294967295
2.8994999 -0.89499992 0.94513488 4294967295
2.9089999 -0.90806746 0.96341223 4294967295
2.900125 2.2420812 0.92252839 4294967295
2.9024999 -0.89256984 0.93210959 4294967295
2.9002857 2.2602239 0.89191568 4294967295
2.8930001 2.2483265 0.90727538 4294967295
2.8930001 0.51321262 0.88377905 4294967295
2.9026668 -0.9060905 0.88835067 4294967295
2.901 2.2545269 0.8746922 4294967295
2.8976667 2.2373693 0.86232853 4294967295
2.899857 2.224334 0.83706152 4294967295
2.8983333 0.52088332 0.84072834 4294967295
2.89925 -0.91679007 0.83075809 4294967295
2.9089999 2.2236431 0.81155121 4294967295
2.8955557 2.2155914 0.80235517 4294967295
2.8900001 0.52609098 0.80629438 4294967295
2.8900001 -0.9289577 0.81299967 4294967295
2.9003334 -0.93675858 0.80059886 4294967295
2.9026 2.2241268 0.76713538 4294967295
2.8983335 2.2154748 0.78134859 4294967295
2.8959999 0.54734081 0.76657349 4294967295
2.8994999 -0.92863661 0.76687145 4294967295
2.8983333 -0.93611121 0.78021133 4294967295
2.8952858 2.2285082 0.74731821 4294967295
2.898 -0.91134459 0.74464345 4294967295
2.8973999 2.2335932 0.71290368 4294967295
2.8930001 0.56355101 0.7193253 4294967295
2.8900001 0.49591717 0.705715 4294967295
2.8900001 0.46574339 0.705715 4294967295
2.8983333 0.43347785 0.71297508 4294967295
2.8977499 0.40313426 0.71965957 4294967295
2.9003334 0.3799181 0.71983755 4294967295
2.8983333 0.35275292 0.71297508 4294967295
2.8900001 0.30816898 0.705715 4294967295
2.9089999 0.24945056 0.71368527 4294967295
2.9089997 0.23257713 0.71368527 4294967295
2.8983333 0.19136187 0.70625049 4294967295
2.8983333 0.1039711 0.70625049 4294967295
2.901 0.073765121 0.71483999 4294967295
2.8959999 0.046759393 0.71953899 4294967295
2.8986001 0.016525701 0.7197181 4294967295
2.9089997 -0.010400404 0.72043467 4294967295
2.8938003 -0.043934241 0.71267331 4294967295
2.8983333 -0.075348698 0.70850027 4294967295
2.9089999 -0.091392919 0.70693594 4294967295
2.9089999 -0.13526386 0.70018655 4294967295
2.8983333 -0.28828233 0.70400071 4294967295
2.8983333 -0.31968045 0.71297508 4294967295
2.8900001 -0.35900772 0.71242028 4294967295
2.8983333 -0.37350687 0.71297508 4294967295
2.9024999 -0.40435603 0.70314354 4294967295
2.9089999 -0.4963555 0.70018655 4294967295
2.9089999 -0.53347701 0.70693594 4294967295
2.9089999 -0.5436011 0.70693594 4294967295
2.9089999 -0.59759611 0.70018655 4294967295
2.9089999 -0.61446953 0.70018655 4294967295
2.9089999 -0.63134301 0.70018655 4294967295
2.9089999 -0.71571022 0.70018655 4294967295
2.9089999 -0.80345207 0.70693594 4294967295
2.9089997 -0.82482517 0.70693594 4294967295
2.9057498 -0.84973598 0.70672709 4294967295
2.9046667 -0.88424706 0.72013611 4294967295
2.8983333 2.228924 0.69278651 4294967295
2.8930001 2.2147653 0.67569911 4294967295
2.8900001 0.15729986 0.69900966 4294967295
2.8900001 0.1304787 0.69900966 4294967295
2.8940001 -0.11107003 0.69925743 4294967295
2.8959999 -0.12458056 0.69938135 4294967295
2.8900001 -0.19808069 0.69230437 4294967295
2.8936 -0.22519036 0.69251901 4294967295
2.8920002 -0.25189257 0.69242364 4294967295
2.8900001 -0.27854419 0.69900966 4294967295
2.8930001 -0.41307145 0.69584286 4294967295
2.8959999 -0.43702403 0.69266212 4294967295
2.8940001 -0.46021861 0.69254285 4294967295
2.8930001 -0.5036903 0.6991955 4294967295
2.8940001 -0.58109015 0.69925743 4294967295
2.8924003 -0.73510575 0.69915831 4294967295
2.8976922 2.2005036 0.65501201 4294967295
2.8973634 2.1994503 0.62460262 4294967295
2.8900001 2.2225301 0.58501971 4294967295
2.8998096 2.2085831 0.59645522 4294967295
2.8922501 2.2217407 0.56409889 4294967295
2.8997858 2.2132232 0.56697464 4294967295
2.896889 2.2218418 0.53589243 4294967295
2.8971429 2.2260947 0.50740463 4294967295
2.8983335 2.2266889 0.47200567 4294967295
2.894778 2.2224679 0.44558001 4294967295
2.9089997 2.2236431 0.40996337 4294967295
2.8900001 2.2158248 0.41403472 4294967295
2.9089999 2.2236431 0.39308992 4294967295
2.89925 2.2145028 0.3766984 4294967295
2.8995001 2.2130065 0.35398403 4294967295
2.8983333 2.2221992 0.31623673 4294967295
2.8962002 2.2151909 0.33116406 4294967295
2.8986249 2.2257919 0.29518369 4294967295
2.8994999 2.2264612 0.26568505 4294967295
2.8968999 2.2069829 0.23297051 4294967295
2.8983333 2.1833482 0.20638314 4294967295
2.8971429 2.1790416 0.17803919 4294967295
2.8930001 2.171139 0.14543805 4294967295
2.8930001 2.1946285 0.10180494 4294967295
2.8973334 2.1788685 0.11573565 4294967295
2.89625 2.2222819 0.076132268 4294967295
2.8983333 2.2109835 0.089834481 4294967295
2.8955998 2.208689 0.054401129 4294967295
2.8977501 2.225112 0.01708287 4294967295
2.8930001 2.2046969 0.031326264 4294967295
2.9005001 2.2586212 -0.012546062 4294967295
2.8920002 2.2419534 0.0013051033 4294967295
2.8976665 2.2665131 -0.037069559 4294967295
2.9026 2.2577934 -0.057167768 4294967295
2.8941109 2.2420964 -0.067716479 4294967295
2.8996363 2.2342129 -0.095471442 4294967295
2.8969998 2.2371454 -0.12142384 4294967295
2.8993332 2.2397921 -0.15473962 4294967295
2.89625 2.229013 -0.18425238 4294967295
2.9003334 2.2214978 -0.21665561 4294967295
2.8900001 2.2158248 -0.21291023 4294967295
2.8959999 2.2204249 -0.24466825 4294967295
2.8989999 2.2275164 -0.27475333 4294967295
2.9011109 2.2355511 -0.30471528 4294967295
2.9089999 2.2506404 -0.33921736 4294967295
2.8936 2.2427518 -0.33466601 4294967295
2.9089999 2.2506404 -0.37971365 4294967295
2.8940001 2.24575 -0.36164057 4294967295
2.9025998 2.230855 -0.39390904 4294967295
2.8900001 2.2091196 -0.40736371 4294967295
2.89625 2.2038209 -0.41943413 4294967295
2.9349999 -0.87532532 2.1556683 4294967295
2.928 0.76398605 2.12799 4294967295
2.9242001 -0.87888902 2.1190939 4294967295
2.9309998 -0.88228548 2.0929117 4294967295
2.9308 -0.88087267 2.0615282 4294967295
2.9283333 0.77086723 2.0330384 4294967295
2.9259999 -0.88848335 2.0318379 4294967295
2.9326668 0.772008 2.0012767 4294967295
2.915 -0.8964138 2.0126379 4294967295
2.93325 -0.91052997 2.0049708 4294967295
2.915 0.76735735 1.9788214 4294967295
2.93325 -0.92754614 1.9726409 4294967295
2.9215 0.76229006 1.9448009 4294967295
2.93325 -0.92754614 1.9437201 4294967295
2.9259999 0.75667536 1.9164536 4294967295
2.9259999 -0.89299762 1.9073848 4294967295
2.925 -0.91643202 1.9227359 4294967295
2.915 0.75383073 1.8807536 4294967295
2.9283333 -0.88238579 1.8903593 4294967295
2.9315 0.75809771 1.8612416 4294967295
2.9241996 -0.88974702 1.8544989 4294967295
2.9215 0.76229006 1.8227674 4294967295
2.9216664 -0.89619404 1.8239607 4294967295
2.928 -0.90041155 1.8324745 4294967295
2.915 0.76059407 1.7995939 4294967295
2.9248333 -0.89037943 1.8005074 4294967295
2.93325 0.75855029 1.7667775 4294967295
2.9215999 -0.88488621 1.7651843 4294967295
2.9230769 0.7585113 1.7319245 4294967295
2.9349999 0.74197859 1.7232521 4294967295
2.9326668 0.70623505 1.7245654 4294967295
2.928 0.6756711 1.7271758 4294967295
2.9315 0.51663756 1.7354205 4294967295
2.9315 0.50643927 1.7252221 4294967295
2.928 -0.89361811 1.7475562 4294967295
2.928 -0.90041155 1.7305726 4294967295
2.915 0.75383073 1.7150528 4294967295
2.9201999 0.72942066 1.7090565 4294967295
2.9215 0.71484143 1.7075576 4294967295
2.915 0.51035202 1.7015262 4294967295
2.9265001 -0.89485115 1.7027831 4294967295
2.9349999 0.5410924 1.6687745 4294967295
2.928 0.52621496 1.6864151 4294967295
2.9216664 -0.89619404 1.6816376 4294967295
2.9349999 -0.90596902 1.6721793 4294967295
2.928 1.5350437 1.6320673 4294967295
2.931 1.5155389 1.6345595 4294967295
2.9207776 1.4856991 1.6330818 4294967295
2.915 1.463977 1.6338933 4294967295
2.928 0.55338883 1.6592412 4294967295
2.9215 -0.91536617 1.6499188 4294967295
2.9244289 2.2286336 1.6035635 4294967295
2.922375 2.203341 1.606191 4294967295
2.9249001 2.1713095 1.6050884 4294967295
2.9282002 2.1459067 1.6076791 4294967295
2.9251819 2.1156812 1.6217353 4294967295
2.9233637 2.0853851 1.6167144 4294967295
2.9150002 2.0625286 1.6034584 4294967295
2.9282501 1.9529967 1.6032836 4294967295
2.9272859 1.9358455 1.6104479 4294967295
2.9225004 1.9059354 1.6138635 4294967295
2.9244289 1.8719205 1.6113061 4294967295
2.9182501 1.8515469 1.6046625 4294967295
2.9232502 1.7139673 1.603122 4294967295
2.9262004 1.6970314 1.609651 4294967295
2.9292858 1.6662828 1.6140988 4294967295
2.9200001 1.6358606 1.6137767 4294967295
2.9281998 1.6132569 1.6185555 4294967295
2.9259999 1.5746973 1.624519 4294967295
2.915 1.5451366 1.6271299 4294967295
2.9326668 1.4796593 1.6270355 4294967295
2.924 1.4549204 1.6169589 4294967295
2.9255998 1.4251605 1.607389 4294967295
2.9252856 1.3954501 1.6145483 4294967295
2.9229999 1.3676288 1.6206626 4294967295
2.9224999 1.3338032 1.620644 4294967295
2.9322 1.3025318 1.6200562 4294967295
2.9216664 1.2718605 1.6206132 4294967295
2.9249997 1.2450331 1.6207365 4294967295
2.9269998 1.2125396 1.6180927 4294967295
2.9278426 1.1833266 1.6173297 4294967295
2.9245887 1.1582489 1.6183823 4294967295
2.915 1.1379861 1.6081926 4294967295
2.9258184 1.0059391 1.615183 4294967295
2.9249001 0.97558349 1.6159477 4294967295
2.9234283 0.94690311 1.608035 4294967295
2.915 0.92967647 1.6000767 4294967295
2.928 -0.92079192 1.6048936 4294967295
2.9322002 2.2549803 1.5792369 4294967295
2.9244287 2.2412314 1.5900042 4294967295
2.9350002 2.1618011 1.5768435 4294967295
2.9326665 2.1464736 1.5794108 4294967295
2.9315 2.1195405 1.5733173 4294967295
2.9350002 2.0732749 1.5938678 4294967295
2.9281428 2.0528979 1.5874699 4294967295
2.9238334 2.0292084 1.5762018 4294967295
2.9261539 1.9683111 1.5838348 4294967295
2.9289999 1.8456272 1.5857142 4294967295
2.9150002 1.829195 1.5764052 4294967295
2.9244292 1.7148976 1.5856279 4294967295
2.9349999 1.5659524 1.5734386 4294967295
2.9349999 1.2016333 1.5802484 4294967295
2.9255385 1.1841924 1.5836195 4294967295
2.9185455 1.1567268 1.5872406 4294967295
2.915 1.1370842 1.591059 4294967295
2.928 1.015344 1.5947033 4294967295
2.915 0.92629486 1.5933135 4294967295
2.9259999 -0.91336405 1.5883003 4294967295
2.9224286 2.257148 1.5534245 4294967295
2.9350002 2.1669083 1.5564145 4294967295
2.9244547 2.1466389 1.5536128 4294967295
2.9191821 2.1131804 1.5585289 4294967295
2.9266927 2.0867097 1.5532202 4294967295
2.9271538 2.0233314 1.5549362 4294967295
2.9163001 1.9978161 1.5531882 4294967295
2.9282229 1.9631588 1.5551442 4294967295
2.932375 1.9378963 1.5503874 4294967295
2.9326668 1.840284 1.560125 4294967295
2.9237778 1.8150984 1.5482913 4294967295
2.9182501 1.7906094 1.5454158 4294967295
2.9237778 1.703537 1.5543236 4294967295
2.9349999 1.596596 1.5496048 4294967295
2.9311814 1.5759677 1.5559992 4294967295
2.9256878 1.5448464 1.5527052 4294967295
2.9349999 1.528499 1.5530096 4294967295
2.9349999 1.412734 1.5496048 4294967295
2.9349999 1.4004767 1.5489239 4294967295
2.9350002 1.208443 1.5598193 4294967295
2.9227998 1.1905454 1.5561703 4294967295
2.925 -0.9028706 1.5596349 4294967295
2.9350002 2.253732 1.5359854 4294967295
2.9226668 2.239723 1.522664 4294967295
2.9350002 2.1618011 1.5393902 4294967295
2.9326668 2.1430714 1.535175 4294967295
2.924875 2.1119125 1.5316236 4294967295
2.9197145 2.0885904 1.5360135 4294967295
2.9350002 2.022202 1.5393902 4294967295
2.9275 1.9918952 1.536095 4294967295
2.9270835 1.9652275 1.5349278 4294967295
2.9241998 1.9299407 1.5322468 4294967295
2.9350002 1.916652 1.5393902 4294967295
2.9280002 1.8067821 1.5369589 4294967295
2.9150002 1.781852 1.539207 4294967295
2.915 1.7006924 1.539207 4294967295
2.915 1.5654265 1.539207 4294967295
2.915 1.5518998 1.539207 4294967295
2.9349999 1.4161389 1.5393902 4294967295
2.9299998 1.3918763 1.5347421 4294967295
2.9349999 1.3786856 1.5325805 4294967295
2.928 0.55678552 1.5369589 4294967295
2.9215 0.53522187 1.5245413 4294967295
2.9283333 -0.8937043 1.5166765 4294967295
2.9315 -0.90148789 1.5347779 4294967295
2.9260001 2.2230446 1.5068392 4294967295
2.9248335 2.2165072 1.491738 4294967295
2.928 0.51602477 1.5063884 4294967295
2.9259999 0.50322461 1.4887481 4294967295
2.9182498 -0.88217324 1.4963293 4294967295
2.9282219 2.2270012 1.461551 4294967295
2.9150002 2.2147028 1.4749558 4294967295
2.9349999 0.7181446 1.4508641 4294967295
2.9215 0.4979333 1.4703143 4294967295
2.9236667 -0.88099325 1.4653454 4294967295
2.9260001 2.2396469 1.4359263 4294967295
2.9315 0.76150256 1.4259444 4294967295
2.9182501 0.73774791 1.4320099 4294967295
2.915 -0.89303213 1.4377577 4294967295
2.928 -0.90720499 1.4214702 4294967295
2.9255998 2.2376754 1.4051082 4294967295
2.9315 0.76830417 1.4089365 4294967295
2.92325 -0.9091149 1.4030344 4294967295
2.92575 2.2253985 1.3774943 4294967295
2.9250002 2.2154908 1.3628497 4294967295
2.915 0.80117387 1.3802695 4294967295
2.9282501 -0.89029354 1.3705921 4294967295
2.928 -0.90041155 1.3875029 4294967295
2.9248335 2.2051971 1.3469678 4294967295
2.9326668 -0.89277244 1.3435254 4294967295
2.9350002 2.2230883 1.3010507 4294967295
2.9268005 2.2087245 1.3165233 4294967295
2.9349999 0.51385361 1.3078604 4294967295
2.915 -0.8964138 1.3227816 4294967295
2.9315 -0.90488458 1.3171272 4294967295
2.9315002 2.2510405 1.2763178 4294967295
2.9280002 2.2347698 1.2889977 4294967295
2.9150002 2.2147028 1.2957284 4294967295
2.9280002 0.51262802 1.2788074 4294967295
2.9296 -0.91449791 1.2859975 4294967295
2.9265003 2.2624817 1.2546439 4294967295
2.9349999 0.5070439 1.2670021 4294967295
2.9264998 -0.91012943 1.2546481 4294967295
2.9281666 2.2575331 1.2267594 4294967295
2.9280002 2.2449601 1.2108729 4294967295
2.9259999 -0.89526212 1.2171798 4294967295
2.9215 -0.90179431 1.2330561 4294967295
2.9244287 2.2393014 1.1974198 4294967295
2.92975 -0.89415222 1.1942859 4294967295
2.9281666 2.2360241 1.16222 4294967295
2.9215 0.51149005 1.1652873 4294967295
2.915 -0.8964138 1.1739891 4294967295
2.9326668 -0.90638101 1.1643441 4294967295
2.9238334 2.2315793 1.1375225 4294967295
2.9349999 0.5070439 1.1376178 4294967295
2.9282498 -0.91747731 1.1395791 4294967295
2.9226668 2.2352169 1.1056232 4294967295
2.928 0.51262802 1.1021776 4294967295
2.9256001 -0.92138046 1.1084635 4294967295
2.9308002 2.251183 1.0673726 4294967295
2.9226668 2.2431176 1.0796493 4294967295
2.915 -0.8964138 1.0657762 4294967295
2.9256001 -0.90509343 1.0826926 4294967295
2.9260001 2.2524545 1.0531182 4294967295
2.9197145 2.2443979 1.0434201 4294967295
2.928 0.50583458 1.0342429 4294967295
2.915 -0.8964138 1.0590129 4294967295
2.9214997 -0.90858024 1.0432689 4294967295
2.9315002 2.2510405 1.0076594 4294967295
2.9232502 2.2413065 1.0198555 4294967295
2.928 -0.92758536 1.0274495 4294967295
2.9247501 -0.93334168 1.0099101 4294967295
2.925 2.2596145 0.97944725 4294967295
2.915 2.2485192 0.99137998 4294967295
2.9349999 0.51385361 0.97418505 4294967295
2.9215 0.50471169 0.99581277 4294967295
2.925 -0.92325336 0.97944725 4294967295
2.925 2.2584796 0.95225489 4294967295
2.9259999 0.51227784 0.95471126 4294967295
2.915 -0.8964138 0.95080018 4294967295
2.915 -0.90317708 0.95756352 4294967295
2.9303334 2.2512782 0.92587626 4294967295
2.9248998 2.2445984 0.92036092 4294967295
2.928 0.51262802 0.9255476 4294967295
2.915 -0.8964138 0.92374706 4294967295
2.9274707 2.2573175 0.8947103 4294967295
2.928 0.51262802 0.90516722 4294967295
2.9326668 2.2508028 0.87629408 4294967295
2.9248333 2.2425144 0.86401892 4294967295
2.9259999 0.51906669 0.87094456 4294967295
2.9227996 -0.91237521 0.86377668 4294967295
2.9259999 2.2332356 0.8336215 4294967295
2.9215 0.52504677 0.82635331 4294967295
2.9303334 -0.92152029 0.83296186 4294967295
2.9301426 2.2261989 0.8063798 4294967295
2.915 2.2147028 0.79524434 4294967295
2.925 0.52905744 0.80978477 4294967295
2.9232497 -0.93625218 0.80619156 4294967295
2.9282219 2.2277577 0.77460432 4294967295
2.928 0.54659534 0.77609146 4294967295
2.915 0.53740519 0.78848106 4294967295
2.9283333 -0.92542106 0.7648021 4294967295
2.9236667 -0.9375149 0.78249592 4294967295
2.9315 2.2510405 0.73899299 4294967295
2.9256001 2.239028 0.75009799 4294967295
2.928 0.56357902 0.74891764 4294967295
2.9264998 -0.91011781 0.74538797 4294967295
2.92975 2.2513969 0.71675712 4294967295
2.915 2.241756 0.70732152 4294967295
2.9214997 0.5555495 0.71621591 4294967295
2.9267998 0.52598673 0.71487045 4294967295
2.9349999 0.49682936 0.71541643 4294967295
2.9315 0.46903867 0.71518338 4294967295
2.92325 0.43549126 0.71972573 4294967295
2.9349999 0.40149355 0.72903585 4294967295
2.9215 0.36574736 0.72129595 4294967295
2.915 0.33788797 0.7140848 4294967295
2.9322 0.31607047 0.71522999 4294967295
2.928 0.28504717 0.71495032 4294967295
2.9215 0.26408678 0.71451759 4294967295
2.9215 0.21662304 0.71451759 4294967295
2.9315 0.20376486 0.71518338 4294967295
2.9296002 0.1662306 0.7082597 4294967295
2.92975 0.13567816 0.70826936 4294967295
2.9264998 0.10328339 0.71315211 4294967295
2.9303334 0.077914096 0.72190458 4294967295
2.9308 0.043931048 0.7287367 4294967295
2.9326668 0.016726715 0.72886968 4294967295
2.915 -0.02394845 0.72084808 4294967295
2.9315 -0.041096076 0.72198498 4294967295
2.9259999 -0.078364842 0.71481717 4294967295
2.9282501 -0.10900223 0.70817292 4294967295
2.925 -0.13597304 0.70458245 4294967295
2.9182501 -0.16278864 0.70075953 4294967295
2.928 -0.19389173 0.70136344 4294967295
2.93325 -0.22487089 0.70168865 4294967295
2.9295998 -0.25515044 0.70146251 4294967295
2.925 -0.28529921 0.70796412 4294967295
2.925 -0.3056587 0.71475059 4294967295
2.92975 -0.34694573 0.72186434 4294967295
2.9349999 -0.36800262 0.72222614 4294967295
2.9282498 -0.40112677 0.71157372 4294967295
2.93325 -0.43584573 0.70168865 4294967295
2.9259999 -0.48566306 0.70123959 4294967295
2.9259999 -0.51960713 0.70802838 4294967295
2.9236667 -0.55991876 0.70787841 4294967295
2.9349999 -0.57910335 0.70860672 4294967295
2.915 -0.64955342 0.70055819 4294967295
2.928 -0.67962402 0.70136344 4294967295
2.915 -0.70027816 0.70055819 4294967295
2.9281998 -0.7645728 0.70816976 4294967295
2.9193332 -0.78936273 0.7076 4294967295
2.915 -0.82201755 0.70732152 4294967295
2.9349999 -0.86851567 0.71541643 4294967295
2.9264998 -0.88296956 0.72164047 4294967295
2.9259996 2.2332435 0.68201303 4294967295
2.9268997 2.2026856 0.65376055 4294967295
2.9249165 2.1962075 0.62368977 4294967295
2.9248996 2.202528 0.59463406 4294967295
2.9315 2.223834 0.55194545 4294967295
2.9246669 2.208909 0.56951267 4294967295
2.9254286 2.2303729 0.53442633 4294967295
2.9257498 2.2389827 0.50182283 4294967295
2.9248333 2.2380002 0.47608832 4294967295
2.924125 2.2326508 0.44332114 4294967295
2.9264996 2.229373 0.41439071 4294967295
2.9257498 2.2245553 0.38556629 4294967295
2.9298749 2.2234449 0.35563463 4294967295
2.915 2.2147028 0.35224837 4294967295
2.9259999 2.2287087 0.32333016 4294967295
2.9262855 2.2368495 0.29485682 4294967295
2.92975 2.2395041 0.26302981 4294967295
2.9271662 2.2273281 0.23948303 4294967295
2.9236667 2.2077308 0.22400224 4294967295
2.9315 2.1949334 0.20677546 4294967295
2.915 2.185395 0.20683748 4294967295
2.9315 2.1949291 0.17445779 4294967295
2.915 2.1876495 0.17302102 4294967295
2.9315 2.1932309 0.14045393 4294967295
2.915 2.185395 0.14822227 4294967295
2.9303334 2.1946225 0.110006 4294967295
2.915 2.1808863 0.12567794 4294967295
2.9255996 2.2227378 0.076738089 4294967295
2.9272854 2.2094631 0.090061307 4294967295
2.9265001 2.2234285 0.063008428 4294967295
2.9238331 2.2146149 0.04872635 4294967295
2.92325 2.2260318 0.014352083 4294967295
2.9271541 2.2092929 0.026857585 4294967295
2.9269998 2.2577479 -0.0090349913 4294967295
2.9255998 2.2390094 0.004791975 4294967295
2.9266925 2.270581 -0.034169137 4294967295
2.9244287 2.2596412 -0.058812737 4294967295
2.9182501 2.2442479 -0.072814345 4294967295
2.9238331 2.2394955 -0.098252535 4294967295
2.9315 2.2510405 -0.13160926 4294967295
2.9242001 2.2447426 -0.1225037 4294967295
2.9349999 2.2571368 -0.15622526 4294967295
2.915 2.2485192 -0.14823562 4294967295
2.9315 2.2510405 -0.18263334 4294967295
2.9193332 2.2405696 -0.1910013 4294967295
2.9282498 2.2366552 -0.21241564 4294967295
2.9249997 2.2324684 -0.24552745 4294967295
2.9264998 2.2387106 -0.27987224 4294967295
2.9268 2.2426782 -0.30373037 4294967295
2.9296 2.2570479 -0.33848625 4294967295
2.915 2.2451377 -0.32408136 4294967295
2.9215999 2.259027 -0.36325622 4294967295
2.9315 2.2561436 -0.39007336 4294967295
2.9349999 2.2435174 -0.40818423 4294967295
2.9350002 2.229898 -0.42407352 4294967295
2.915 2.2113211 -0.42891246 4294967295
2.961 -0.8762095 2.173593 4294967295
2.9499998 -0.87808138 2.1503439 4294967295
2.9484999 0.76933497 2.128979 4294967295
2.9585998 -0.88236374 2.1241932 4294967295
2.9565001 -0.88173741 2.0921998 4294967295
2.957 -0.88188654 2.0684433 4294967295
2.9419999 0.77446496 2.0264635 4294967295
2.9483998 -0.89163202 2.0379438 4294967295
2.961 -0.90368962 2.0293224 4294967295
2.9419999 0.77446496 2.0196373 4294967295
2.957 -0.91619498 2.0112672 4294967295
2.9484999 0.76933497 1.9716506 4294967295
2.9484999 -0.92723876 1.9853175 4294967295
2.961 -0.93116969 1.9709271 4294967295
2.9514999 0.76326984 1.945739 4294967295
2.9574001 -0.91631418 1.9410307 4294967295
2.9589999 0.75834399 1.9115961 4294967295
2.9532499 -0.88761675 1.9123118 4294967295
2.9419999 -0.90471679 1.9240742 4294967295
2.9565001 0.75770324 1.8864018 4294967295
2.9526665 -0.88744485 1.8811953 4294967295
2.9506664 0.76305425 1.8460476 4294967295
2.9484999 -0.89303356 1.862179 4294967295
2.9549999 -0.90185839 1.8445771 4294967295
2.9594998 0.76533866 1.8259999 4294967295
2.9547501 -0.89491558 1.8238838 4294967295
2.9532499 0.76200485 1.7941096 4294967295
2.94525 -0.88521576 1.7923837 4294967295
2.9548001 0.75451958 1.7615316 4294967295
2.9589999 0.52491617 1.7536875 4294967295
2.9506664 -0.88912916 1.7684557 4294967295
2.9484999 0.75222492 1.7458817 4294967295
2.9516249 0.7359035 1.7360684 4294967295
2.9471996 0.70745975 1.7350978 4294967295
2.9514999 0.67420191 1.7402996 4294967295
2.9419999 0.50825316 1.7397738 4294967295
2.9546669 -0.89717662 1.7312707 4294967295
2.9549999 -0.90185839 1.7383076 4294967295
2.9549999 0.52421123 1.7040271 4294967295
2.9419999 0.50825316 1.719296 4294967295
2.9559999 -0.8966704 1.7057724 4294967295
2.961 0.5596258 1.668646 4294967295
2.9419999 0.53555697 1.6783403 4294967295
2.9419999 -0.89789081 1.6851662 4294967295
2.9549999 -0.90871453 1.6766026 4294967295
2.9609997 1.5695194 1.6308609 4294967295
2.9463332 1.5446351 1.6321944 4294967295
2.9532499 1.5140197 1.6330879 4294967295
2.9419999 1.4980148 1.6305587 4294967295
2.9484999 -0.92382574 1.6535203 4294967295
2.9609997 -0.93116975 1.637731 4294967295
2.9502857 2.2287838 1.602386 4294967295
2.94925 2.2030752 1.6024946 4294967295
2.9420002 2.1840217 1.6032549 4294967295
2.9499233 2.1385508 1.6072165 4294967295
2.9540002 2.1188154 1.6140803 4294967295
2.9420002 2.0952845 1.6100808 4294967295
2.9538336 1.9563569 1.6041816 4294967295
2.9540002 1.9359022 1.6119509 4294967295
2.952143 1.9014202 1.6148078 4294967295
2.95 1.8836553 1.6096025 4294967295
2.9550002 1.7103173 1.6011854 4294967295
2.9505556 1.6978438 1.6086823 4294967295
2.9548004 1.6621976 1.6148236 4294967295
2.951889 1.6316454 1.6175405 4294967295
2.9547143 1.6014361 1.6235975 4294967295
2.9499998 1.5807798 1.619864 4294967295
2.961 1.5008192 1.6239909 4294967295
2.9528999 1.4823256 1.6189039 4294967295
2.9499998 1.4541709 1.6036223 4294967295
2.9521997 1.4244204 1.6035769 4294967295
2.9509997 1.3978308 1.6147795 4294967295
2.9528575 1.3645576 1.6238801 4294967295
2.9560001 1.340529 1.6234918 4294967295
2.9560001 1.305104 1.6209817 4294967295
2.9532499 1.2724711 1.6210903 4294967295
2.9528997 1.2404742 1.6147933 4294967295
2.9468749 1.2158997 1.6084591 4294967295
2.9419999 1.1976733 1.6066679 4294967295
2.9523847 1.0048274 1.6118078 4294967295
2.9548001 0.97253209 1.6120756 4294967295
2.9484999 0.95062965 1.6056483 4294967295
2.9526665 -0.92168367 1.6094431 4294967295
2.9556253 2.2592759 1.5799773 4294967295
2.9555333 2.2386138 1.5913173 4294967295
2.9582002 2.2036037 1.5858849 4294967295
2.9419999 2.1715076 1.5884653 4294967295
2.943625 2.1433873 1.5927536 4294967295
2.952462 2.1140525 1.5881418 4294967295
2.9485002 2.083288 1.5851144 4294967295
2.9452503 2.0600152 1.5805306 4294967295
2.9480004 1.9602311 1.5863147 4294967295
2.9574289 1.9410837 1.5785465 4294967295
2.9556253 1.8778366 1.585974 4294967295
2.9420004 1.8597897 1.5827771 4294967295
2.9562004 1.712383 1.5865383 4294967295
2.9420004 1.7096189 1.5850524 4294967295
2.95875 1.6026509 1.5853982 4294967295
2.9541998 1.5761809 1.5885657 4294967295
2.9541819 1.5490649 1.5821972 4294967295
2.961 1.4492941 1.5965108 4294967295
2.9596663 1.4261346 1.5857295 4294967295
2.9585998 1.4034976 1.5791669 4294967295
2.96 1.2347618 1.5835544 4294967295
2.9448886 1.2132797 1.5876161 4294967295
2.9419999 1.0133729 1.5896031 4294967295
2.9579999 -0.91306514 1.5885501 4294967295
2.9529285 2.262099 1.5568682 4294967295
2.9610002 2.2462168 1.5415505 4294967295
2.9590003 2.2041965 1.5545876 4294967295
2.9447143 2.1796889 1.5525093 4294967295
2.9477062 2.0794256 1.5562603 4294967295
2.9500625 2.0578175 1.5544436 4294967295
2.9420002 2.0372639 1.5418215 4294967295
2.9420002 1.9587659 1.5691252 4294967295
2.9498463 1.9326422 1.5613933 4294967295
2.9555719 1.9114575 1.5504609 4294967295
2.9563336 1.8741894 1.5551809 4294967295
2.9419999 1.8502334 1.5506952 4294967295
2.9550002 1.7103173 1.5669049 4294967295
2.9536669 1.7049606 1.5607122 4294967295
2.961 1.6519598 1.5552906 4294967295
2.9595001 1.63396 1.5599169 4294967295
2.943857 1.6043439 1.5590566 4294967295
2.9419999 1.5867521 1.5691252 4294967295
2.9492497 1.5350538 1.5588725 4294967295
2.961 1.5282993 1.5621606 4294967295
2.961 1.4458591 1.5518556 4294967295
2.9492497 1.4290087 1.5571772 4294967295
2.9479229 1.3910513 1.5565009 4294967295
2.961 1.3771588 1.5415505 4294967295
2.961 1.2363232 1.5655956 4294967295
2.9463332 1.2199453 1.5638244 4294967295
2.9484999 0.54699415 1.5440791 4294967295
2.9420002 -0.90471679 1.5600239 4294967295
2.9550002 2.2519493 1.5394806 4294967295
2.9538572 2.2358816 1.5248843 4294967295
2.9560003 2.1717815 1.5357035 4294967295
2.9550002 2.1456795 1.5326244 4294967295
2.9562004 2.1156833 1.5344068 4294967295
2.9485002 2.0964782 1.537238 4294967295
2.9580002 2.0449085 1.5370805 4294967295
2.9530001 2.0253038 1.5348687 4294967295
2.9538336 1.9951774 1.5322171 4294967295
2.9526668 1.9715784 1.5295347 4294967295
2.9549999 1.3812243 1.5394806 4294967295
2.9483998 0.52440888 1.5262643 4294967295
2.9546669 -0.89488661 1.5256401 4294967295
2.9549999 -0.90185839 1.5394806 4294967295
2.9529002 2.2229309 1.4949124 4294967295
2.9463332 0.50444108 1.5023105 4294967295
2.9571998 -0.88331145 1.4990547 4294967295
2.9538572 2.2354023 1.4666426 4294967295
2.961 0.76229155 1.4522402 4294967295
2.9484999 0.73171693 1.4551458 4294967295
2.9573998 0.49719039 1.4648358 4294967295
2.9549999 -0.8915742 1.4640634 4294967295
2.9515002 2.245847 1.4355423 4294967295
2.9521999 0.7675789 1.4371269 4294967295
2.9419999 0.74374819 1.4462583 4294967295
2.9549999 0.49678686 1.443495 4294967295
2.9419999 -0.89789081 1.4462583 4294967295
2.9526665 -0.90570694 1.4359198 4294967295
2.9512224 2.2406883 1.4042641 4294967295
2.9514999 0.80090064 1.3979003 4294967295
2.9549999 0.77788711 1.4160707 4294967295
2.961 -0.89681959 1.3904099 4294967295
2.9484999 -0.90841454 1.4072359 4294967295
2.9516668 2.2265713 1.3773899 4294967295
2.9550002 2.2176688 1.3612218 4294967295
2.9547501 -0.88977754 1.3714192 4294967295
2.9501429 2.2110794 1.3412549 4294967295
2.9571998 0.51224428 1.3440125 4294967295
2.9546669 -0.89490134 1.3474016 4294967295
2.9549999 -0.90185839 1.3337975 4294967295
2.9560001 2.2293882 1.3107524 4294967295
2.9485002 2.2162037 1.3217533 4294967295
2.9560001 0.51203698 1.3189759 4294967295
2.9463332 -0.91059995 1.3109127 4294967295
2.9570003 2.2649095 1.2794576 4294967295
2.9483333 2.2423036 1.293193 4294967295
2.9549999 0.51049906 1.2926608 4294967295
2.9419999 0.50825316 1.2756097 4294967295
2.9586003 -0.916686 1.2867377 4294967295
2.951143 2.2734604 1.2564309 4294967295
2.9579999 0.51101732 1.2488317 4294967295
2.9419999 0.50825316 1.2585449 4294967295
2.9499998 -0.90888339 1.2537105 4294967295
2.9556253 2.2627037 1.2293923 4294967295
2.9515002 2.2492599 1.2129829 4294967295
2.9549999 0.51049906 1.237812 4294967295
2.9579999 -0.89591092 1.2145236 4294967295
2.9579999 -0.90277404 1.2351127 4294967295
2.9504445 2.2454245 1.1941054 4294967295
2.9536664 0.51254404 1.1906717 4294967295
2.9532499 -0.89617878 1.1928582 4294967295
2.9536669 2.2463558 1.1678102 4294967295
2.9549999 0.51049906 1.169251 4294967295
2.9419999 0.50825316 1.1527427 4294967295
2.9547501 -0.90862662 1.1657829 4294967295
2.9526668 2.244458 1.1333351 4294967295
2.961 0.51153558 1.122479 4294967295
2.9419999 0.50825316 1.1322649 4294967295
2.9514999 -0.92132312 1.137677 4294967295
2.9550002 2.2519493 1.0938337 4294967295
2.9515004 2.2458472 1.1068391 4294967295
2.9514999 0.51674241 1.0965672 4294967295
2.9548001 -0.91961026 1.1074914 4294967295
2.9570003 2.2557588 1.0747802 4294967295
2.9534004 2.2493384 1.0729394 4294967295
2.9579999 0.52474344 1.0772622 4294967295
2.9565001 -0.90231621 1.0701113 4294967295
2.9550002 2.2530921 1.0481265 4294967295
2.9515002 2.2492599 1.0486422 4294967295
2.9514999 0.50645936 1.0383482 4294967295
2.9484997 -0.91699231 1.0412488 4294967295
2.9560003 2.2609348 1.0144721 4294967295
2.9420002 2.2488682 1.0230498 4294967295
2.961 0.50466555 1.0228636 4294967295
2.9562502 -0.93653494 1.0151815 4294967295
2.9485002 2.2726533 0.98138607 4294967295
2.9549999 0.51049906 0.9841361 4294967295
2.9419999 0.50825316 0.98892021 4294967295
2.9419999 -0.9217816 0.97868127 4294967295
2.9549999 -0.93613893 0.99784833 4294967295
2.9548001 2.2696097 0.95118564 4294967295
2.9509997 -0.90473312 0.95610249 4294967295
2.957 2.255759 0.93413967 4294967295
2.9547501 2.2431748 0.91982818 4294967295
2.961 -0.90368962 0.93698835 4294967295
2.9523997 2.2540693 0.89055711 4294967295
2.9525833 2.2466629 0.89982826 4294967295
2.9484999 0.51621717 0.89759481 4294967295
2.9546669 -0.91546732 0.89494979 4294967295
2.9549999 2.2519493 0.87443846 4294967295
2.9504442 2.2469413 0.86551982 4294967295
2.9549999 0.52421123 0.85729814 4294967295
2.961 -0.91742963 0.86485308 4294967295
2.9526665 2.2433131 0.83647978 4294967295
2.961 0.52527565 0.84767807 4294967295
2.9521999 -0.92016989 0.83712697 4294967295
2.961 -0.93116969 0.82019794 4294967295
2.954273 2.2295761 0.80330992 4294967295
2.9484999 0.53331214 0.80526364 4294967295
2.9497998 -0.93859917 0.80536222 4294967295
2.9557145 2.2358339 0.77557516 4294967295
2.9549999 0.55163568 0.77502489 4294967295
2.9579999 -0.92679125 0.7684173 4294967295
2.948333 -0.93630224 0.78243524 4294967295
2.9517498 2.2580276 0.7405054 4294967295
2.961 2.2496519 0.75836766 4294967295
2.9549999 0.57220399 0.73388827 4294967295
2.961 0.56649578 0.75149769 4294967295
2.957 0.42852029 0.73060274 4294967295
2.9579999 0.37718409 0.73067391 4294967295
2.9579999 0.075216196 0.73067391 4294967295
2.961 0.034068845 0.73775762 4294967295
2.9549999 -0.024277072 0.73046029 4294967295
2.961 -0.034631405 0.73088759 4294967295
2.9549999 -0.89500231 0.73046029 4294967295
2.9509997 -0.91158283 0.74934137 4294967295
2.9565001 2.2650943 0.71341288 4294967295
2.961 0.55619079 0.72401756 4294967295
2.9609997 0.53214568 0.72401756 4294967295
2.9579999 0.45954785 0.72381085 4294967295
2.9419999 0.44681972 0.72270846 4294967295
2.9419999 0.4024511 0.72953439 4294967295
2.9419999 0.38538626 0.72953439 4294967295
2.9547501 0.34933278 0.72358692 4294967295
2.961 0.27108473 0.72401756 4294967295
2.9580002 0.25365937 0.72381085 4294967295
2.957 0.22954939 0.72374195 4294967295
2.9484999 0.19126101 0.71631527 4294967295
2.9547501 0.10599851 0.72015536 4294967295
2.9419999 0.06456697 0.72953439 4294967295
2.9419999 0.003133497 0.72953439 4294967295
2.9420002 -0.010518387 0.72953439 4294967295
2.9419999 -0.058299981 0.72270846 4294967295
2.957 -0.072323352 0.72374195 4294967295
2.9526665 -0.099630199 0.71659267 4294967295
2.9506664 -0.14063437 0.70961344 4294967295
2.961 -0.16516188 0.7102775 4294967295
2.9609997 -0.18920697 0.7102775 4294967295
2.961 -0.26477724 0.7102775 4294967295
2.9484997 -0.28417498 0.71289474 4294967295
2.9526665 -0.31882286 0.72344339 4294967295
2.9419999 -0.33133763 0.72270846 4294967295
2.9484999 -0.38338491 0.72315627 4294967295
2.9579999 -0.40176329 0.72038281 4294967295
2.9546669 -0.42875355 0.70987052 4294967295
2.9419999 -0.46444353 0.70223057 4294967295
2.9526665 -0.50379151 0.70974201 4294967295
2.9579999 -0.53559655 0.71694779 4294967295
2.957 -0.55257547 0.71688122 4294967295
2.9419999 -0.59413642 0.70905656 4294967295
2.9549999 -0.61733007 0.70989192 4294967295
2.9580002 -0.64541596 0.71008474 4294967295
2.961 -0.7181989 0.7102775 4294967295
2.9509997 -0.73629016 0.7096349 4294967295
2.9579999 -0.80325609 0.71694779 4294967295
2.9565001 -0.8234362 0.7168479 4294967295
2.9523997 -0.85310227 0.71657491 4294967295
2.9579999 -0.87874979 0.72381085 4294967295
