# .PCD v0.7 - Point Cloud Data file format
VERSION 0.7
FIELDS x y z rgb
SIZE 4 4 4 4
TYPE F F F U
COUNT 1 1 1 1
WIDTH 1121
HEIGHT 1
VIEWPOINT 0 0 0 1 0 0 0
POINTS 1121
DATA ascii
2.0650001 0.5148527 0.46105334 4294967295
2.0540001 0.5013811 0.47804996 4294967295
2.0549092 -0.91537476 0.47694707 4294967295
2.052 0.51637244 0.45666346 4294967295
2.0563998 -0.91292638 0.44700521 4294967295
2.0550001 0.52189535 0.4136593 4294967295
2.0469999 -0.89069623 0.40931785 4294967295
2.0599999 -0.90352517 0.42534363 4294967295
2.0488334 0.51557559 0.38308844 4294967295
2.059 -0.8949641 0.39338934 4294967295
2.0546253 -0.91487479 0.38447529 4294967295
2.052125 -0.94232506 0.3751201 4294967295
2.053143 0.52277833 0.35523173 4294967295
2.0483334 -0.9578076 0.35538787 4294967295
2.0560002 -0.96235532 0.35445434 4294967295
2.0535712 0.54398483 0.31980079 4294967295
2.0593333 0.53573591 0.33220589 4294967295
2.0525455 -0.95069027 0.32331187 4294967295
2.0480001 0.57238644 0.29522878 4294967295
2.0565 0.55806726 0.30383354 4294967295
2.0547061 -0.94957012 0.29225165 4294967295
2.0650001 0.41423854 0.25024265 4294967295
2.0528464 -0.91777986 0.26025614 4294967295
2.0552728 -0.93893874 0.27449566 4294967295
2.0473335 0.5769425 0.24305016 4294967295
2.058125 0.55431086 0.24218923 4294967295
2.056417 0.52464569 0.24421313 4294967295
2.0572944 0.49634558 0.24002483 4294967295
2.0587695 0.46333227 0.24077487 4294967295
2.0511765 0.43554413 0.24309832 4294967295
2.0515003 0.40438375 0.24487281 4294967295
2.0547001 0.3773793 0.24158731 4294967295
2.0603335 0.35593078 0.23651129 4294967295
2.0434999 0.31272092 0.23408619 4294967295
2.0552502 0.28232324 0.23363999 4294967295
2.0524287 0.25286505 0.23624924 4294967295
2.0538464 0.22504941 0.23924643 4294967295
2.0501668 0.19482177 0.24109209 4294967295
2.0545456 0.16556247 0.24034792 4294967295
2.0496252 0.13651976 0.2338281 4294967295
2.0486667 0.10438091 0.2333633 4294967295
2.0513334 0.075953901 0.23299021 4294967295
2.0550001 0.04569196 0.22950098 4294967295
2.0548573 0.013096064 0.22909513 4294967295
2.0556667 -0.014515757 0.23238388 4294967295
2.0565 -0.047920108 0.22749585 4294967295
2.0565 -0.074093372 0.22512001 4294967295
2.0593333 -0.10531174 0.22231486 4294967295
2.0420001 -0.12100759 0.22482046 4294967295
2.0483334 -0.17367026 0.22390497 4294967295
2.0623333 -0.1963826 0.22188118 4294967295
2.0469999 -0.21391118 0.2240977 4294967295
2.0650001 -0.2589184 0.22628689 4294967295
2.0636668 -0.27550942 0.22647652 4294967295
2.056 -0.35079709 0.22756699 4294967295
2.0526669 -0.37641415 0.23280364 4294967295
2.0420001 -0.39343044 0.23429605 4294967295
2.0562003 -0.43196684 0.23230928 4294967295
2.0444 -0.46742326 0.2292169 4294967295
2.0578334 -0.4967621 0.22730622 4294967295
2.0630002 -0.51714164 0.22657135 4294967295
2.0535002 -0.648184 0.22315809 4294967295
2.0562 -0.67046368 0.22276783 4294967295
2.0650001 -0.70449561 0.22628689 4294967295
2.0650001 -0.80750537 0.22628689 4294967295
2.0540001 -0.81509882 0.22785145 4294967295
2.0460002 -0.86179215 0.2289893 4294967295
2.0550001 -0.88703299 0.2277092 4294967295
2.0554168 -0.90548456 0.23838362 4294967295
2.098 -0.87882245 1.691644 4294967295
2.098 -0.91776419 1.691644 4294967295
2.095 -0.86460185 1.6786218 4294967295
2.0964 -0.87426174 1.682964 4294967295
2.0902402 -0.92172164 1.6737221 4294967295
2.0861111 -0.92329246 1.6462654 4294967295
2.0892401 -0.92186451 1.6148055 4294967295
2.0845416 -0.9215222 1.5859708 4294967295
2.0878696 -0.91541904 1.5549635 4294967295
2.087826 -0.92214251 1.5254544 4294967295
2.0879357 -0.9238041 1.4947293 4294967295
2.0880833 -0.92551136 1.467478 4294967295
2.0906668 -0.93072015 1.4530954 4294967295
2.0893998 -0.9270705 1.4284489 4294967295
2.0832 -0.93157756 1.4412212 4294967295
2.0869 -0.91723913 1.4053199 4294967295
2.0889997 -0.91409796 1.3764126 4294967295
2.0960002 0.51407015 1.3355201 4294967295
2.098 0.50847721 1.3411683 4294967295
2.0863001 -0.91916436 1.3460207 4294967295
2.0891306 0.54845387 1.3124068 4294967295
2.0958502 0.52862239 1.3218436 4294967295
2.0860002 -0.92306358 1.3144107 4294967295
2.0866501 0.54806709 1.2868416 4294967295
2.0894401 -0.92407727 1.2902915 4294967295
2.0856996 -0.93269604 1.2768142 4294967295
2.0885 0.54855496 1.2659539 4294967295
2.0956666 -0.92808521 1.2446315 4294967295
2.0870588 -0.93346828 1.2579716 4294967295
2.086087 -0.92262465 1.2253754 4294967295
2.0876088 -0.9167788 1.195152 4294967295
2.08935 -0.92535299 1.1678505 4294967295
2.0832224 -0.93222773 1.1560054 4294967295
2.0895717 -0.92306554 1.1335552 4294967295
2.0810001 -0.93204898 1.1437998 4294967295
2.0710001 0.57400954 1.0951517 4294967295
2.0880001 0.56659847 1.0950284 4294967295
2.0956001 0.51859343 1.0961497 4294967295
2.0857003 -0.91865659 1.1038177 4294967295
2.077667 0.55174685 1.0873621 4294967295
2.0825 0.5228402 1.0874748 4294967295
2.0886152 0.50395465 1.0720875 4294967295
2.0868418 -0.92535287 1.0755851 4294967295
2.0890002 -0.93078536 1.0613759 4294967295
2.0855 0.49644345 1.0455959 4294967295
2.0710001 -0.92997855 1.0567112 4294967295
2.0865555 -0.93533307 1.0448647 4294967295
2.0856919 0.49133381 1.0147088 4294967295
2.0869498 -0.93615299 1.0148401 4294967295
2.085125 0.48781115 0.98658049 4294967295
2.0874445 -0.93680388 0.98382759 4294967295
2.0852854 0.48914182 0.95430559 4294967295
2.0944998 -0.9267571 0.94455385 4294967295
2.0871923 -0.93834317 0.95661104 4294967295
2.0824285 0.4929609 0.93059361 4294967295
2.0859501 -0.92021394 0.92531234 4294967295
2.079 -0.93115324 0.93819356 4294967295
2.087111 -0.91917711 0.8940801 4294967295
2.0889165 -0.92831719 0.86506879 4294967295
2.0900002 -0.93123204 0.8652432 4294967295
2.0885358 -0.91723144 0.83471239 4294967295
2.0878179 0.50379694 0.80564189 4294967295
2.0855863 -0.90947026 0.80485737 4294967295
2.0844448 0.50679606 0.77486056 4294967295
2.0848529 -0.91255581 0.77404213 4294967295
2.0910001 0.51163214 0.73926586 4294967295
2.0881667 0.50850809 0.75349879 4294967295
2.092 -0.92504501 0.74621844 4294967295
2.0804999 -0.93262792 0.74178869 4294967295
2.0895 0.92091912 0.70517606 4294967295
2.0940001 0.51236618 0.72743958 4294967295
2.088846 -0.92229974 0.71500182 4294967295
2.0739999 -0.93132555 0.72545826 4294967295
2.0943334 0.91089773 0.69345272 4294967295
2.0710001 0.89114439 0.68672055 4294967295
2.092 0.51429677 0.67627776 4294967295
2.0873103 -0.92157787 0.68669844 4294967295
2.098 0.87355608 0.65968776 4294967295
2.0786667 0.86228502 0.65838277 4294967295
2.0841999 0.5123769 0.65490729 4294967295
2.0859168 -0.9197166 0.6564582 4294967295
2.0940001 0.85245687 0.63998771 4294967295
2.0826998 0.51152402 0.62918556 4294967295
2.0945001 0.50883776 0.61572647 4294967295
2.0907998 -0.92623597 0.6310522 4294967295
2.0878124 -0.93327397 0.61995262 4294967295
2.0921249 0.50826126 0.59618741 4294967295
2.0882401 -0.92219311 0.5935365 4294967295
2.0830002 -0.93294483 0.60552698 4294967295
2.0895 0.83123296 0.57429177 4294967295
2.0844998 0.5076136 0.56447691 4294967295
2.0886252 -0.91606432 0.56456417 4294967295
2.0861335 0.50429446 0.53531146 4294967295
2.0857694 -0.91871721 0.53584629 4294967295
2.0876665 0.4978922 0.50884116 4294967295
2.0843687 -0.91712928 0.50707972 4294967295
2.0871427 0.50168943 0.48186097 4294967295
2.0881 -0.91923159 0.47541252 4294967295
2.0810001 0.52367014 0.45094007 4294967295
2.0861428 -0.91948676 0.44317549 4294967295
2.086 0.5261296 0.40962592 4294967295
2.0810001 -0.89703482 0.40626925 4294967295
2.0874999 -0.90508723 0.41681427 4294967295
2.08675 0.51784194 0.38296741 4294967295
2.098 0.50847721 0.37249243 4294967295
2.0913811 -0.89359379 0.38519239 4294967295
2.084722 -0.91220355 0.37717962 4294967295
2.0774999 -0.93529409 0.37393373 4294967295
2.0849164 0.51818717 0.35406652 4294967295
2.0956256 0.49680537 0.3542771 4294967295
2.0969629 0.46497861 0.35094517 4294967295
2.0976467 0.43280959 0.35405344 4294967295
2.0976467 0.40432513 0.35476661 4294967295
2.0979998 0.37730506 0.34943479 4294967295
2.0979998 0.34408116 0.35036647 4294967295
2.0979998 0.31578276 0.35318941 4294967295
2.0979998 0.28608337 0.3554554 4294967295
2.0979998 0.26686144 0.35611919 4294967295
2.0979998 -0.83663559 0.34653127 4294967295
2.0958333 -0.85704672 0.35096991 4294967295
2.0975997 -0.88547027 0.35613751 4294967295
2.0967367 -0.91413623 0.36233684 4294967295
2.090343 -0.94764793 0.35888344 4294967295
2.0800831 -0.96340477 0.35042551 4294967295
2.0777502 0.54333824 0.31486261 4294967295
2.0881712 0.52510041 0.32555875 4294967295
2.0923598 0.49441746 0.32547086 4294967295
2.0878811 0.46485081 0.32478088 4294967295
2.0926452 0.43498561 0.32561979 4294967295
2.0978885 0.40379927 0.32626003 4294967295
2.0964446 0.37434343 0.32639408 4294967295
2.0922506 0.34446332 0.32678482 4294967295
2.0939171 0.31558108 0.32663143 4294967295
2.0968885 0.28684229 0.32635689 4294967295
2.0977836 0.25677547 0.32488894 4294967295
2.0979998 0.23040886 0.31712216 4294967295
2.0972378 -0.83331722 0.32597178 4294967295
2.0947065 -0.85486102 0.32712403 4294967295
2.098 -0.87557733 0.33679581 4294967295
2.0868335 -0.95482188 0.32587236 4294967295
2.0876667 0.58186424 0.28521237 4294967295
2.0846877 0.55422169 0.29163745 4294967295
2.0886371 0.52536923 0.29584023 4294967295
2.0846159 0.49519551 0.29494202 4294967295
2.0796583 0.46390501 0.29365927 4294967295
2.0872686 0.43428224 0.29529694 4294967295
2.0942986 0.4049108 0.29449645 4294967295
2.0965717 0.3743633 0.29476103 4294967295
2.0934529 0.34466144 0.29508758 4294967295
2.0944531 0.31566516 0.2949816 4294967295
2.0964763 0.28678563 0.29476547 4294967295
2.0976732 0.25531545 0.29464185 4294967295
2.0979998 0.22749244 0.29695892 4294967295
2.0979998 -0.83416641 0.29355067 4294967295
2.0967002 -0.85578007 0.29414034 4294967295
2.0979998 -0.8827166 0.28243959 4294967295
2.0962353 -0.91870332 0.28507429 4294967295
2.0874104 -0.94327855 0.29401845 4294967295
2.098 0.60096383 0.26783651 4294967295
2.0940652 0.58494937 0.26446995 4294967295
2.0892782 0.55645901 0.26417866 4294967295
2.0824859 0.52612066 0.26453882 4294967295
2.0807812 0.4950017 0.26478508 4294967295
2.0798061 0.46385869 0.26587036 4294967295
2.0798919 0.43456447 0.26487702 4294967295
2.0879273 0.40464389 0.26451606 4294967295
2.0955946 0.37463674 0.26294252 4294967295
2.0979998 0.34820312 0.26432088 4294967295
2.0979998 0.31466991 0.26414061 4294967295
2.09725 0.28689528 0.26306477 4294967295
2.0955501 0.25578812 0.2637659 4294967295
2.0946431 0.22665398 0.25974455 4294967295
2.093111 0.19405939 0.256291 4294967295
2.0939283 0.16740799 0.25514403 4294967295
2.098 0.14826611 0.25079948 4294967295
2.098 0.0022345604 0.25079948 4294967295
2.098 -0.0099347336 0.25079948 4294967295
2.098 -0.4285585 0.25079948 4294967295
2.098 -0.83744687 0.27513805 4294967295
2.0979998 -0.86000067 0.27059487 4294967295
2.0976665 -0.88598138 0.26301128 4294967295
2.0873101 -0.91363341 0.26532754 4294967295
2.0776665 -0.93537462 0.2759068 4294967295
2.0863636 0.58443034 0.24481571 4294967295
2.0776999 0.55610979 0.24665764 4294967295
2.0715001 0.52368557 0.24939355 4294967295
2.0746362 0.49449337 0.24679905 4294967295
2.0747778 0.46915579 0.24736288 4294967295
2.0710001 0.43706501 0.24945885 4294967295
2.0725 0.3989096 0.24926293 4294967295
2.0821333 0.37224948 0.24479029 4294967295
2.0877502 0.34391519 0.24022314 4294967295
2.0907085 0.31510511 0.23962301 4294967295
2.0853636 0.28615254 0.2409997 4294967295
2.0793123 0.25670272 0.24416086 4294967295
2.0780828 0.22641549 0.24612674 4294967295
2.0763333 0.19691443 0.24675998 4294967295
2.0789998 0.16241696 0.24497578 4294967295
2.0891905 0.13586457 0.23948058 4294967295
2.0906665 0.1065219 0.23720106 4294967295
2.0875001 0.075602137 0.23787525 4294967295
2.0873637 0.043825369 0.23545319 4294967295
2.08796 0.014242073 0.23718858 4294967295
2.0859585 -0.014726339 0.24026659 4294967295
2.0908463 -0.043121163 0.23568785 4294967295
2.0904999 -0.072744228 0.23036215 4294967295
2.0915 -0.10452325 0.22564426 4294967295
2.0854166 -0.13567606 0.22581524 4294967295
2.088222 -0.16250823 0.22460648 4294967295
2.0930002 -0.19444817 0.22230434 4294967295
2.0896666 -0.22562881 0.22480586 4294967295
2.0915997 -0.25498328 0.22866148 4294967295
2.0884545 -0.28628269 0.22737101 4294967295
2.0850832 -0.31465787 0.22586033 4294967295
2.0901051 -0.34616116 0.22936666 4294967295
2.0907648 -0.37557355 0.23547477 4294967295
2.0900452 -0.40576655 0.23861092 4294967295
2.092 -0.43439499 0.23871154 4294967295
2.091923 -0.46334219 0.23142853 4294967295
2.0919998 -0.49702457 0.22799575 4294967295
2.0897646 -0.52711338 0.2296274 4294967295
2.0875485 -0.55491835 0.23201355 4294967295
2.0885162 -0.58503044 0.2326597 4294967295
2.0908966 -0.61471117 0.23266384 4294967295
2.09325 -0.64391315 0.22976902 4294967295
2.0919445 -0.67511636 0.22677818 4294967295
2.0869 -0.70324749 0.22608888 4294967295
2.0848575 -0.73303068 0.22415793 4294967295
2.0891874 -0.76665276 0.22619143 4294967295
2.0840001 -0.79314947 0.22642162 4294967295
2.0934 -0.82782304 0.22807804 4294967295
2.0899999 -0.85651076 0.23443285 4294967295
2.0898185 -0.88522762 0.23687682 4294967295
2.080533 -0.90431517 0.24178678 4294967295
2.1053333 -0.8932941 1.6941121 4294967295
2.1065001 -0.90925986 1.6939478 4294967295
2.1059999 -0.86506921 1.6765666 4294967295
2.1119287 -0.88709617 1.6773514 4294967295
2.1093452 -0.90870547 1.6733238 4294967295
2.1121666 -0.91475278 1.6464515 4294967295
2.113625 -0.91722709 1.615157 4294967295
2.1141114 -0.91389209 1.5850842 4294967295
2.1138639 -0.91063982 1.5522362 4294967295
2.1124449 -0.91388887 1.5243372 4294967295
2.1121004 -0.90969008 1.494334 4294967295
2.1124849 -0.91724634 1.465046 4294967295
2.11287 -0.9214716 1.4369161 4294967295
2.1143999 -0.9124943 1.406773 4294967295
2.1122856 -0.91315174 1.3751119 4294967295
2.1144705 0.5035069 1.3418415 4294967295
2.1143532 -0.91884309 1.3446672 4294967295
2.111593 0.52428043 1.3132645 4294967295
2.1132858 0.50656277 1.3254199 4294967295
2.125 0.43613523 1.3024325 4294967295
2.122 -0.89872247 1.3013279 4294967295
2.112762 -0.91252017 1.3144865 4294967295
2.1111817 0.54283214 1.2826366 4294967295
2.1111999 0.53812075 1.295377 4294967295
2.1204545 0.4325217 1.2873298 4294967295
2.1152401 -0.89171773 1.2825428 4294967295
2.1046474 -0.91204894 1.2822967 4294967295
2.1110001 0.5459131 1.2678905 4294967295
2.1182499 -0.8946653 1.2661479 4294967295
2.1115437 -0.91513371 1.2561381 4294967295
2.11428 -0.91367298 1.2272391 4294967295
2.1148334 -0.91448152 1.1931756 4294967295
2.11252 -0.91801238 1.1645107 4294967295
2.125 0.51502097 1.123296 4294967295
2.1131818 -0.91569275 1.1360455 4294967295
2.1040001 0.57339269 1.1043165 4294967295
2.1185 0.5625903 1.103428 4294967295
2.1104999 0.52198625 1.1089342 4294967295
2.1165385 0.50539988 1.102141 4294967295
2.112 -0.91775542 1.1065254 4294967295
2.1125624 0.4978978 1.0772803 4294967295
2.1123998 -0.92438155 1.0749422 4294967295
2.1040001 -0.93015218 1.0603817 4294967295
2.1149001 0.49195316 1.0435376 4294967295
2.118 -0.92896205 1.0565979 4294967295
2.1139998 -0.93488735 1.0442941 4294967295
2.111625 0.48911256 1.0170184 4294967295
2.1157143 -0.92759806 1.0065899 4294967295
2.1114614 -0.93305922 1.0189673 4294967295
2.1150911 0.48583961 0.98380089 4294967295
2.1142778 -0.92677557 0.98670173 4294967295
2.1029999 -0.93133497 0.97799122 4294967295
2.1127501 0.48815173 0.95354617 4294967295
2.1131668 -0.92383415 0.95513868 4294967295
2.1040001 -0.93015218 0.96518975 4294967295
2.1085 0.4902229 0.93434334 4294967295
2.1143332 -0.91589636 0.92512214 4294967295
2.1139376 -0.91859341 0.89493769 4294967295
2.114917 -0.92187166 0.8634305 4294967295
2.1040001 -0.93015218 0.86755693 4294967295
2.11975 0.50144535 0.82589298 4294967295
2.1136925 -0.9051761 0.83539432 4294967295
2.1169167 0.50159001 0.80462015 4294967295
2.1116874 -0.90260869 0.80727655 4294967295
2.1146667 0.50268477 0.7785489 4294967295
2.1127775 -0.90542239 0.77341187 4294967295
2.1146429 0.50618881 0.74244899 4294967295
2.1111038 -0.91232127 0.7448386 4294967295
2.125 0.9390322 0.70585877 4294967295
2.1094999 0.51126438 0.72652614 4294967295
2.128 0.50587344 0.72340178 4294967295
2.11975 -0.89837688 0.7146275 4294967295
2.1077828 -0.9050166 0.7149756 4294967295
2.1169999 0.92566258 0.6953246 4294967295
2.1156249 0.51089996 0.68234956 4294967295
2.125 0.50680143 0.67710292 4294967295
2.1116431 -0.91006505 0.68560815 4294967295
2.1149445 0.50766188 0.65345919 4294967295
2.1127696 -0.91270059 0.65350378 4294967295
2.122 0.86385548 0.63666874 4294967295
2.1134665 0.5063293 0.62508422 4294967295
2.1119337 -0.91729826 0.6232118 4294967295
2.1124165 0.50461203 0.59448993 4294967295
2.1128671 -0.91051412 0.59515369 4294967295
2.1115 0.84734553 0.57240391 4294967295
2.111294 0.50217324 0.56433237 4294967295
2.1134446 -0.90597093 0.56591702 4294967295
2.1135333 0.4988232 0.53583294 4294967295
2.1106317 -0.91141576 0.53629774 4294967295
2.1115 0.49459341 0.50626993 4294967295
2.1089091 -0.91541302 0.50561088 4294967295
2.1118333 0.50119382 0.48096728 4294967295
2.1112499 -0.9170208 0.47687298 4294967295
2.1155 0.52496791 0.45105037 4294967295
2.1143332 -0.92435187 0.44873464 4294967295
2.11325 0.52933609 0.4106572 4294967295
2.1110001 -0.89650458 0.40096569 4294967295
2.1101429 -0.9083817 0.41570202 4294967295
2.1117775 0.51616287 0.38732022 4294967295
2.112 0.49686292 0.37584138 4294967295
2.1170769 0.46511215 0.37418181 4294967295
2.1122501 0.43351582 0.37763572 4294967295
2.1091001 0.40545517 0.37735349 4294967295
2.1152308 0.37635118 0.37393093 4294967295
2.1155 0.3440778 0.37477809 4294967295
2.1111364 0.31372842 0.37826696 4294967295
2.1085205 0.28422421 0.37881741 4294967295
2.1100416 0.25437057 0.37901127 4294967295
2.1113 0.22611885 0.37745199 4294967295
2.1128333 0.19588293 0.37636089 4294967295
2.1192667 0.1671304 0.37460908 4294967295
2.1231427 0.13525486 0.37072465 4294967295
2.1270001 0.10343301 0.37045348 4294967295
2.1245713 0.071979351 0.37132955 4294967295
2.1237273 0.043027785 0.37292719 4294967295
2.1205833 0.014561703 0.37336689 4294967295
2.125 -0.013020807 0.37256902 4294967295
2.128 -0.044638053 0.37038317 4294967295
2.128 -0.074261993 0.37038317 4294967295
2.125 -0.10373019 0.37059411 4294967295
2.1211429 -0.13483205 0.37157062 4294967295
2.1217499 -0.1632704 0.37143975 4294967295
2.1265001 -0.18768977 0.37048864 4294967295
2.12725 -0.29139885 0.37043589 4294967295
2.125 -0.31771508 0.37256831 4294967295
2.1216364 -0.34366444 0.37307104 4294967295
2.128 -0.36803275 0.37038317 4294967295
2.1238334 -0.56359041 0.37231958 4294967295
2.1197271 -0.58435166 0.37320149 4294967295
2.128 -0.69389606 0.37038317 4294967295
2.1238999 -0.830033 0.37264428 4294967295
2.114826 -0.85577023 0.37686893 4294967295
2.1101158 -0.88162321 0.38390076 4294967295
2.1027999 0.48719618 0.36630112 4294967295
2.1047692 0.46504194 0.36450556 4294967295
2.1029999 0.44138095 0.36726156 4294967295
2.1010001 0.39464939 0.36740682 4294967295
2.1030591 0.37250346 0.36180788 4294967295
2.1032856 0.34837273 0.36306155 4294967295
2.1018572 0.31852868 0.36455902 4294967295
2.1010001 0.29471847 0.35522014 4294967295
2.1020651 0.25175604 0.35490018 4294967295
2.104223 0.22437795 0.35496637 4294967295
2.1097782 0.19559219 0.35452354 4294967295
2.1172223 0.16681103 0.35393536 4294967295
2.1178091 0.13492617 0.35390368 4294967295
2.116667 0.10293052 0.35399991 4294967295
2.1142225 0.073385119 0.35419142 4294967295
2.1116667 0.043895792 0.35439056 4294967295
2.1121669 0.014498473 0.35435224 4294967295
2.1154997 -0.014932303 0.35409403 4294967295
2.1195555 -0.04446369 0.3537792 4294967295
2.1198606 -0.07397607 0.35375208 4294967295
2.1172502 -0.10335626 0.35395449 4294967295
2.1150498 -0.13441348 0.354608 4294967295
2.1178682 -0.1663699 0.35337707 4294967295
2.1205001 -0.19627884 0.35311967 4294967295
2.123667 -0.22548531 0.34989473 4294967295
2.1222694 -0.25700739 0.34958518 4294967295
2.1181431 -0.28558353 0.35354131 4294967295
2.1118338 -0.31378409 0.35438552 4294967295
2.1108894 -0.34303573 0.35445523 4294967295
2.1172225 -0.37354669 0.35395432 4294967295
2.1239171 -0.40429014 0.35342735 4294967295
2.1268995 -0.43314835 0.35105175 4294967295
2.128 -0.46336105 0.34379759 4294967295
2.128 -0.48405981 0.34075922 4294967295
2.128 -0.52986717 0.34624514 4294967295
2.1225641 -0.55522364 0.35270393 4294967295
2.1148334 -0.58411032 0.35412946 4294967295
2.1196575 -0.61487424 0.3527168 4294967295
2.1166878 -0.64538777 0.351861 4294967295
2.1156929 -0.67552572 0.35427612 4294967295
2.1160574 -0.7059899 0.35384363 4294967295
2.1200314 -0.73464775 0.35435975 4294967295
2.1257501 -0.75646025 0.34876037 4294967295
2.1263077 -0.80149406 0.34621835 4294967295
2.1129324 -0.82309675 0.355299 4294967295
2.1037142 -0.85297191 0.36372527 4294967295
2.1014998 -0.88516676 0.35599044 4294967295
2.1034374 -0.91587353 0.34739941 4294967295
2.1039166 -0.93946844 0.3464461 4294967295
2.1015999 0.24506561 0.33615693 4294967295
2.1028216 0.22231221 0.32842112 4294967295
2.1080561 0.19543269 0.32532892 4294967295
2.1158609 0.16670351 0.3246167 4294967295
2.1155641 0.13591906 0.32520151 4294967295
2.1123333 0.10403906 0.32436609 4294967295
2.110389 0.073249996 0.32510844 4294967295
2.1073062 0.043806907 0.3253932 4294967295
2.1060841 0.01445887 0.32551003 4294967295
2.1081951 -0.014878277 0.32531363 4294967295
2.1110559 -0.044284165 0.32505137 4294967295
2.1103616 -0.073647566 0.32511693 4294967295
2.113667 -0.10319233 0.32480937 4294967295
2.1197777 -0.13300155 0.32423186 4294967295
2.122715 -0.1651883 0.32396391 4294967295
2.1166666 -0.19663636 0.32452849 4294967295
2.1110561 -0.22550561 0.32505134 4294967295
2.1106114 -0.25484306 0.32509276 4294967295
2.1097782 -0.28411147 0.32515886 4294967295
2.1090562 -0.31337357 0.32522178 4294967295
2.1084063 -0.34309307 0.32521975 4294967295
2.1155434 -0.37360233 0.32469988 4294967295
2.1243999 -0.40403247 0.32416153 4294967295
2.128 -0.4346866 0.33458757 4294967295
2.1259997 -0.46386984 0.32366949 4294967295
2.1255996 -0.492392 0.32173413 4294967295
2.1260002 -0.52306491 0.32366753 4294967295
2.1232624 -0.55440503 0.32391912 4294967295
2.1161394 -0.58446211 0.32457459 4294967295
2.1096196 -0.61447406 0.32517985 4294967295
2.1057782 -0.6451208 0.32553446 4294967295
2.1078339 -0.67509621 0.32534045 4294967295
2.110528 -0.70533872 0.32508358 4294967295
2.1135144 -0.73541439 0.32446784 4294967295
2.1209092 -0.76584703 0.32392591 4294967295
2.1175909 -0.79611117 0.32445723 4294967295
2.1048265 -0.81861335 0.32679224 4294967295
2.1051486 -0.88580447 0.3244102 4294967295
2.114794 -0.91529936 0.32468387 4294967295
2.1099169 -0.94172484 0.32514268 4294967295
2.1013334 0.21404907 0.29316601 4294967295
2.1037784 0.19504252 0.29642761 4294967295
2.1076117 0.16605647 0.29601926 4294967295
2.1118202 0.13566795 0.29500377 4294967295
2.1114874 0.10400448 0.29616863 4294967295
2.1075284 0.073150367 0.29602942 4294967295
2.105334 0.043763887 0.29625863 4294967295
2.1020839 0.014436049 0.29660684 4294967295
2.1029177 -0.014840913 0.29652193 4294967295
2.1047783 -0.044150811 0.29632682 4294967295
2.1037784 -0.073416971 0.29643044 4294967295
2.107084 -0.10287304 0.29608405 4294967295
2.1196949 -0.13300306 0.29474458 4294967295
2.1230481 -0.16521259 0.29438412 4294967295
2.1160555 -0.19657502 0.2951251 4294967295
2.1106668 -0.22546662 0.29569471 4294967295
2.1131947 -0.25516254 0.29542115 4294967295
2.118695 -0.28532034 0.29483312 4294967295
2.1191115 -0.31486586 0.29479063 4294967295
2.1143894 -0.34359932 0.29529423 4294967295
2.1158891 -0.37330607 0.29514346 4294967295
2.1199722 -0.40367621 0.29403737 4294967295
2.1224079 -0.43527129 0.2903561 4294967295
2.1175501 -0.46520925 0.29547009 4294967295
2.1165836 -0.49620274 0.29507571 4294967295
2.1202502 -0.52657127 0.29468536 4294967295
2.1188338 -0.55571479 0.29483676 4294967295
2.1172495 -0.58477193 0.29499447 4294967295
2.1141791 -0.61467308 0.2958771 4294967295
2.1144285 -0.64489573 0.2952109 4294967295
2.1196861 -0.67516857 0.29451209 4294967295
2.1217225 -0.7049709 0.29451197 4294967295
2.1154387 -0.73432809 0.29488707 4294967295
2.113889 -0.76531708 0.29535484 4294967295
2.1111431 -0.79614818 0.29564768 4294967295
2.1028264 -0.81953633 0.29706031 4294967295
2.1043799 -0.88671941 0.29813975 4294967295
2.1079292 -0.9133718 0.29879692 4294967295
2.1053333 -0.93616802 0.30467999 4294967295
2.1010001 0.33750728 0.25853902 4294967295
2.1010001 0.32125837 0.25908068 4294967295
2.1020715 0.2185736 0.27327061 4294967295
2.1034169 0.19501068 0.27206892 4294967295
2.1060717 0.16471484 0.26984075 4294967295
2.1106818 0.13546559 0.26488277 4294967295
2.1123505 0.10370332 0.2651422 4294967295
2.1109493 0.072702423 0.2649684 4294967295
2.1127226 0.043919988 0.26606449 4294967295
2.1065269 0.014214564 0.26590994 4294967295
2.1034482 -0.015355203 0.26628515 4294967295
2.1056437 -0.044169493 0.26447761 4294967295
2.1053667 -0.073175825 0.26486328 4294967295
2.1088896 -0.10296013 0.26652122 4294967295
2.1193061 -0.13297653 0.26527241 4294967295
2.120667 -0.16502494 0.26511362 4294967295
2.1152506 -0.19650599 0.26576254 4294967295
2.1128891 -0.22570445 0.26604038 4294967295
2.114639 -0.25533336 0.26584464 4294967295
2.1186948 -0.28532028 0.2653577 4294967295
2.1186392 -0.31479517 0.26536378 4294967295
2.1145277 -0.34362242 0.26585618 4294967295
2.1120698 -0.37541005 0.26575395 4294967295
2.1069057 -0.40593159 0.26433429 4294967295
2.1063507 -0.4353973 0.26513472 4294967295
2.1093688 -0.46462718 0.26557493 4294967295
2.1131392 -0.49539137 0.26602155 4294967295
2.1122704 -0.52505004 0.2656697 4294967295
2.1098862 -0.5548113 0.26364467 4294967295
2.1113658 -0.58488101 0.26392034 4294967295
2.1126275 -0.61501241 0.26387602 4294967295
2.1151953 -0.64486885 0.26538256 4294967295
2.1166487 -0.67505932 0.26555064 4294967295
2.1173785 -0.70556444 0.26558605 4294967295
2.1152108 -0.73544282 0.26628649 4294967295
2.114778 -0.76563787 0.2658186 4294967295
2.1118338 -0.79640865 0.26617172 4294967295
2.1054692 -0.82470334 0.26555771 4294967295
2.1033335 -0.85340023 0.25894371 4294967295
2.1010001 -0.87032974 0.25285187 4294967295
2.1010001 0.12654206 0.24553984 4294967295
2.1056154 0.10596287 0.24719426 4294967295
2.1043332 0.075485229 0.24673468 4294967295
2.1056154 0.042831019 0.24681932 4294967295
2.1055 0.021784188 0.24739745 4294967295
2.1010001 -0.048946369 0.24553984 4294967295
2.1026921 -0.076947145 0.24269465 4294967295
2.1070337 -0.10384417 0.23987362 4294967295
2.11271 -0.13405515 0.23896718 4294967295
2.1137781 -0.16612138 0.23816815 4294967295
2.1101396 -0.19603342 0.23702097 4294967295
2.1096454 -0.22495896 0.23905426 4294967295
2.1054406 -0.25372836 0.24203527 4294967295
2.1059635 -0.28441614 0.24110016 4294967295
2.106719 -0.31409603 0.23945463 4294967295
2.1063204 -0.34375745 0.24309075 4294967295
2.1050715 -0.37383568 0.24571016 4294967295
2.102 -0.39767274 0.24540922 4294967295
2.1010001 -0.44623268 0.24553984 4294967295
2.1047895 -0.46631879 0.24299288 4294967295
2.1058009 -0.49366745 0.24003538 4294967295
2.1048002 -0.52360892 0.24289948 4294967295
2.1018572 -0.55439484 0.24473146 4294967295
2.1015 -0.58530086 0.24547452 4294967295
2.1024287 -0.61448002 0.24605194 4294967295
2.1041176 -0.64676529 0.24456385 4294967295
2.1048403 -0.67482036 0.24211457 4294967295
2.1070695 -0.7046057 0.24020314 4294967295
2.1078615 -0.73527902 0.23745829 4294967295
2.1069658 -0.76339424 0.24038649 4294967295
2.1070316 -0.79583001 0.24063581 4294967295
2.1069317 -0.82592398 0.24021828 4294967295
2.104857 -0.85099226 0.2439934 4294967295
2.1489999 -0.88024139 1.6902089 4294967295
2.135 -0.86955339 1.6875391 4294967295
2.1394999 -0.88875729 1.6813103 4294967295
2.1457143 -0.90875679 1.6734835 4294967295
2.1465001 -0.91967851 1.6483555 4294967295
2.1435714 -0.92063731 1.617591 4294967295
2.1484442 -0.9143461 1.5857738 4294967295
2.1453333 -0.91302645 1.5571184 4294967295
2.1473334 -0.91276932 1.5240612 4294967295
2.1476364 -0.9077611 1.4960375 4294967295
2.1431429 -0.91761559 1.4650265 4294967295
2.1445 -0.91694915 1.4339982 4294967295
2.1445 -0.91520876 1.4016531 4294967295
2.1489999 0.50254464 1.3694346 4294967295
2.1433334 -0.91879988 1.3760405 4294967295
2.1418889 0.50089002 1.3434412 4294967295
2.1470001 -0.92300719 1.3441613 4294967295
2.1440001 0.52608311 1.3144064 4294967295
2.1503332 0.45131293 1.3067766 4294967295
2.1370001 0.44355631 1.3043742 4294967295
2.142 -0.89723712 1.3053734 4294967295
2.1489999 -0.90766466 1.3187485 4294967295
2.14675 0.54270113 1.2905177 4294967295
2.135 0.53725886 1.2962074 4294967295
2.1559999 0.45250225 1.29884 4294967295
2.1426363 0.44066083 1.2808928 4294967295
2.14325 -0.88969547 1.2830336 4294967295
2.1542499 0.43589377 1.2669679 4294967295
2.1389999 -0.89599675 1.2678847 4294967295
2.1448333 -0.90755653 1.2537432 4294967295
2.1459999 -0.91232455 1.2247493 4294967295
2.1452501 -0.91790092 1.19664 4294967295
2.148 -0.91782576 1.1626275 4294967295
2.1559999 0.54754567 1.12376 4294967295
2.1443079 0.52045482 1.1354237 4294967295
2.148 0.50729847 1.1248413 4294967295
2.1462858 -0.9189676 1.1359544 4294967295
2.1389999 0.57796818 1.1140364 4294967295
2.135 0.53725886 1.1178792 4294967295
2.1453001 0.49952534 1.1043379 4294967295
2.1444001 -0.92512393 1.1105537 4294967295
2.1489999 -0.93010187 1.0943764 4294967295
2.1464999 0.4953306 1.0737866 4294967295
2.135 -0.92899615 1.0782506 4294967295
2.1478 -0.93356532 1.0726334 4294967295
2.1370001 0.49313837 1.0515058 4294967295
2.1456668 -0.93860507 1.0450809 4294967295
2.1446667 0.48993155 1.0111221 4294967295
2.135 -0.92899615 1.0113776 4294967295
2.1481428 -0.93257248 1.0168836 4294967295
2.135 0.48772329 0.99899369 4294967295
2.1377499 -0.92894799 0.98099649 4294967295
2.1517999 -0.93131375 0.98778844 4294967295
2.1464 0.49032754 0.96169025 4294967295
2.1453333 -0.92408079 0.9542945 4294967295
2.1470001 -0.91998112 0.92695087 4294967295
2.1464 -0.92399031 0.89447427 4294967295
2.144923 -0.91760832 0.8649385 4294967295
2.1458001 0.50114018 0.83214819 4294967295
2.1471429 -0.90509701 0.83659112 4294967295
2.1356668 0.49778584 0.80342019 4294967295
2.1424444 -0.9057138 0.8068164 4294967295
2.1467144 0.50106835 0.77320927 4294967295
2.1442857 -0.90957999 0.77363324 4294967295
2.1450002 0.50266558 0.74470794 4294967295
2.1431251 -0.90953046 0.74287796 4294967295
2.1434166 0.50207275 0.71492767 4294967295
2.135 -0.89927477 0.70921016 4294967295
2.1498334 -0.90302145 0.71550286 4294967295
2.1559999 0.94772869 0.69856548 4294967295
2.1465383 0.50337362 0.6859051 4294967295
2.1434546 -0.90915722 0.68441117 4294967295
2.151 0.88814372 0.64575499 4294967295
2.1452858 0.50429052 0.6571421 4294967295
2.1486363 -0.91271502 0.65671611 4294967295
2.1485 0.5057618 0.62566638 4294967295
2.1428182 -0.91385758 0.62425214 4294967295
2.1559999 0.86268979 0.5835129 4294967295
2.1453333 0.50335073 0.59315813 4294967295
2.1444287 -0.90536565 0.59418666 4294967295
2.1422858 0.50003612 0.56749582 4294967295
2.1475 -0.9051581 0.56831396 4294967295
2.1463749 0.49715936 0.53715104 4294967295
2.1440001 -0.91550177 0.5383836 4294967295
2.1470001 0.495446 0.50603133 4294967295
2.1396 -0.92106932 0.50459224 4294967295
2.1370001 0.51544791 0.4664377 4294967295
2.1423333 0.50430244 0.47873586 4294967295
2.1386669 -0.9214946 0.47630498 4294967295
2.135 0.5323053 0.44419447 4294967295
2.1506 -0.9347837 0.4486382 4294967295
2.1389999 0.53330261 0.40931252 4294967295
2.1376667 -0.91361982 0.4126839 4294967295
2.1489999 -0.93010187 0.42873925 4294967295
2.1444001 0.51970702 0.39211255 4294967295
2.1448998 0.49344933 0.38263756 4294967295
2.1442001 0.46493906 0.38169119 4294967295
2.1370001 0.44107953 0.38462502 4294967295
2.141 0.40960333 0.38437161 4294967295
2.1512001 0.37759784 0.37873432 4294967295
2.1472001 0.34403789 0.38099325 4294967295
2.1500001 0.31154317 0.38754916 4294967295
2.152 0.28438303 0.38866779 4294967295
2.1559999 0.26241529 0.38842368 4294967295
2.135 0.2202308 0.38475171 4294967295
2.1388333 0.19331975 0.38450888 4294967295
2.1471429 0.16525137 0.38042766 4294967295
2.1435001 0.13405865 0.37426668 4294967295
2.1429999 0.10422575 0.37430066 4294967295
2.142143 0.073261887 0.37578815 4294967295
2.1495714 0.046461895 0.37813359 4294967295
2.1393335 0.014705418 0.37951359 4294967295
2.1427498 -0.017610339 0.3780508 4294967295
2.1422501 -0.046812829 0.37560225 4294967295
2.1442001 -0.076826394 0.37621999 4294967295
2.1356666 -0.10426098 0.37479925 4294967295
2.1374002 -0.13162003 0.37468141 4294967295
2.1374002 -0.16633768 0.37468141 4294967295
2.1475 -0.18955718 0.37399471 4294967295
2.1559999 -0.26532602 0.37341684 4294967295
2.1422858 -0.28598252 0.37434924 4294967295
2.1472499 -0.31282258 0.37775531 4294967295
2.1428571 -0.34573197 0.37857455 4294967295
2.1475 -0.37391213 0.37399471 4294967295
2.1470001 -0.56059897 0.37402871 4294967295
2.1430001 -0.58442044 0.37927279 4294967295
2.148 -0.60572135 0.37562817 4294967295
2.1559999 -0.70302618 0.37341684 4294967295
2.1444547 -0.82543093 0.3769151 4294967295
2.1464999 -0.86176735 0.38402319 4294967295
2.1475 -0.88710314 0.39143777 4294967295
2.1475 -0.90203863 0.39890754 4294967295
2.1363335 -0.20095065 0.36979726 4294967295
2.1407332 -0.22520272 0.36552382 4294967295
2.1413527 -0.25285465 0.36477846 4294967295
2.1366 -0.27433923 0.36779708 4294967295
2.1363332 -0.38434702 0.36979726 4294967295
2.1389999 -0.40715644 0.36960977 4294967295
2.1402001 -0.43866384 0.36605698 4294967295
2.1413329 -0.46472976 0.35828477 4294967295
2.141088 -0.49608517 0.35268444 4294967295
2.1394992 -0.52372038 0.3548781 4294967295
2.1398335 -0.54715627 0.36624882 4294967295
2.1422 -0.61900347 0.36839408 4294967295
2.1445456 -0.64545459 0.36651796 4294967295
2.1437142 -0.67412734 0.36927831 4294967295
2.1357999 -0.70536333 0.36983475 4294967295
2.1424999 -0.73591858 0.3693637 4294967295
2.1394782 -0.76907229 0.35837093 4294967295
2.1411943 -0.79327667 0.35733175 4294967295
2.1363335 -0.81226778 0.36814606 4294967295
2.135 -0.41877899 0.31044823 4294967295
2.1349993 -0.43611652 0.31964773 4294967295
2.135 -0.50051284 0.33273929 4294967295
2.135 -0.41877899 0.30549467 4294967295
2.135 -0.43611646 0.30351323 4294967295
2.172857 -0.88711262 1.6996002 4294967295
2.18625 -0.90818185 1.6952732 4294967295
2.1600001 -0.89978182 1.6861758 4294967295
2.1729999 -0.91954309 1.6741678 4294967295
2.1745 -0.92725569 1.6448126 4294967295
2.1743999 -0.92291802 1.6142147 4294967295
2.1747143 -0.9167186 1.5830842 4294967295
2.1769998 -0.91947919 1.556424 4294967295
2.1749997 -0.91213763 1.5241213 4294967295
2.1760666 -0.91251743 1.4928881 4294967295
2.1742382 -0.91865963 1.4658806 4294967295
2.1764996 -0.91673529 1.4350048 4294967295
2.1889999 0.50513792 1.3920226 4294967295
2.1756248 -0.91763192 1.40592 4294967295
2.1781111 0.50036329 1.3719373 4294967295
2.1714444 -0.92524916 1.3783109 4294967295
2.1876667 -0.93160975 1.3694925 4294967295
2.174 0.51176465 1.3305627 4294967295
2.1736426 0.50085855 1.3459082 4294967295
2.1889999 0.45434943 1.3361553 4294967295
2.1772499 -0.92271739 1.3437319 4294967295
2.1849999 -0.93047422 1.3549423 4294967295
2.174 0.5420289 1.3002985 4294967295
2.1717777 0.52719015 1.3176851 4294967295
2.1772141 0.46562901 1.3155267 4294967295
2.164 0.44916046 1.3218133 4294967295
2.1655002 -0.89453006 1.3047776 4294967295
2.1756666 -0.90544951 1.3210763 4294967295
2.1725001 0.54416072 1.2947195 4294967295
2.1772306 0.45734617 1.2862701 4294967295
2.1620002 0.44874534 1.2784323 4294967295
2.1658001 -0.89315528 1.2872884 4294967295
2.178 -0.90347314 1.2764761 4294967295
2.1600001 0.44081289 1.2652041 4294967295
2.1752305 -0.91154683 1.2545246 4294967295
2.1758571 -0.9128589 1.2245061 4294967295
2.1853333 0.52963817 1.1826779 4294967295
2.174222 -0.92082018 1.1952744 4294967295
2.1826668 0.54418975 1.1615839 4294967295
2.1764815 0.52430779 1.1648552 4294967295
2.1849999 0.50928444 1.1521593 4294967295
2.176214 -0.92058772 1.1665474 4294967295
2.1889999 0.60163611 1.1330011 4294967295
2.184 0.57998133 1.1265337 4294967295
2.1766667 0.55280471 1.1345956 4294967295
2.1618335 0.5239352 1.1454568 4294967295
2.1738 0.50514454 1.1332719 4294967295
2.1708999 -0.92345071 1.1379929 4294967295
2.1854999 -0.93321842 1.124419 4294967295
2.1744285 0.49816358 1.1072891 4294967295
2.1803334 -0.93775797 1.1069552 4294967295
2.1793334 0.49785087 1.0772016 4294967295
2.1801429 -0.94358075 1.0748464 4294967295
2.1708333 0.49590912 1.0448196 4294967295
2.1736665 -0.94244856 1.0440857 4294967295
2.1756668 0.49280056 1.015685 4294967295
2.1769998 -0.93521219 1.0146154 4294967295
2.1775711 0.49239606 0.98325217 4294967295
2.1600001 -0.92985123 0.97453308 4294967295
2.1790907 -0.9339205 0.98405224 4294967295
2.1620002 0.49389124 0.94736248 4294967295
2.1741664 -0.92626125 0.95479751 4294967295
2.1849999 -0.93047422 0.96458519 4294967295
2.1750829 -0.92371655 0.9247148 4294967295
2.1760585 -0.92546058 0.89385819 4294967295
2.1813333 0.50505006 0.85586691 4294967295
2.1735883 -0.91550225 0.86732161 4294967295
2.174818 0.50093305 0.8358897 4294967295
2.1739089 -0.90877658 0.83713949 4294967295
2.1729999 0.49933115 0.80584109 4294967295
2.1728888 -0.91186285 0.80247092 4294967295
2.1748335 0.50186878 0.77328455 4294967295
2.1739089 -0.91473705 0.77614951 4294967295
2.1754544 0.50016236 0.743765 4294967295
2.1745832 -0.91424567 0.74549341 4294967295
2.1849999 0.97061563 0.71110654 4294967295
2.1699998 0.49714169 0.71301103 4294967295
2.1743333 -0.90798563 0.7152037 4294967295
2.1745 0.9394353 0.68367207 4294967295
2.1777141 0.49891075 0.68627918 4294967295
2.1768179 -0.91412246 0.68374372 4294967295
2.1741538 0.5032503 0.65543664 4294967295
2.1768329 -0.91519904 0.65525591 4294967295
2.178 0.88158321 0.62708998 4294967295
2.1735451 0.50431025 0.62574303 4294967295
2.1726153 -0.91626751 0.62625855 4294967295
2.171 0.86365479 0.58899188 4294967295
2.1729167 0.5014112 0.5966028 4294967295
2.1740623 -0.90593821 0.59791833 4294967295
2.171 0.87372893 0.57891768 4294967295
2.1724999 0.49879798 0.5663628 4294967295
2.1739087 -0.90878171 0.56752127 4294967295
2.1754286 0.49767479 0.53793705 4294967295
2.1737499 -0.92315853 0.54116309 4294967295
2.1777999 0.4975006 0.50834817 4294967295
2.171 -0.92954946 0.50336134 4294967295
2.17975 -0.93202621 0.50454253 4294967295
2.1793334 0.51808733 0.46789166 4294967295
2.1723332 0.50297093 0.48318496 4294967295
2.1652 -0.92605358 0.48130292 4294967295
2.1809998 -0.93213159 0.4720954 4294967295
2.1849999 0.54477149 0.43228 4294967295
2.171 0.53370672 0.44923523 4294967295
2.1830001 -0.94380337 0.4455412 4294967295
2.1799998 0.54098541 0.40970942 4294967295
2.1600001 0.53352684 0.40321425 4294967295
2.1735001 -0.91800517 0.40626565 4294967295
2.1764998 -0.93442291 0.41999024 4294967295
2.1754284 0.52072465 0.39372686 4294967295
2.1724999 0.49690586 0.38805157 4294967295
2.1715713 0.46583632 0.38675746 4294967295
2.1668332 0.43214965 0.38776255 4294967295
2.1774001 0.40242237 0.38307965 4294967295
2.1745 0.37056598 0.37974367 4294967295
2.1754999 0.34681198 0.38345176 4294967295
2.165 0.32379726 0.38787442 4294967295
2.1889999 0.29690498 0.39148861 4294967295
2.1626668 0.24817039 0.38801682 4294967295
2.1719999 0.22656484 0.38744724 4294967295
2.1708333 0.1962266 0.38751844 4294967295
2.1793334 0.16665307 0.38363469 4294967295
2.1731665 0.13591237 0.3772918 4294967295
2.1696665 0.1055233 0.37752163 4294967295
2.1746998 0.077484205 0.38023216 4294967295
2.1851666 0.045425728 0.38157374 4294967295
2.1728334 0.014946047 0.38235503 4294967295
2.1761668 -0.015382767 0.38214386 4294967295
2.1696668 -0.046392199 0.37921458 4294967295
2.1802497 -0.073577866 0.38063231 4294967295
2.1664286 -0.10394809 0.37845981 4294967295
2.1645999 -0.13329454 0.37785435 4294967295
2.1610003 -0.17068098 0.37809074 4294967295
2.1703334 -0.19658038 0.37580734 4294967295
2.1728749 -0.22834401 0.37353921 4294967295
2.1752999 -0.25255266 0.3751452 4294967295
2.1701112 -0.28636065 0.3786211 4294967295
2.1876667 -0.3148987 0.38141537 4294967295
2.1798332 -0.34410295 0.38191161 4294967295
2.1734288 -0.37588784 0.37728187 4294967295
2.1685712 -0.405211 0.37328765 4294967295
2.1674998 -0.43773037 0.37263495 4294967295
2.1790001 -0.46382323 0.37286884 4294967295
2.1810002 -0.55936992 0.37374538 4294967295
2.1745 -0.58295566 0.37973729 4294967295
2.174 -0.61519063 0.37725264 4294967295
2.1800001 -0.64508355 0.37251064 4294967295
2.166857 -0.67638546 0.37267864 4294967295
2.1776249 -0.70878273 0.37511969 4294967295
2.1616001 -0.73494774 0.37303609 4294967295
2.1719999 -0.76620489 0.37359869 4294967295
2.1674285 -0.79725587 0.37263981 4294967295
2.1795001 -0.82255036 0.37877411 4294967295
2.168 -0.84776664 0.38266122 4294967295
2.1743748 -0.88114679 0.3891941 4294967295
2.1764998 -0.90412378 0.39727229 4294967295
2.1660001 -0.4700999 0.36771145 4294967295
2.1754286 -0.49665025 0.36633259 4294967295
2.174 -0.52728367 0.36714897 4294967295
2.1600001 -0.54396039 0.36813331 4294967295
2.1600001 -0.63918024 0.36813331 4294967295
2.20925 -0.87928689 1.7268624 4294967295
2.20525 -0.89239699 1.711879 4294967295
2.2084286 -0.9133594 1.6991377 4294967295
2.2077227 -0.92676383 1.6749281 4294967295
2.2105834 -0.92853409 1.6425314 4294967295
2.1968 -0.93040234 1.6499774 4294967295
2.2067335 -0.92161858 1.6151323 4294967295
2.2061877 -0.92061013 1.5863239 4294967295
2.2087336 -0.91767526 1.5536147 4294967295
2.205889 -0.90893286 1.5241357 4294967295
2.2070951 -0.91133416 1.4948081 4294967295
2.2064617 -0.91281605 1.4657202 4294967295
2.2078235 -0.91456765 1.4353685 4294967295
2.2130001 0.49911317 1.3964419 4294967295
2.2066364 -0.91896212 1.4036973 4294967295
2.2072108 0.49233812 1.374463 4294967295
2.2102857 -0.9280377 1.382162 4294967295
2.2053001 -0.93245912 1.371905 4294967295
2.1930001 0.51114917 1.3325586 4294967295
2.2017584 0.49433589 1.3423233 4294967295
2.2060001 0.47237733 1.345927 4294967295
2.2090833 -0.91893649 1.3457761 4294967295
2.1960001 -0.93006349 1.3540506 4294967295
2.2086666 0.54297805 1.3050396 4294967295
2.2065599 0.52393019 1.3193386 4294967295
2.2081668 0.49249336 1.3191624 4294967295
2.1988001 0.47577232 1.3061316 4294967295
2.1945 -0.89887851 1.3051088 4294967295
2.2102499 -0.9033947 1.317776 4294967295
2.2150002 0.54711205 1.2970225 4294967295
2.2165 0.48319873 1.2846885 4294967295
2.204381 0.4692378 1.2812281 4294967295
2.2 0.44386706 1.2738998 4294967295
2.2059169 -0.90781283 1.2831721 4294967295
2.2190001 0.48117012 1.2649653 4294967295
2.2149999 0.47516358 1.2636162 4294967295
2.2064447 -0.91029298 1.2547631 4294967295
2.2190001 0.51463503 1.2134807 4294967295
2.2190001 -0.89861691 1.2289262 4294967295
2.2059262 -0.90770954 1.2237955 4294967295
2.2018573 0.51721501 1.1924455 4294967295
2.2121818 0.50581461 1.1917571 4294967295
2.2071378 -0.91515881 1.1959927 4294967295
2.2093749 0.55855346 1.1598394 4294967295
2.194 0.51307827 1.173429 4294967295
2.2074618 0.50584173 1.1629845 4294967295
2.207278 -0.92031527 1.1651391 4294967295
2.2124999 0.58753639 1.1404401 4294967295
2.2013333 0.56415999 1.1415687 4294967295
2.2074618 0.50032008 1.1365875 4294967295
2.2069232 -0.92600888 1.1419487 4294967295
2.2074285 -0.935628 1.1257136 4294967295
2.2088001 0.49739999 1.1031787 4294967295
2.2067275 -0.94390762 1.1053772 4294967295
2.2114999 0.49749374 1.0751638 4294967295
2.2110002 -0.94923413 1.0750394 4294967295
2.2090001 0.49669871 1.0449597 4294967295
2.2069502 -0.94082266 1.043803 4294967295
2.2113333 0.4926115 1.0126894 4294967295
2.2190001 -0.92950773 1.0152651 4294967295
2.2059412 -0.93426472 1.0149028 4294967295
2.20925 0.49378985 0.98617029 4294967295
2.2142501 -0.9226256 0.98210001 4294967295
2.2034168 -0.93404973 0.98878849 4294967295
2.2045 0.49676904 0.96087587 4294967295
2.2083452 -0.92007399 0.95502073 4294967295
2.1960001 -0.93006349 0.96682334 4294967295
2.2078619 -0.9200474 0.92525423 4294967295
2.2007501 0.50528914 0.88353807 4294967295
2.2067578 -0.91535372 0.89453876 4294967295
2.2083001 0.50240535 0.86326921 4294967295
2.2190001 -0.89861691 0.87110829 4294967295
2.2053075 -0.90721989 0.86578393 4294967295
2.2090771 0.49832472 0.83700186 4294967295
2.20715 -0.91044229 0.8354342 4294967295
2.2092726 0.49581793 0.80223209 4294967295
2.2071769 -0.91429371 0.80521399 4294967295
2.2059 0.49775794 0.77587855 4294967295
2.2062943 -0.91694313 0.77620381 4294967295
2.2067142 0.49897727 0.75103462 4294967295
2.2079377 -0.91589338 0.74768412 4294967295
2.2112501 0.98228043 0.70698893 4294967295
2.2085714 0.49280462 0.70877445 4294967295
2.2085457 -0.91347343 0.7164337 4294967295
2.2132499 0.97160745 0.69302589 4294967295
2.2073333 0.94809896 0.67720783 4294967295
2.2053754 0.49291363 0.68346667 4294967295
2.2086251 -0.91522163 0.68274641 4294967295
2.207 0.93430287 0.66694516 4294967295
2.2068 0.91784012 0.64849997 4294967295
2.2074444 0.49828136 0.65416688 4294967295
2.2190001 -0.89758718 0.65435815 4294967295
2.2077742 -0.90991193 0.65377957 4294967295
2.2136667 0.90630758 0.624578 4294967295
2.2021999 0.89240801 0.62061197 4294967295
2.2091112 0.49951315 0.62352347 4294967295
2.2076669 -0.91124356 0.6243059 4294967295
2.207 0.91894102 0.59013593 4294967295
2.2099092 0.887537 0.59769404 4294967295
2.2059445 0.49453172 0.59522128 4294967295
2.2069287 -0.90468907 0.5952549 4294967295
2.2055001 0.89784789 0.57729715 4294967295
2.2061768 0.49403229 0.56631404 4294967295
2.2061 -0.91488642 0.56501883 4294967295
2.2065003 0.4963702 0.53636223 4294967295
2.2014999 -0.92728502 0.546538 4294967295
2.2021999 -0.93472785 0.53071088 4294967295
2.2087002 0.4983992 0.50667399 4294967295
2.2083001 -0.9373138 0.50358403 4294967295
2.2064288 0.51646936 0.46578279 4294967295
2.2065716 0.50479507 0.47968185 4294967295
2.207 -0.92960161 0.48260295 4294967295
2.2071669 -0.93393123 0.47362959 4294967295
2.20925 0.5444116 0.43898159 4294967295
2.207 0.53233445 0.45443958 4294967295
2.2074447 -0.94855952 0.44617933 4294967295
2.205857 0.54557061 0.41534367 4294967295
2.2097001 0.52681673 0.40206981 4294967295
2.217 0.49873513 0.40013242 4294967295
2.2083333 -0.91533601 0.40287733 4294967295
2.2076252 -0.94009972 0.41856581 4294967295
2.1992502 0.520248 0.39598948 4294967295
2.2019091 0.49417987 0.39352399 4294967295
2.2090001 0.46479464 0.39308313 4294967295
2.207 0.43631655 0.39171898 4294967295
2.2103751 0.40748563 0.38639241 4294967295
2.2060001 0.37750962 0.38333565 4294967295
2.2048571 0.34582844 0.38837239 4294967295
2.2070835 0.31471395 0.39299965 4294967295
2.2082727 0.28274548 0.39316538 4294967295
2.2013333 0.25515351 0.39076453 4294967295
2.2061429 0.22317134 0.39121768 4294967295
2.2081251 0.19704492 0.39165294 4294967295
2.2065001 0.1648894 0.3872678 4294967295
2.2038572 0.13893907 0.3811239 4294967295
2.2069092 0.1061647 0.38253236 4294967295
2.2083333 0.076645873 0.38522989 4294967295
2.2110002 0.045959044 0.38506716 4294967295
2.2060001 0.012584442 0.38665938 4294967295
2.2065001 -0.013005347 0.3866289 4294967295
2.2034001 -0.044182114 0.38349569 4294967295
2.207 -0.077018902 0.38531128 4294967295
2.2023003 -0.10750237 0.3830533 4294967295
2.2079999 -0.13457356 0.38293129 4294967295
2.2102857 -0.16759172 0.38292447 4294967295
2.206857 -0.19002479 0.38167068 4294967295
2.2032502 -0.225778 0.37852013 4294967295
2.2099001 -0.25657311 0.38206631 4294967295
2.2056 -0.28165734 0.38336003 4294967295
2.2089999 -0.31284508 0.38518921 4294967295
2.2065001 -0.34321028 0.38534176 4294967295
2.2056251 -0.37378469 0.38284183 4294967295
2.2070999 -0.40680811 0.37814605 4294967295
2.2063999 -0.43328568 0.37716877 4294967295
2.2081819 -0.46387103 0.37779644 4294967295
2.2080002 -0.49650529 0.37308991 4294967295
2.2093637 -0.52468461 0.3721289 4294967295
2.2065001 -0.55503815 0.37447351 4294967295
2.2056665 -0.58274794 0.3811332 4294967295
2.207 -0.61928064 0.38225001 4294967295
2.2078888 -0.6465202 0.3778657 4294967295
2.2030771 -0.67392045 0.37769884 4294967295
2.2072499 -0.70373237 0.37953877 4294967295
2.2019 -0.73586702 0.37796894 4294967295
2.2042003 -0.76220918 0.37833273 4294967295
2.2024169 -0.79479957 0.37793517 4294967295
2.2065001 -0.82571959 0.38214719 4294967295
2.2069001 -0.85786575 0.38686189 4294967295
