# .PCD v0.7 - Point Cloud Data file format
VERSION 0.7
FIELDS x y z rgb
SIZE 4 4 4 4
TYPE F F F U
COUNT 1 1 1 1
WIDTH 1117
HEIGHT 1
VIEWPOINT 0 0 0 1 0 0 0
POINTS 1117
DATA ascii
1.5465714 0.47760272 0.8933785 4294967295
1.5453014 -0.92357093 0.89587587 4294967295
1.533 -0.93025446 0.88171726 4294967295
1.535933 0.81698763 0.85840577 4294967295
1.5392444 0.79432619 0.86536312 4294967295
1.5487758 0.76994377 0.86739826 4294967295
1.546706 0.48462617 0.8629874 4294967295
1.541 0.47894567 0.8782326 4294967295
1.5443805 -0.92706424 0.8652873 4294967295
1.533 -0.93025446 0.87460363 4294967295
1.5406873 0.82195544 0.83532357 4294967295
1.5464752 0.79398382 0.83496273 4294967295
1.5526667 0.77857989 0.8479287 4294967295
1.5470935 0.49036893 0.8337726 4294967295
1.5443887 -0.92071873 0.83601707 4294967295
1.541603 0.82088375 0.80591029 4294967295
1.547666 0.79624605 0.80425167 4294967295
1.54 0.4947229 0.81905377 4294967295
1.5456666 -0.92605513 0.80451059 4294967295
1.5358 -0.93052435 0.79471445 4294967295
1.538551 0.81770241 0.77578688 4294967295
1.5466079 0.79426765 0.77475345 4294967295
1.5486922 -0.92358404 0.77512908 4294967295
1.5360501 -0.93192118 0.77213252 4294967295
1.5391891 0.81489402 0.74601996 4294967295
1.5472234 0.79587209 0.74511063 4294967295
1.5496668 0.49063733 0.74002856 4294967295
1.5437237 -0.91782558 0.7439968 4294967295
1.5338334 -0.93134874 0.74847084 4294967295
1.5401428 0.81514025 0.71493983 4294967295
1.549776 0.79623365 0.7146371 4294967295
1.551875 0.49133649 0.7151581 4294967295
1.5471348 -0.91829062 0.71594208 4294967295
1.5382353 -0.93531245 0.71478677 4294967295
1.5430511 0.81781489 0.68451548 4294967295
1.5500294 0.79725575 0.68657899 4294967295
1.5449166 0.48793185 0.68199188 4294967295
1.5475169 -0.92435873 0.68531674 4294967295
1.5361111 -0.93134552 0.69079208 4294967295
1.5435665 0.82271975 0.65415871 4294967295
1.5490915 0.80091327 0.65438008 4294967295
1.5459999 0.48739749 0.65227139 4294967295
1.546698 -0.92459428 0.65521532 4294967295
1.5367498 -0.93104124 0.65648347 4294967295
1.5365366 0.81732202 0.62639838 4294967295
1.5465064 0.79617846 0.62412053 4294967295
1.5448333 0.48730081 0.63600171 4294967295
1.5451188 -0.92375344 0.62517577 4294967295
1.538579 0.81713521 0.59415179 4294967295
1.5471818 0.79634786 0.5959667 4294967295
1.5370525 0.48326108 0.59343565 4294967295
1.5468334 0.47897357 0.58888847 4294967295
1.5496 -0.92712128 0.59833759 4294967295
1.5432777 -0.93557334 0.58991635 4294967295
1.5408784 0.82146615 0.56697285 4294967295
1.5498234 0.80096406 0.56723237 4294967295
1.5405555 0.48297095 0.57253051 4294967295
1.5523479 -0.92758131 0.562451 4294967295
1.5420666 -0.93605679 0.56678838 4294967295
1.5443559 0.82023329 0.53439766 4294967295
1.5552222 0.80331093 0.53344357 4294967295
1.5529374 0.49188897 0.53286034 4294967295
1.5452793 -0.92583942 0.53401065 4294967295
1.5369999 -0.93089521 0.54566497 4294967295
1.5382915 0.81404704 0.51059836 4294967295
1.5498098 0.79732949 0.50427711 4294967295
1.5564998 0.49731413 0.5175494 4294967295
1.5477377 -0.92263025 0.50389314 4294967295
1.5365911 -0.93339849 0.49914706 4294967295
1.5359167 0.81116122 0.4728967 4294967295
1.5484794 0.79851258 0.47428015 4294967295
1.5444582 -0.91756004 0.47427726 4294967295
1.5344 -0.93181121 0.48545805 4294967295
1.5336798 0.81294566 0.44419885 4294967295
1.5457293 0.79482096 0.44507736 4294967295
1.5431305 -0.91690862 0.44559288 4294967295
1.533 -0.93025446 0.43355775 4294967295
1.5344286 0.81397843 0.41427007 4294967295
1.5441196 0.79469419 0.41552526 4294967295
1.5445741 -0.92397666 0.41611931 4294967295
1.5336666 -0.930659 0.42640495 4294967295
1.5442188 0.81662929 0.38376024 4294967295
1.5494092 0.79740638 0.38518301 4294967295
1.544464 -0.92246068 0.38459912 4294967295
1.5463158 0.81709385 0.35558581 4294967295
1.5498283 0.79626644 0.3542369 4294967295
1.5444798 -0.92593813 0.35715246 4294967295
1.536 -0.9305436 0.34633112 4294967295
1.5373749 0.81668043 0.32471123 4294967295
1.5418658 0.79397839 0.32592991 4294967295
1.5456113 0.77623564 0.3204962 4294967295
1.5480556 0.48871854 0.32376197 4294967295
1.545393 -0.92359525 0.32433492 4294967295
1.5341666 0.81811702 0.2926434 4294967295
1.5343292 0.79412776 0.29450935 4294967295
1.5398105 0.77428102 0.29441583 4294967295
1.5473332 0.48557767 0.29084 4294967295
1.5449854 -0.91924894 0.2939294 4294967295
1.5316668 0.81997764 0.27351832 4294967295
1.5318093 0.79096746 0.26556715 4294967295
1.5428963 0.77745765 0.26598501 4294967295
1.543059 0.48347542 0.27295023 4294967295
1.5456251 0.47813755 0.25938526 4294967295
1.5438443 -0.91949713 0.26521111 4294967295
1.533 -0.93143845 0.26757273 4294967295
1.5320001 0.81339127 0.22611752 4294967295
1.5338571 0.79361099 0.23431072 4294967295
1.5433439 0.77564836 0.23435187 4294967295
1.548 0.48651639 0.23670226 4294967295
1.5404999 0.47879431 0.24727526 4294967295
1.5432172 -0.91782188 0.23683342 4294967295
1.5344349 0.81396639 0.20314476 4294967295
1.5382442 0.79467177 0.20561963 4294967295
1.5461613 0.7748881 0.20541903 4294967295
1.5438836 -0.91576219 0.20412368 4294967295
1.5351428 0.81219566 0.1787703 4294967295
1.5420665 0.7956323 0.1746752 4294967295
1.5481818 0.77556098 0.17636466 4294967295
1.5402902 -0.90480483 0.17491606 4294967295
1.5335332 0.81215572 0.14058602 4294967295
1.5423605 0.79472089 0.14487934 4294967295
1.550895 0.7762385 0.14827371 4294967295
1.543795 -0.90987003 0.14402208 4294967295
1.5316668 0.81306541 0.12682825 4294967295
1.5409113 0.79366016 0.11535847 4294967295
1.552 0.77944851 0.12100577 4294967295
1.5434999 0.49046972 0.10349795 4294967295
1.5430834 -0.91014344 0.1141187 4294967295
1.5318573 0.81147361 0.083790511 4294967295
1.5431738 0.79574913 0.084795237 4294967295
1.5465002 0.48423842 0.097312987 4294967295
1.545375 0.4677496 0.093809813 4294967295
1.5473332 0.43603545 0.0934937 4294967295
1.5440713 0.40698233 0.09209305 4294967295
1.5422307 0.37211674 0.085683286 4294967295
1.5450002 0.34397388 0.08804962 4294967295
1.5438888 0.31666642 0.090267181 4294967295
1.5421668 0.28430533 0.091739327 4294967295
1.5414503 0.25593433 0.092261851 4294967295
1.5424706 0.22436315 0.091360748 4294967295
1.5437895 0.19468589 0.088348269 4294967295
1.5414286 0.16744941 0.082099319 4294967295
1.5426668 0.13403665 0.079269379 4294967295
1.5415713 0.10305741 0.082568854 4294967295
1.5423636 0.075973339 0.086249024 4294967295
1.5453159 0.044671882 0.085089475 4294967295
1.545643 0.013953262 0.082945019 4294967295
1.5425383 -0.013774768 0.083663791 4294967295
1.5416317 -0.045604147 0.084620059 4294967295
1.5433335 -0.077725671 0.08744356 4294967295
1.541853 -0.10483465 0.087650329 4294967295
1.5425162 -0.1342313 0.087389708 4294967295
1.5433077 -0.16498749 0.08647868 4294967295
1.5423334 -0.19671112 0.085251629 4294967295
1.5427998 -0.22500928 0.08594352 4294967295
1.5425198 -0.25488901 0.08573395 4294967295
1.5415555 -0.28515494 0.086948812 4294967295
1.5440501 -0.3135983 0.086347967 4294967295
1.544706 -0.34537843 0.08020097 4294967295
1.5424001 -0.37720284 0.082090139 4294967295
1.542421 -0.40537494 0.087599397 4294967295
1.541737 -0.43438137 0.085534543 4294967295
1.5421305 -0.46737358 0.081014365 4294967295
1.5439119 -0.49551663 0.0799115 4294967295
1.5434481 -0.52340275 0.084138274 4294967295
1.5403751 -0.5563398 0.08826679 4294967295
1.5429354 -0.58566302 0.087734282 4294967295
1.5427417 -0.61434513 0.08939898 4294967295
1.5431366 -0.64295369 0.092058599 4294967295
1.5417202 -0.67540824 0.084678411 4294967295
1.5436894 -0.70664018 0.080617577 4294967295
1.5437144 -0.73462659 0.076215506 4294967295
1.5431035 -0.76413953 0.074483633 4294967295
1.5438274 -0.79488891 0.079336047 4294967295
1.5439706 -0.8243652 0.084314525 4294967295
1.5432501 -0.8556419 0.08708787 4294967295
1.5441591 -0.88644052 0.089821875 4294967295
1.5383847 -0.90413368 0.095823854 4294967295
1.5426166 0.79500407 0.054968476 4294967295
1.531 0.96427178 0.010960996 4294967295
1.5346041 0.82062501 0.021777928 4294967295
1.541575 0.79351038 0.02558744 4294967295
1.5494165 0.77754563 0.015928924 4294967295
1.544 1.3539791 -0.018437803 4294967295
1.5495473 1.3332821 -0.012087107 4294967295
1.5526667 1.3177379 -0.019054115 4294967295
1.5452728 1.2033411 -0.0080981255 4294967295
1.5426826 1.1848007 -0.010015011 4294967295
1.5389642 1.1573811 -0.0090178251 4294967295
1.5399996 1.1226492 -0.0059423447 4294967295
1.5434998 1.0940646 -0.0042820573 4294967295
1.545192 1.065292 -0.0063452721 4294967295
1.5478572 1.0355333 -0.0064772964 4294967295
1.5458477 1.0054225 -0.0051748157 4294967295
1.5394168 0.97895092 -0.0022438169 4294967295
1.5331333 0.81882143 0.006934762 4294967295
1.5350312 0.79139376 0.0048390627 4294967295
1.5433919 0.76528138 -0.0031482577 4294967295
1.5468889 0.73564321 -0.012248397 4294967295
1.558 0.71739495 -0.017897725 4294967295
1.5423332 1.3543075 -0.027398229 4294967295
1.5392002 1.3346958 -0.024897754 4294967295
1.5456784 1.3062323 -0.02387917 4294967295
1.5419445 1.2774125 -0.024462402 4294967295
1.54 1.2593583 -0.020615935 4294967295
1.5452449 0.73109722 -0.033200026 4294967295
1.5467631 0.73788923 -0.065001369 4294967295
1.5468096 0.73307693 -0.091363907 4294967295
1.57375 -0.92849934 1.3915623 4294967295
1.585 -0.93090808 1.3992658 4294967295
1.5650001 -0.92788625 1.3812751 4294967295
1.5780528 -0.93407232 1.3756441 4294967295
1.563 -0.92851019 1.3348393 4294967295
1.5755001 -0.93439978 1.3455892 4294967295
1.5692729 -0.92677045 1.3159223 4294967295
1.5833334 -0.93140888 1.3117754 4294967295
1.5748888 -0.92500305 1.2841841 4294967295
1.589 -0.93105561 1.2967865 4294967295
1.5727 -0.92404777 1.2585206 4294967295
1.5829998 -0.93121272 1.2461066 4294967295
1.5721426 -0.92757916 1.2219741 4294967295
1.5825 -0.93091059 1.2284343 4294967295
1.5720344 -0.92461568 1.1964219 4294967295
1.574077 -0.92608833 1.1659992 4294967295
1.589 -0.93105561 1.1530032 4294967295
1.5687499 -0.92713952 1.1376631 4294967295
1.5835453 -0.93219262 1.1338055 4294967295
1.5599999 -0.92854124 1.105256 4294967295
1.5790627 -0.93415415 1.1069015 4294967295
1.5737692 0.48196119 1.0781157 4294967295
1.5779999 0.47798902 1.0658762 4294967295
1.5743337 -0.92578679 1.07302 4294967295
1.5836667 -0.93159574 1.0884049 4294967295
1.5733334 0.47469461 1.050333 4294967295
1.5742496 -0.91508311 1.0438027 4294967295
1.5724722 -0.90868622 1.013535 4294967295
1.5732119 -0.92610067 0.9858731 4294967295
1.589 -0.93105561 0.98709947 4294967295
1.5735652 -0.92580706 0.95589113 4294967295
1.5791665 0.48775926 0.91887128 4294967295
1.585 0.47975937 0.91237426 4294967295
1.5722799 -0.91919762 0.92512429 4294967295
1.577 0.48403543 0.88960195 4294967295
1.5707778 0.47827834 0.89995432 4294967295
1.5738928 -0.92257726 0.89579326 4294967295
1.589 -0.93105561 0.88387042 4294967295
1.5737857 0.76885647 0.86146426 4294967295
1.5705999 0.48705766 0.86179006 4294967295
1.5676 -0.92760247 0.86695337 4294967295
1.5815386 -0.93203682 0.86606395 4294967295
1.5750434 0.78608203 0.8357051 4294967295
1.562 0.77903223 0.84688497 4294967295
1.5648333 0.48575369 0.84263247 4294967295
1.5747856 -0.92610681 0.83598185 4294967295
1.586 -0.93113422 0.8243103 4294967295
1.5722084 0.78805721 0.80462271 4294967295
1.5744346 -0.92614496 0.80079132 4294967295
1.5786251 -0.93091732 0.81327701 4294967295
1.5738124 0.78467447 0.77506131 4294967295
1.5732331 -0.91960829 0.77598691 4294967295
1.5749211 0.78574169 0.74380779 4294967295
1.5857999 0.49839813 0.74332416 4294967295
1.5747219 -0.91496116 0.74580789 4294967295
1.5700284 0.78307027 0.71686172 4294967295
1.5823331 0.77851909 0.71201634 4294967295
1.5823332 0.49730861 0.71164614 4294967295
1.5720909 -0.91484338 0.71154803 4294967295
1.5731714 0.78765947 0.68480182 4294967295
1.5802 0.778202 0.69706851 4294967295
1.5735455 0.49221319 0.68649298 4294967295
1.5731333 -0.92124969 0.68434513 4294967295
1.5723197 0.79518062 0.6550324 4294967295
1.5699999 0.48770154 0.66148549 4294967295
1.5732914 -0.92320275 0.65699941 4294967295
1.589 -0.93105561 0.64791834 4294967295
1.5695554 0.78704655 0.62592584 4294967295
1.5734167 -0.9276979 0.6238361 4294967295
1.5841428 -0.9313584 0.62546915 4294967295
1.5704443 0.78910482 0.59379923 4294967295
1.5736967 -0.92760056 0.59423721 4294967295
1.5675768 0.79145861 0.56352544 4294967295
1.5715001 0.48661152 0.56446487 4294967295
1.5720369 -0.92758244 0.56550831 4294967295
1.589 -0.93105567 0.55943632 4294967295
1.5662702 0.79396218 0.53657448 4294967295
1.5774286 0.48948142 0.53040719 4294967295
1.5739282 -0.92663723 0.53479439 4294967295
1.589 -0.93105561 0.54653269 4294967295
1.5756364 0.79031545 0.50359583 4294967295
1.5647142 0.49485427 0.51476127 4294967295
1.5735172 -0.91956961 0.5064286 4294967295
1.5699601 0.78816301 0.47417685 4294967295
1.5722798 -0.91321814 0.47642356 4294967295
1.5772728 0.7894702 0.44634745 4294967295
1.5738332 -0.91546035 0.44342995 4294967295
1.5718572 0.78836918 0.414213 4294967295
1.5732104 -0.92544055 0.4151625 4294967295
1.589 -0.93105561 0.4101229 4294967295
1.5740588 0.79136992 0.38355482 4294967295
1.5731906 -0.92229962 0.3843646 4294967295
1.573875 0.79133689 0.35640126 4294967295
1.579 0.48893386 0.34303874 4294967295
1.5741249 -0.92516816 0.35466453 4294967295
1.5741667 0.78570908 0.33080053 4294967295
1.5599999 0.77984679 0.32707077 4294967295
1.5744212 0.48750126 0.32337153 4294967295
1.5742579 -0.92322373 0.32472372 4294967295
1.5719999 0.48649737 0.29302508 4294967295
1.5743234 -0.91469753 0.29426131 4294967295
1.5735 0.78476137 0.2578823 4294967295
1.563 0.77952981 0.26687416 4294967295
1.5764443 0.48204306 0.26529318 4294967295
1.5724499 -0.91441089 0.26661551 4294967295
1.5766001 0.78521293 0.23722625 4294967295
1.5599999 0.77803707 0.23658413 4294967295
1.5764 0.48812419 0.23653683 4294967295
1.5599999 0.47943109 0.24744251 4294967295
1.574 -0.92382032 0.22623295 4294967295
1.5725294 -0.92117655 0.20834881 4294967295
1.56875 -0.91191089 0.16403666 4294967295
1.5713333 0.78307778 0.13244766 4294967295
1.563 0.77952981 0.13813254 4294967295
1.5729231 -0.91432291 0.14047638 4294967295
1.5736666 0.78586316 0.11646518 4294967295
1.5719501 -0.91193664 0.11406499 4294967295
1.572111 0.78507149 0.082290113 4294967295
1.5788 0.49251786 0.094703108 4294967295
1.570143 0.46955502 0.09163025 4294967295
1.5862 0.4285925 0.088294238 4294967295
1.5710001 0.40627161 0.087576568 4294967295
1.5741668 0.37358069 0.082447112 4294967295
1.5776666 0.34574288 0.085743308 4294967295
1.5744287 0.31583863 0.087845027 4294967295
1.5632 0.28456613 0.090927094 4294967295
1.5633334 0.25011745 0.090890497 4294967295
1.5702499 0.22573338 0.08899197 4294967295
1.5745555 0.19528162 0.084967703 4294967295
1.5754001 0.16690145 0.077350199 4294967295
1.5795 0.10520659 0.078210056 4294967295
1.572875 0.076487131 0.084622145 4294967295
1.5762221 0.045564849 0.082073808 4294967295
1.5816666 0.018210808 0.078518838 4294967295
1.5780001 -0.011143257 0.079542279 4294967295
1.5655 -0.049158257 0.083031356 4294967295
1.5723749 -0.076768503 0.086589992 4294967295
1.569875 -0.10578897 0.089094907 4294967295
1.5747499 -0.13532099 0.086850762 4294967295
1.5754286 -0.16282578 0.083915293 4294967295
1.57725 -0.19317847 0.082506269 4294967295
1.5734546 -0.22631951 0.085132062 4294967295
1.5734999 -0.25386938 0.086288422 4294967295
1.5716363 -0.28609133 0.086304754 4294967295
1.5773751 -0.31532341 0.084301978 4294967295
1.5772858 -0.34597707 0.077655494 4294967295
1.5762 -0.3771331 0.07711941 4294967295
1.5692499 -0.40427291 0.08471778 4294967295
1.5727144 -0.436744 0.084148228 4294967295
1.569875 -0.4663696 0.081810206 4294967295
1.5758182 -0.49588257 0.08115679 4294967295
1.5754166 -0.52343833 0.082706898 4294967295
1.5672858 -0.55417234 0.086169273 4294967295
1.5782 -0.59149855 0.086809903 4294967295
1.5707777 -0.61421859 0.088847101 4294967295
1.5841665 -0.6482234 0.088244438 4294967295
1.5772856 -0.6753512 0.084971666 4294967295
1.5768572 -0.70444816 0.079861283 4294967295
1.5757502 -0.73619062 0.078658104 4294967295
1.5737499 -0.76509637 0.074342102 4294967295
1.5726999 -0.79596937 0.077016622 4294967295
1.5730833 -0.82285672 0.083043784 4294967295
1.5765001 -0.85421622 0.085981488 4294967295
1.5744001 -0.88838845 0.089561284 4294967295
1.5782501 -0.90551853 0.096413195 4294967295
1.5713075 0.78435785 0.056039959 4294967295
1.5766665 0.787866 0.025351733 4294967295
1.5599999 0.77803707 0.015796661 4294967295
1.573 1.3263259 -0.011727035 4294967295
1.561 1.0737113 0.0018935204 4294967295
1.566 1.0301857 0.0032446384 4294967295
1.5633333 1.0128474 0.0042450428 4294967295
1.5829999 0.78216243 0.0065265298 4294967295
1.5751766 0.76333845 -0.0011419654 4294967295
1.5735999 0.73331422 -0.0095838308 4294967295
1.5736365 0.71694022 -0.016151547 4294967295
1.5830001 1.3257312 -0.023465931 4294967295
1.5725263 1.3085834 -0.026269436 4294967295
1.5599999 1.2829524 -0.024017394 4294967295
1.5727777 0.72722137 -0.041852951 4294967295
1.5782143 0.71411991 -0.029981315 4294967295
1.5747333 0.73530334 -0.065662861 4294967295
1.5749674 0.73520869 -0.095830679 4294967295
1.5825 0.72958106 -0.11401266 4294967295
1.614 -0.92323554 1.4213505 4294967295
1.6091055 -0.92415518 1.4040701 4294967295
1.5974667 -0.9308235 1.4007488 4294967295
1.6115001 -0.92576796 1.3844261 4294967295
1.6044616 -0.93779981 1.3753315 4294967295
1.612 -0.92957175 1.3304708 4294967295
1.6040001 -0.93650883 1.3456583 4294967295
1.6113334 -0.92793393 1.3131125 4294967295
1.5997142 -0.93241519 1.3159418 4294967295
1.6053911 -0.92394865 1.2843816 4294967295
1.6 -0.93007642 1.2984517 4294967295
1.6071283 -0.92568928 1.2566731 4294967295
1.5977778 -0.93207306 1.2522651 4294967295
1.6050835 -0.92307204 1.22458 4294967295
1.5951111 -0.93092823 1.2343885 4294967295
1.6002667 -0.9279815 1.2018037 4294967295
1.6058751 -0.93138075 1.1899943 4294967295
1.6091304 -0.92579412 1.1602089 4294967295
1.5997778 -0.93076092 1.166999 4294967295
1.6108572 -0.92623264 1.1448829 4294967295
1.6049232 -0.93473208 1.133158 4294967295
1.6110001 0.47828123 1.0926147 4294967295
1.6114545 -0.92550695 1.1002614 4294967295
1.6029699 -0.93527532 1.1072993 4294967295
1.6028095 0.46918792 1.0735941 4294967295
1.6043111 -0.92320514 1.0752246 4294967295
1.5960001 -0.93021679 1.0866678 4294967295
1.5965713 0.4700157 1.0565319 4294967295
1.6042858 -0.91414201 1.0460327 4294967295
1.6028889 -0.91479439 1.0126591 4294967295
1.6042107 -0.92511183 0.98515612 4294967295
1.6160001 0.50039083 0.94629419 4294967295
1.6059999 -0.92857468 0.95483637 4294967295
1.5998571 -0.93078166 0.95793796 4294967295
1.6035239 0.48907629 0.92883694 4294967295
1.6051998 0.47916648 0.91514194 4294967295
1.6036571 -0.9219721 0.92347097 4294967295
1.6046664 0.4852089 0.8936553 4294967295
1.6040001 0.47992113 0.90776694 4294967295
1.6037419 -0.92406708 0.89900064 4294967295
1.6033335 -0.93168378 0.88435185 4294967295
1.595 0.78068686 0.85193837 4294967295
1.603 0.77188176 0.85622054 4294967295
1.601375 0.49028161 0.86440623 4294967295
1.6109999 -0.92711741 0.85480237 4294967295
1.6023334 -0.93352014 0.86647707 4294967295
1.6040486 0.78804606 0.83583766 4294967295
1.6140001 0.77688003 0.84746444 4294967295
1.596 0.48956218 0.84474051 4294967295
1.6027658 -0.92469043 0.83559006 4294967295
1.5949999 -0.93086594 0.82975399 4294967295
1.6036553 0.79048628 0.8053565 4294967295
1.6021132 -0.92159176 0.80529964 4294967295
1.592 -0.93096423 0.81807065 4294967295
1.6065 0.78879374 0.77666736 4294967295
1.6105001 0.50148702 0.76455098 4294967295
1.6031628 -0.92021048 0.77594888 4294967295
1.6 0.78458905 0.74728757 4294967295
1.6033334 0.77856195 0.73401213 4294967295
1.6062728 0.49922618 0.74467063 4294967295
1.6049336 -0.92150384 0.74651253 4294967295
1.6021292 0.77581936 0.71371877 4294967295
1.6060869 0.49811283 0.71538204 4294967295
1.6004999 -0.9238559 0.71474326 4294967295
1.6023635 0.78872198 0.67872047 4294967295
1.6057144 0.77393752 0.69129807 4294967295
1.6063999 0.49616349 0.68734574 4294967295
1.618 -0.89924538 0.67277712 4294967295
1.6047792 -0.91798496 0.68181556 4294967295
1.6024286 0.79798532 0.65657026 4294967295
1.6059999 0.48984197 0.64556068 4294967295
1.6145 -0.89916909 0.6668272 4294967295
1.6071249 -0.91795057 0.66055381 4294967295
1.6034286 -0.93204659 0.64535666 4294967295
1.6039168 0.79434127 0.62493122 4294967295
1.6109092 -0.92519206 0.61825579 4294967295
1.6015862 -0.93225849 0.62755114 4294967295
1.6030588 0.79742253 0.59501415 4294967295
1.6049998 -0.92369801 0.59521776 4294967295
1.598 -0.93014663 0.6066215 4294967295
1.601125 0.79854047 0.56531698 4294967295
1.6054546 -0.92379844 0.5651232 4294967295
1.5964 -0.93020278 0.56258142 4294967295
1.6046087 0.79856908 0.53505176 4294967295
1.6111429 0.49194023 0.53168905 4294967295
1.6044614 -0.92411798 0.53670377 4294967295
1.594 -0.93028694 0.5466162 4294967295
1.601375 0.7972675 0.507258 4294967295
1.6 0.49357107 0.51516205 4294967295
1.6034857 -0.9223004 0.50664645 4294967295
1.5996922 0.79454505 0.47663102 4294967295
1.6023871 -0.9182508 0.47617072 4294967295
1.6017501 0.79700136 0.44639561 4294967295
1.6039373 -0.92082816 0.44596294 4294967295
1.6024286 0.79892367 0.413452 4294967295
1.6074668 -0.92693526 0.42463118 4294967295
1.6041739 -0.93199563 0.41044742 4294967295
1.605111 0.79866022 0.38376746 4294967295
1.6036316 -0.92520976 0.38229322 4294967295
1.6040001 -0.93053156 0.39606953 4294967295
1.6026665 0.79868937 0.35551137 4294967295
1.6 0.49172422 0.34068519 4294967295
1.6049839 -0.92105341 0.3540827 4294967295
1.5997143 0.79439014 0.33118266 4294967295
1.6054399 0.48592272 0.32189542 4294967295
1.6037775 -0.91822135 0.32517773 4294967295
1.6023332 0.48647615 0.29569256 4294967295
1.6055933 -0.91188437 0.29694176 4294967295
1.6054287 0.79403162 0.25600845 4294967295
1.6034285 0.48532492 0.26883343 4294967295
1.6041905 -0.91991389 0.26772422 4294967295
1.608 -0.93099594 0.25024864 4294967295
1.6015 0.7940765 0.2420398 4294967295
1.6031111 0.49019572 0.23577678 4294967295
1.6070001 -0.93599993 0.23459223 4294967295
1.604 0.78695625 0.20998257 4294967295
1.592 -0.92911977 0.19998953 4294967295
1.6042858 -0.93309796 0.20673344 4294967295
1.592 -0.92542601 0.16797736 4294967295
1.6 -0.92450052 0.14486438 4294967295
1.5933334 0.79094565 0.11226913 4294967295
1.6049473 -0.91891301 0.11259496 4294967295
1.6033332 0.79086757 0.08204478 4294967295
1.6036249 0.49352098 0.091697603 4294967295
1.6067998 0.46508703 0.085305274 4294967295
1.6056 0.43827483 0.085630953 4294967295
1.6034285 0.40374002 0.080153823 4294967295
1.6047692 0.37575606 0.079812199 4294967295
1.6011111 0.35005784 0.083415687 4294967295
1.6054001 0.31608513 0.084565222 4294967295
1.6007057 0.28482738 0.08632201 4294967295
1.6030667 0.25560647 0.08544758 4294967295
1.605625 0.22522491 0.084878951 4294967295
1.6041669 0.19492619 0.080304205 4294967295
1.6010001 0.16655682 0.072667688 4294967295
1.6042222 0.10138421 0.077187687 4294967295
1.6009998 0.074133687 0.082416743 4294967295
1.6061332 0.044445436 0.078904122 4294967295
1.6084615 0.014056822 0.076215446 4294967295
1.60375 -0.015038271 0.076075822 4294967295
1.6026669 -0.04104216 0.076375693 4294967295
1.6033334 -0.073510684 0.081568807 4294967295
1.6004001 -0.10498986 0.086170912 4294967295
1.603143 -0.13403906 0.084224254 4294967295
1.6074287 -0.15971813 0.080391943 4294967295
1.6084999 -0.19422464 0.078962266 4294967295
1.6045001 -0.22518636 0.08276841 4294967295
1.6071248 -0.25556847 0.084469825 4294967295
1.6049 -0.2837078 0.083782077 4294967295
1.6061336 -0.31502542 0.082880199 4294967295
1.6049231 -0.34545311 0.075759321 4294967295
1.6041818 -0.37520775 0.07258153 4294967295
1.605 -0.40649727 0.07852447 4294967295
1.6063999 -0.43397439 0.080195576 4294967295
1.6043078 -0.46728519 0.077362806 4294967295
1.6025263 -0.49494395 0.080145895 4294967295
1.605684 -0.52436042 0.080455482 4294967295
1.6058 -0.55265403 0.080359846 4294967295
1.6042856 -0.59171402 0.08231461 4294967295
1.6043749 -0.61665344 0.084985644 4294967295
1.6038181 -0.64236569 0.086213827 4294967295
1.6006666 -0.67730618 0.083120316 4294967295
1.6041818 -0.70477533 0.077994287 4294967295
1.6028889 -0.73712993 0.076731294 4294967295
1.6022352 -0.76602751 0.074323982 4294967295
1.604182 -0.79443055 0.073094696 4294967295
1.6035653 -0.8264851 0.079530388 4294967295
1.6048422 -0.85447985 0.084796548 4294967295
1.6050001 -0.88641649 0.088112801 4294967295
1.6038094 -0.90675175 0.095210701 4294967295
1.6032501 0.78657275 0.056536436 4294967295
1.6160001 0.15919581 0.068935573 4294967295
1.6015 0.13639976 0.069267124 4294967295
1.6051111 0.795977 0.025008976 4294967295
1.5946666 1.3246108 -0.015142143 4294967295
1.6 1.3177049 -0.019405246 4294967295
1.6035999 0.78711915 0.0028259754 4294967295
1.6054738 0.76472282 -0.0071261525 4294967295
1.6017274 0.73430234 -0.011699677 4294967295
1.6020001 0.71601212 -0.017024457 4294967295
1.5940001 1.3238525 -0.024036705 4294967295
1.5964445 1.314158 -0.026431799 4294967295
1.5910001 0.7233628 -0.047749043 4294967295
1.5978094 0.70993924 -0.032057941 4294967295
1.600158 0.72935766 -0.06644851 4294967295
1.6066666 0.71867645 -0.056449115 4294967295
1.6023569 0.73022115 -0.095464706 4294967295
1.60875 0.71602613 -0.10773331 4294967295
1.5946665 0.72409874 -0.11503273 4294967295
1.6022611 0.71108949 -0.11503136 4294967295
1.6355 -0.92467016 1.4279292 4294967295
1.6342797 -0.92298782 1.4049085 4294967295
1.647 -0.93064809 1.3939238 4294967295
1.626 -0.92556524 1.3842881 4294967295
1.633296 -0.93719828 1.3721869 4294967295
1.6286665 -0.92910081 1.3338094 4294967295
1.63472 -0.93368506 1.3458037 4294967295
1.6332332 -0.92599189 1.313576 4294967295
1.6453333 -0.93097472 1.3281373 4294967295
1.6342901 -0.92258918 1.2846497 4294967295
1.6339655 -0.92338455 1.255209 4294967295
1.6311538 -0.92255247 1.2306387 4294967295
1.641875 -0.93488795 1.2212079 4294967295
1.6351177 -0.93752873 1.1936661 4294967295
1.6364545 -0.92604488 1.1630813 4294967295
1.6293334 -0.9307242 1.1766174 4294967295
1.6331818 -0.92695165 1.1360959 4294967295
1.6346204 -0.93172657 1.1348225 4294967295
1.626 0.48462436 1.1036086 4294967295
1.6273333 0.47365752 1.0952566 4294967295
1.6327929 -0.92429799 1.1061602 4294967295
1.622 0.46273389 1.085238 4294967295
1.6350398 -0.92265546 1.0743636 4294967295
1.6349231 -0.91797638 1.0449176 4294967295
1.635 -0.92225647 1.013191 4294967295
1.6345382 -0.92373186 0.98530567 4294967295
1.6435 -0.93057299 0.97261453 4294967295
1.6379167 0.49797216 0.95017391 4294967295
1.6246667 -0.9280749 0.96868086 4294967295
1.6338096 -0.9325614 0.95603669 4294967295
1.6292726 0.48421401 0.9288094 4294967295
1.6354091 -0.92562866 0.9248333 4294967295
1.649 -0.93177825 0.9396956 4294967295
1.6353 0.49042678 0.89255404 4294967295
1.632 -0.92468888 0.90633422 4294967295
1.6378462 -0.93539482 0.89009166 4294967295
1.6289999 0.77087164 0.85145503 4294967295
1.6327693 0.49304128 0.86795413 4294967295
1.6274999 -0.92717242 0.85397577 4294967295
1.6330556 -0.93452603 0.86845529 4294967295
1.6358261 0.79001415 0.8341881 4294967295
1.6338571 0.7761333 0.84809864 4294967295
1.6294287 -0.92611206 0.83588505 4294967295
1.643 -0.93143475 0.83601415 4294967295
1.6338125 0.79445958 0.8081075 4294967295
1.6354376 -0.92243755 0.80128372 4294967295
1.649 -0.93177825 0.81726485 4294967295
1.6294445 0.79438752 0.77548587 4294967295
1.649 0.51060921 0.78283119 4294967295
1.6367142 0.50353748 0.77001595 4294967295
1.6342608 -0.92326933 0.77420318 4294967295
1.6358 0.78735948 0.74122405 4294967295
1.62 0.77977151 0.73310483 4294967295
1.6336666 0.49953377 0.74563104 4294967295
1.6351666 -0.92678493 0.75061166 4294967295
1.6418002 -0.93378913 0.73980129 4294967295
1.6374999 0.78248966 0.72020125 4294967295
1.631 0.77560222 0.70616686 4294967295
1.6368001 0.49998793 0.71743602 4294967295
1.6385 -0.93534076 0.71034515 4294967295
1.6358999 0.78817564 0.67446148 4294967295
1.6374999 0.77550632 0.68221539 4294967295
1.6377144 0.49951503 0.68604922 4294967295
1.6328845 -0.91215366 0.68554366 4294967295
1.6435 -0.93057299 0.69806415 4294967295
1.6322857 0.80100149 0.65753353 4294967295
1.6240001 -0.89881206 0.66768944 4294967295
1.6342924 -0.91614139 0.65117568 4294967295
1.6297143 -0.93221772 0.64362824 4294967295
1.63425 0.80179751 0.62311172 4294967295
1.6361762 -0.92350101 0.62537432 4294967295
1.6248 -0.93167323 0.63497025 4294967295
1.647 0.81187427 0.59144634 4294967295
1.632 0.80484492 0.59800607 4294967295
1.6326665 -0.91888022 0.59488928 4294967295
1.6235 0.80405688 0.56595552 4294967295
1.6338856 -0.91876972 0.56672704 4294967295
1.6333333 0.80576384 0.5333581 4294967295
1.627 0.49624714 0.54717302 4294967295
1.6343212 -0.92223978 0.53659874 4294967295
1.6339999 0.805466 0.50559121 4294967295
1.63 0.49716216 0.51505744 4294967295
1.6325262 -0.92564154 0.50428212 4294967295
1.647 -0.93064809 0.51310927 4294967295
1.6265 0.80113131 0.47669509 4294967295
1.6356499 -0.92478675 0.47729498 4294967295
1.647 -0.93064809 0.46152145 4294967295
1.649 0.81286019 0.43658167 4294967295
1.6308335 -0.92591935 0.44287595 4294967295
1.6470001 -0.93064797 0.44405255 4294967295
1.6294999 -0.92831182 0.42528805 4294967295
1.6360502 -0.93335944 0.41181624 4294967295
1.647 0.81187427 0.38509503 4294967295
1.6379999 0.80743784 0.37632996 4294967295
1.6332 -0.92396414 0.37864864 4294967295
1.6364 -0.93261051 0.39317319 4294967295
1.6343335 0.80688328 0.35546726 4294967295
1.63396 -0.91689229 0.35507682 4294967295
1.63875 0.80590439 0.32302815 4294967295
1.6339412 0.48385707 0.32484418 4294967295
1.647 0.47941935 0.31631124 4294967295
1.6332692 -0.91267103 0.3245776 4294967295
1.6338949 0.48316675 0.29838628 4294967295
1.6350369 -0.90785003 0.29559806 4294967295
1.6288 0.79912364 0.26185432 4294967295
1.6278571 0.48786393 0.26315767 4294967295
1.6336364 -0.92307186 0.27042806 4294967295
1.6454999 -0.93934107 0.25350645 4294967295
1.6362 0.8042587 0.2382957 4294967295
1.6256001 0.49053571 0.23824468 4294967295
1.628 -0.93879825 0.24689353 4294967295
1.6253333 0.79742277 0.20966595 4294967295
1.649 0.50678325 0.21658891 4294967295
1.6339999 -0.94604939 0.19658956 4294967295
1.6336669 0.80151135 0.17076164 4294967295
1.62 0.79480618 0.15802732 4294967295
1.622 -0.931575 0.13500056 4294967295
1.6355 0.80241084 0.10711884 4294967295
1.6325715 -0.92030793 0.10678694 4294967295
1.6407144 -0.93470019 0.11804843 4294967295
1.6338184 0.79951292 0.083275646 4294967295
1.6443332 0.51678902 0.091548175 4294967295
1.6332729 0.49366638 0.087543666 4294967295
1.6359999 0.46634093 0.080827743 4294967295
1.6343333 0.43154228 0.08025986 4294967295
1.6362858 0.40414393 0.074662715 4294967295
1.6313751 0.37457389 0.078841746 4294967295
1.6268572 0.34522209 0.081003428 4294967295
1.6312858 0.31695122 0.082518697 4294967295
1.63 0.28535274 0.083937228 4294967295
1.6392502 0.25466427 0.081462681 4294967295
1.6468 0.23100169 0.079442859 4294967295
1.6324999 0.19679028 0.076642305 4294967295
1.62 0.17462456 0.071577758 4294967295
1.6276001 0.10065912 0.075526923 4294967295
1.6267501 0.075320333 0.081032336 4294967295
1.6382858 0.044637587 0.075207889 4294967295
1.62725 0.0206443 0.074302912 4294967295
1.6265001 -0.015271581 0.07355231 4294967295
1.6313334 -0.041774962 0.07222563 4294967295
1.6337143 -0.076200448 0.077525973 4294967295
1.6328572 -0.10811431 0.083172917 4294967295
1.6362858 -0.13490035 0.080639511 4294967295
1.6371666 -0.16476293 0.075691342 4294967295
1.6407501 -0.19426858 0.073447764 4294967295
1.6375715 -0.22622818 0.079745948 4294967295
1.6375 -0.25469971 0.081930816 4294967295
1.6416252 -0.28582534 0.080827296 4294967295
1.637125 -0.31539634 0.080615282 4294967295
1.6358334 -0.34299904 0.074159443 4294967295
1.6206666 -0.3780579 0.071393222 4294967295
1.63675 -0.41315484 0.073595554 4294967295
1.625 -0.43751001 0.077734292 4294967295
1.6317499 -0.4619928 0.07401669 4294967295
1.6367501 -0.49382403 0.075963587 4294967295
1.6384286 -0.5228743 0.077880979 4294967295
1.6259999 -0.56039447 0.077462137 4294967295
1.6425 -0.57942605 0.072971433 4294967295
1.6417999 -0.61460561 0.078500658 4294967295
1.6411113 -0.64553249 0.080964774 4294967295
1.6358334 -0.67443895 0.081119895 4294967295
1.6320001 -0.70631218 0.076379359 4294967295
1.6266251 -0.73512012 0.073996216 4294967295
1.6255 -0.76953286 0.07382676 4294967295
1.6349999 -0.79805541 0.071219176 4294967295
1.6346668 -0.82696205 0.075110912 4294967295
1.6320001 -0.8566938 0.083680451 4294967295
1.6331114 -0.88720912 0.087955981 4294967295
1.63625 -0.90683717 0.095880747 4294967295
1.6334 0.79252785 0.054751694 4294967295
1.647 0.18135628 0.067925394 4294967295
1.63 0.16248912 0.066925734 4294967295
1.6339999 0.13769639 0.063911349 4294967295
1.6424999 0.11225449 0.067260355 4294967295
1.64 -0.35973582 0.069846779 4294967295
1.63175 -0.37303457 0.069280654 4294967295
1.64 -0.40159169 0.069846779 4294967295
1.64 -0.79541743 0.069846779 4294967295
1.6353334 0.80189979 0.025596172 4294967295
1.6336 0.79843599 -3.0398369e-05 4294967295
1.6384444 0.76959759 -0.013358533 4294967295
1.6275001 0.73993516 -0.014041781 4294967295
1.64 0.72470725 -0.025284827 4294967295
1.6305 0.71672153 -0.030645907 4294967295
1.6246667 0.72798258 -0.0767169 4294967295
1.635143 0.73041624 -0.097084463 4294967295
1.62 0.71587396 -0.10883868 4294967295
1.6445 0.72478747 -0.11453342 4294967295
1.631 0.71221864 -0.11404824 4294967295
1.6737999 -0.92403495 1.4539685 4294967295
1.6661351 -0.92565835 1.4347806 4294967295
1.6645625 -0.92655212 1.4126499 4294967295
1.6674738 -0.93507457 1.398061 4294967295
1.6746665 -0.9262026 1.3652163 4294967295
1.6656584 -0.93852568 1.3761028 4294967295
1.6708235 -0.92539674 1.3439705 4294967295
1.6589999 -0.93292934 1.3483253 4294967295
1.6671666 -0.92239952 1.3153661 4294967295
1.654 -0.93076599 1.3266444 4294967295
1.666684 -0.92577362 1.2849913 4294967295
1.6664481 -0.92535233 1.2567688 4294967295
1.6715 -0.93091321 1.2420967 4294967295
1.656 -0.92804927 1.2392445 4294967295
1.6676562 -0.94279015 1.2238667 4294967295
1.6725 -0.92758089 1.1869156 4294967295
1.6660999 -0.93896842 1.1973758 4294967295
1.6656957 -0.92825651 1.1685977 4294967295
1.6656249 -0.9305228 1.1574104 4294967295
1.6680667 -0.92575943 1.1317382 4294967295
1.6599998 -0.93143827 1.1431611 4294967295
1.661 0.48734838 1.1123171 4294967295
1.6664791 -0.92406279 1.104991 4294967295
1.6663334 -0.92526656 1.0769559 4294967295
1.6683636 -0.92739904 1.0459576 4294967295
1.674 -0.93036884 1.0315057 4294967295
1.66664 -0.92749244 1.0116098 4294967295
1.6698 -0.93035519 1.0232508 4294967295
1.676 0.50341529 0.97378778 4294967295
1.6672777 -0.92585933 0.98494756 4294967295
1.6607141 -0.93288475 0.97239518 4294967295
1.6671305 0.49265966 0.95456564 4294967295
1.6747273 -0.92723584 0.955428 4294967295
1.6631514 -0.93496448 0.95592237 4294967295
1.6658125 0.48778406 0.9256041 4294967295
1.6685668 -0.92849338 0.92505705 4294967295
1.6566 -0.93068761 0.92241937 4294967295
1.6699127 0.49349099 0.89346147 4294967295
1.6764443 -0.92740512 0.89265573 4294967295
1.6680424 -0.93642271 0.89389014 4294967295
1.661 0.78023744 0.85025853 4294967295
1.6695625 0.49638614 0.86551082 4294967295
1.677 -0.92717189 0.87386656 4294967295
1.6662562 -0.93575531 0.86686015 4294967295
1.6661557 0.78993976 0.83271074 4294967295
1.6718 0.50214863 0.8330195 4294967295
1.6679444 -0.93903285 0.83444214 4294967295
1.66825 0.79770166 0.80729407 4294967295
1.6643333 0.51406789 0.79428589 4294967295
1.6745001 0.5051477 0.80292249 4294967295
1.6659286 -0.92697102 0.79904705 4294967295
1.6674999 -0.93302852 0.81334466 4294967295
1.6673571 0.80532295 0.77719516 4294967295
1.6609999 0.51175267 0.78731304 4294967295
1.6652 0.50402427 0.77614617 4294967295
1.6654845 -0.92713684 0.77443838 4294967295
1.6668887 0.79588991 0.74142265 4294967295
1.6652501 0.5021109 0.74484438 4294967295
1.6716251 -0.92660785 0.74860036 4294967295
1.6673634 -0.93721211 0.73967183 4294967295
1.6658001 0.78789634 0.71787405 4294967295
1.6664375 0.50198424 0.71407706 4294967295
1.6735263 -0.92315072 0.70807111 4294967295
1.6706588 -0.93994504 0.71767187 4294967295
1.6615001 0.78559774 0.67494935 4294967295
1.6679999 0.77836245 0.67749292 4294967295
1.6694546 0.50125951 0.68590117 4294967295
1.6660587 -0.91307867 0.6864022 4294967295
1.653 -0.93020326 0.6990934 4294967295
1.6672273 0.8017711 0.65861154 4294967295
1.6748332 0.49982357 0.66064942 4294967295
1.6657426 -0.91294998 0.65453315 4294967295
1.668 0.81060535 0.61447054 4294967295
1.6640587 0.80868363 0.62943232 4294967295
1.6762499 0.49911451 0.62334204 4294967295
1.6664442 -0.92055529 0.62597197 4294967295
1.6667272 0.81490129 0.59389818 4294967295
1.6686667 0.49991488 0.59371877 4294967295
1.665357 -0.92020309 0.59343743 4294967295
1.6693571 0.81707984 0.56530482 4294967295
1.6719444 0.49809244 0.56191933 4294967295
1.6657854 -0.91611481 0.56520861 4294967295
1.6645623 0.81473178 0.53621638 4294967295
1.6671662 0.4953303 0.5370158 4294967295
1.6679244 -0.92105108 0.53576332 4294967295
1.653 -0.93020326 0.5245899 4294967295
1.6636249 0.81427234 0.50531977 4294967295
1.6716251 0.4982186 0.5052312 4294967295
1.6713177 -0.92366081 0.50499618 4294967295
1.6606001 -0.93139035 0.50958872 4294967295
1.6626 0.81363994 0.47510773 4294967295
1.676857 0.50089318 0.48435974 4294967295
1.6692173 -0.92533004 0.47478455 4294967295
1.6569999 -0.93091261 0.46423921 4294967295
1.6688887 0.81749588 0.44740275 4294967295
1.6714242 -0.9262169 0.44443849 4294967295
1.6580666 -0.93099719 0.44471931 4294967295
1.6735715 0.82219547 0.41509968 4294967295
1.6741737 -0.9267422 0.41764888 4294967295
1.6632578 -0.9337163 0.41288918 4294967295
1.6677692 0.81793863 0.38459015 4294967295
1.6689773 -0.92324108 0.38330734 4294967295
1.6595 -0.93360829 0.3944242 4294967295
1.668 0.81654376 0.35525259 4294967295
1.6721665 0.49546599 0.34327173 4294967295
1.6671323 -0.91659403 0.3545469 4294967295
1.6679287 0.81637675 0.3272832 4294967295
1.6622499 0.48642257 0.33403975 4294967295
1.658 0.47877446 0.3207269 4294967295
1.6668116 -0.91298884 0.3248865 4294967295
1.6612856 0.48577395 0.28865075 4294967295
1.6600001 0.47935203 0.30507362 4294967295
1.666 -0.90687191 0.29464293 4294967295
1.6684284 0.81192225 0.26252258 4294967295
1.6742221 0.80759543 0.25770292 4294967295
1.6670001 0.49326462 0.26535106 4294967295
1.668353 -0.92083508 0.273368 4294967295
1.6675833 -0.93710583 0.2599203 4294967295
1.6694502 0.81305128 0.23432419 4294967295
1.6747999 0.80770165 0.24370238 4294967295
1.6691666 0.49619305 0.24062675 4294967295
1.668 -0.95333749 0.24173918 4294967295
1.6717501 -0.96401954 0.22598875 4294967295
1.6670001 0.81399763 0.20942491 4294967295
1.6725 0.52370024 0.20450401 4294967295
1.6677501 0.50576437 0.2170096 4294967295
1.673 -0.96603554 0.2160562 4294967295
1.6715001 0.81619501 0.17366037 4294967295
1.6730001 0.81692743 0.15201095 4294967295
1.6653333 -0.95516676 0.14145803 4294967295
1.67 -0.96301782 0.1546047 4294967295
1.6623334 0.81171888 0.10613784 4294967295
1.655 0.80813801 0.115648 4294967295
1.6680475 -0.91929424 0.10362551 4294967295
1.6662631 -0.94090766 0.11350891 4294967295
1.6700832 0.81226522 0.0906609 4294967295
1.6679999 0.807558 0.077651322 4294967295
1.669909 0.51919925 0.090529233 4294967295
1.6689547 0.49671152 0.083733618 4294967295
1.6669999 0.4661918 0.076427221 4294967295
1.6675293 0.43416828 0.074817389 4294967295
1.6712382 0.40504423 0.072913855 4294967295
1.6668124 0.37519962 0.075549692 4294967295
1.6674614 0.3440142 0.07570976 4294967295
1.66625 0.31370685 0.080049396 4294967295
1.6681252 0.28429112 0.079551131 4294967295
1.6696001 0.25460231 0.079030484 4294967295
1.6666 0.22335882 0.076474398 4294967295
1.6689999 0.20217194 0.072540343 4294967295
1.6675555 0.096783996 0.074329019 4294967295
1.6641332 0.074088931 0.07687211 4294967295
1.6682941 0.045944337 0.073018759 4294967295
1.6677084 0.01450259 0.071448535 4294967295
1.6753334 -0.0066386107 0.073105693 4294967295
1.6685715 -0.08008042 0.073074281 4294967295
1.6680715 -0.10521472 0.07818526 4294967295
1.6677778 -0.13624004 0.076413661 4294967295
1.6681429 -0.16132696 0.072082818 4294967295
1.666 -0.2082389 0.07173717 4294967295
1.6681579 -0.22515219 0.077000052 4294967295
1.6656249 -0.25521356 0.080209166 4294967295
1.668 -0.28564492 0.079452962 4294967295
1.66875 -0.31569445 0.078662038 4294967295
1.6684999 -0.34033117 0.073162258 4294967295
1.6663001 -0.44012079 0.071528018 4294967295
1.6616668 -0.45956439 0.070331901 4294967295
1.666 -0.50182587 0.072656751 4294967295
1.6684 -0.52466995 0.075478673 4294967295
1.664857 -0.55445123 0.072968662 4294967295
1.6725 -0.57251763 0.07063362 4294967295
1.6615999 -0.61813343 0.074712783 4294967295
1.6685555 -0.64471847 0.077494055 4294967295
1.6666249 -0.67685592 0.077526093 4294967295
1.6665555 -0.70496392 0.073734939 4294967295
1.6624999 -0.72627616 0.070426643 4294967295
1.677 -0.80557984 0.071363658 4294967295
1.6672857 -0.82658458 0.071763933 4294967295
1.6672608 -0.8554607 0.078687549 4294967295
1.667606 -0.8869397 0.088081539 4294967295
1.6635456 -0.90646589 0.095151842 4294967295
1.6670769 0.79988825 0.055731475 4294967295
1.6668333 0.188051 0.067641914 4294967295
1.6680908 0.16783866 0.061086923 4294967295
1.67125 0.13558747 0.057391554 4294967295
1.6670001 0.11298708 0.064368993 4294967295
1.655 0.0036826662 0.069569409 4294967295
1.6669998 -0.013980772 0.067966372 4294967295
1.6655 -0.046510298 0.066711664 4294967295
1.673 -0.066143416 0.068552107 4294967295
1.6719999 -0.17473079 0.068821937 4294967295
1.674857 -0.19250654 0.068050981 4294967295
1.6665001 -0.35588452 0.068382651 4294967295
1.6657499 -0.37633473 0.065040201 4294967295
1.6667858 -0.40290144 0.065819144 4294967295
1.6730001 -0.42325714 0.068552107 4294967295
1.6665 -0.47185767 0.068381488 4294967295
1.6663332 -0.48924136 0.069071114 4294967295
1.6720001 -0.58400041 0.068821967 4294967295
1.673 -0.60569215 0.068552107 4294967295
1.6644999 -0.74163187 0.068924069 4294967295
1.6675334 -0.76503646 0.068230629 4294967295
1.6660768 -0.79689056 0.068940461 4294967295
1.6599998 -0.81344318 0.069500148 4294967295
1.6668333 0.81196773 0.01350075 4294967295
1.6679287 0.80283076 0.029285938 4294967295
1.6675454 0.81390107 -0.0013775826 4294967295
1.6658823 0.79434031 -0.014780939 4294967295
1.6657 0.76815623 -0.018356144 4294967295
1.6673332 0.75484526 -0.021466494 4294967295
1.6672666 0.73494589 -0.032799125 4294967295
1.6682729 0.74000996 -0.10082442 4294967295
1.6667778 0.73353618 -0.11581069 4294967295
1.6941332 -0.92293 1.4574337 4294967295
1.691 -0.92464387 1.4363347 4294967295
1.7045001 -0.93347728 1.4244313 4294967295
1.6824999 -0.92923439 1.4147154 4294967295
1.6958262 -0.93768632 1.4032201 4294967295
1.6942729 -0.92534697 1.3712804 4294967295
1.6895714 -0.93283945 1.3851432 4294967295
1.6935385 -0.92064869 1.3443823 4294967295
1.6928333 -0.92249763 1.3152277 4294967295
1.6918331 -0.92456144 1.284875 4294967295
1.6883334 -0.92657715 1.2613413 4294967295
1.699857 -0.93655461 1.2504051 4294967295
1.701 -0.92859179 1.2143979 4294967295
1.6937299 -0.94140792 1.2254081 4294967295
1.6931251 -0.92706347 1.1970913 4294967295
1.6936666 -0.93338269 1.1952322 4294967295
1.6840001 -0.92897499 1.1665412 4294967295
1.6987499 -0.93261933 1.1628836 4294967295
1.6937271 -0.92362177 1.1341479 4294967295
1.6923333 -0.91946632 1.1050154 4294967295
1.6876668 -0.926202 1.0768088 4294967295
1.7006 -0.93173254 1.0727898 4294967295
1.684 -0.92941147 1.0489038 4294967295
1.6980714 -0.93360853 1.0447659 4294967295
1.6927367 -0.92690498 1.0123956 4294967295
1.6988001 -0.9315294 1.0248841 4294967295
1.6941999 0.50100869 0.97713786 4294967295
1.694625 -0.92608595 0.98470163 4294967295
1.6966363 0.48955822 0.95609057 4294967295
1.6931305 -0.92578298 0.95450133 4294967295
1.6965383 0.49141192 0.92299831 4294967295
1.6944517 -0.9271211 0.92512393 4294967295
1.6962632 0.49022219 0.89309418 4294967295
1.6914164 -0.92120808 0.89505523 4294967295
1.6909584 0.4908855 0.86798346 4294967295
1.6924 -0.92485923 0.87337935 4294967295
1.6952499 -0.93691301 0.86034822 4294967295
1.6953809 0.7849409 0.83067679 4294967295
1.6951303 0.49836528 0.82931948 4294967295
1.694909 -0.94662631 0.83625919 4294967295
1.709 0.81071526 0.79239446 4294967295
1.6936666 0.79543459 0.80578786 4294967295
1.6961541 0.50021785 0.80593956 4294967295
1.6851429 -0.92817801 0.79864228 4294967295
1.6996363 -0.93456101 0.80665708 4294967295
1.7042499 0.81538016 0.77976859 4294967295
1.6826667 0.80798113 0.77517492 4294967295
1.6938486 0.49827042 0.77449858 4294967295
1.6883889 -0.92681569 0.77516419 4294967295
1.7045 -0.93150103 0.77783561 4294967295
1.69525 0.80320525 0.74300426 4294967295
1.6931796 0.49656403 0.74503905 4294967295
1.6916072 -0.92261058 0.74462682 4294967295
1.692 0.7961002 0.72556776 4294967295
1.692028 0.49620873 0.71542966 4294967295
1.6901766 -0.92191005 0.71763182 4294967295
1.6926055 0.49297696 0.68498391 4294967295
1.6938751 -0.91388881 0.68582374 4294967295
1.693 0.81098127 0.64057839 4294967295
1.6927692 0.79856008 0.6515255 4294967295
1.6937776 0.49256721 0.65518427 4294967295
1.694684 -0.91515452 0.65435451 4294967295
1.6986874 0.8122189 0.62275463 4294967295
1.6991738 0.80652249 0.63003957 4294967295
1.6922665 0.48968405 0.62481964 4294967295
1.6944001 -0.91986978 0.62594318 4294967295
1.6966842 0.8147952 0.59485024 4294967295
1.7073334 0.80926383 0.59076083 4294967295
1.6949463 0.4927054 0.59604692 4294967295
1.6926957 -0.919397 0.59547806 4294967295
1.69555 0.81612158 0.56404912 4294967295
1.7080001 0.80825835 0.56437111 4294967295
1.6930265 0.49082306 0.56698966 4294967295
1.6917915 -0.91276288 0.56394941 4294967295
1.691129 0.81487542 0.53565741 4294967295
1.7025999 0.80793202 0.53066736 4294967295
1.6897222 0.48987857 0.53449893 4294967295
1.6923079 -0.91454643 0.5337711 4294967295
1.687724 0.81492609 0.50408638 4294967295
1.6995186 0.80707973 0.50608641 4294967295
1.6886252 0.491355 0.50526297 4294967295
1.6930647 -0.91711885 0.50511783 4294967295
1.6959271 0.8150416 0.47465336 4294967295
1.7076668 0.808761 0.47917315 4294967295
1.6891612 0.49634829 0.47443667 4294967295
1.6920832 -0.92027879 0.47579598 4294967295
1.7035404 0.81760561 0.447763 4294967295
1.7089999 0.80675012 0.44345939 4294967295
1.6982944 0.49688718 0.44672415 4294967295
1.6930344 -0.92114753 0.44471294 4294967295
1.7012106 0.82213563 0.41285998 4294967295
1.7088748 0.80198276 0.41273779 4294967295
1.6940268 -0.92245585 0.41534498 4294967295
1.6988648 0.81749362 0.38417554 4294967295
1.7079999 0.80568188 0.38783038 4294967295
1.7030998 0.49811354 0.38128644 4294967295
1.693875 -0.91842145 0.38507277 4294967295
1.6907222 0.81379002 0.35602987 4294967295
1.7058947 0.8077749 0.35278803 4294967295
1.7 0.51062411 0.35708809 4294967295
1.6974002 0.49867317 0.35552672 4294967295
1.6929259 -0.91060954 0.35544953 4294967295
1.6946503 0.81557894 0.32436126 4294967295
1.7055713 0.80795169 0.33337134 4294967295
1.6892664 -0.9082697 0.32833776 4294967295
1.7030001 0.81599808 0.30099672 4294967295
1.7075554 0.80232131 0.28703395 4294967295
1.689 -0.89951777 0.28760439 4294967295
1.6933078 -0.90602612 0.29428685 4294967295
1.698 0.81140423 0.27848673 4294967295
1.6971964 0.80191058 0.26511043 4294967295
1.6955 0.49649355 0.26307738 4294967295
1.6942273 -0.91584796 0.27062982 4294967295
1.695182 -0.93889374 0.25565109 4294967295
1.681 0.81303346 0.2243506 4294967295
1.6943091 0.80162811 0.23520735 4294967295
1.6976666 0.50137419 0.23328662 4294967295
1.69175 -0.95295906 0.24406043 4294967295
1.697111 -0.96857727 0.22873983 4294967295
1.6820909 0.81426805 0.21121407 4294967295
1.6952502 0.80293024 0.20481354 4294967295
1.691 0.52049977 0.20257151 4294967295
1.6945 0.50699991 0.21412072 4294967295
1.6900001 -0.97127956 0.20905936 4294967295
1.6840551 0.81472713 0.17323273 4294967295
1.6962652 0.80247104 0.17480394 4294967295
1.6899523 0.81492937 0.14761427 4294967295
1.6994562 0.79730576 0.14545968 4294967295
1.6957142 -0.97165436 0.14503744 4294967295
1.6895455 0.81286347 0.11224407 4294967295
1.70225 0.80219644 0.11479592 4294967295
1.6927143 -0.91551006 0.1049518 4294967295
1.6908571 -0.94364178 0.11137417 4294967295
1.7 -0.96453524 0.12239876 4294967295
