# .PCD v0.7 - Point Cloud Data file format
VERSION 0.7
FIELDS x y z rgb
SIZE 4 4 4 4
TYPE F F F U
COUNT 1 1 1 1
WIDTH 1094
HEIGHT 1
VIEWPOINT 0 0 0 1 0 0 0
POINTS 1094
DATA ascii
-5.8307157 0.88077158 1.568715 4278190080
-5.8323789 0.9018569 1.5700082 4278190080
-5.7242436 0.90560758 1.5415567 4278190080
-5.6161547 0.90861291 1.5131052 4278190080
-5.622479 0.9297871 1.5156915 4278190080
-5.6334867 0.95182121 1.5195714 4278190080
-5.62537 0.97065842 1.5182781 4278190080
-5.6314607 0.99196559 1.5208646 4278190080
-5.5899343 1.004781 1.5105186 4278190080
-5.5341358 1.0147055 1.4962928 4278190080
-4.8769259 0.92944062 1.3191173 4278190080
-4.9020996 0.95198423 1.3268769 4278190080
-4.8987465 0.96908969 1.3268769 4278190080
-4.0768514 0.8658182 1.1057307 4278190080
-4.0171523 0.86780536 1.0902115 4278190080
-3.9433384 0.86627764 1.0708128 4278190080
-3.8695848 0.86424536 1.0514141 4278190080
-3.8053143 0.86384732 1.0346018 4278190080
-3.7363877 0.86192662 1.0164962 4278190080
-3.672225 0.86063659 0.99968398 4278190080
-3.6128154 0.86002767 0.98416489 4278190080
-3.5487614 0.85787994 0.96735269 4278190080
-3.4894576 0.8564468 0.95183361 4278190080
-3.4348941 0.85577893 0.93760788 4278190080
-3.3756959 0.85355568 0.9220888 4278190080
-3.3212347 0.85213023 0.90786308 4278190080
-3.2714989 0.85155171 0.8949306 4278190080
-3.221808 0.85063648 0.881998 4278190080
-3.172164 0.84938574 0.86906546 4278190080
-3.1272297 0.84906358 0.85742623 4278190080
-3.0823371 0.84843832 0.84578699 4278190080
-3.0374873 0.84751004 0.83414769 4278190080
-2.992682 0.84627914 0.82250839 4278190080
-2.9479227 0.84474677 0.81086916 4278190080
-2.9078496 0.84425825 0.80052316 4278190080
-2.8631825 0.84213746 0.78888386 4278190080
-2.8231952 0.84109437 0.77853787 4278190080
-2.7832506 0.83978248 0.76819187 4278190080
-2.7433493 0.83820283 0.75784576 4278190080
-2.7034941 0.83635426 0.74749976 4278190080
-2.6684403 0.83521593 0.73844707 4278190080
-2.6332786 0.83431369 0.72939426 4278190080
-2.6027553 0.83465117 0.72163475 4278190080
-2.5676682 0.83329493 0.71258193 4278190080
-2.5370657 0.83365422 0.70482248 4278190080
-2.5066411 0.83336258 0.69706297 4278190080
-2.4716718 0.83132911 0.68801016 4278190080
-2.4413202 0.83061743 0.68025064 4278190080
-2.4111488 0.8292836 0.67249113 4278190080
-2.3808689 0.82817417 0.66473162 4278190080
-2.3551824 0.82846689 0.65826535 4278190080
-2.3295236 0.82858992 0.65179914 4278190080
-2.3038924 0.8285439 0.64533287 4278190080
-2.2782907 0.82832927 0.6388666 4278190080
-2.2525737 0.82833958 0.63240033 4278190080
-2.2225053 0.82610077 0.62464082 4278190080
-2.1970015 0.82536083 0.61817455 4278190080
-2.1715302 0.82445306 0.61170834 4278190080
-2.1460922 0.82337809 0.60524201 4278190080
-2.1251919 0.82388103 0.60006905 4278190080
-2.0999606 0.82212025 0.59360272 4278190080
-2.079113 0.82233971 0.58842975 4278190080
-2.0582895 0.8224237 0.58325672 4278190080
-2.0374911 0.82237244 0.57808375 4278190080
-2.0167181 0.82218605 0.57291073 4278190080
-1.9959716 0.82186532 0.5677377 4278190080
-1.9752522 0.82140934 0.56256473 4278190080
-1.9545604 0.82081878 0.5573917 4278190080
-1.9338971 0.82009387 0.55221874 4278190080
-1.913263 0.81923485 0.54704571 4278190080
-1.8926584 0.81824231 0.54187268 4278190080
-1.8720844 0.81711549 0.53669971 4278190080
-1.8515415 0.81585515 0.53152668 4278190080
-1.8310302 0.81446135 0.52635366 4278190080
-1.8148156 0.81522989 0.52247393 4278190080
-1.7943636 0.81358182 0.5173009 4278190080
-1.7783374 0.81381088 0.51342118 4278190080
-1.7623314 0.81393796 0.50954139 4278190080
-1.7463462 0.81396377 0.50566161 4278190080
-1.7303828 0.8138876 0.50178188 4278190080
-1.7144413 0.81370991 0.4979021 4278190080
-1.6985222 0.81343091 0.49402234 4278190080
-1.6826262 0.81305081 0.49014261 4278190080
-1.6667535 0.8125701 0.48626286 4278190080
-1.650905 0.81198817 0.4823831 4278190080
-1.6350809 0.81130552 0.47850332 4278190080
-1.623601 0.8126843 0.4759168 4278190080
-1.60782 0.81181592 0.47203705 4278190080
-1.5920649 0.81084782 0.46815729 4278190080
-1.5806326 0.81198621 0.46557081 4278190080
-1.5649234 0.81083274 0.46169105 4278190080
-1.5535223 0.81181651 0.45910454 4278190080
-1.5378608 0.81047881 0.45522478 4278190080
-1.5264924 0.81130886 0.4526383 4278190080
-1.5108802 0.80978745 0.44875854 4278190080
-1.4995463 0.81046343 0.446172 4278190080
-1.4839854 0.80875903 0.44229224 4278190080
-1.4726876 0.80928195 0.43970576 4278190080
-1.4614042 0.80973637 0.43711925 4278190080
-1.4459194 0.80776596 0.43323949 4278190080
-1.4346745 0.80806762 0.43065301 4278190080
-1.4234452 0.80830073 0.42806649 4278190080
-1.4122319 0.8084653 0.42547998 4278190080
-1.4010346 0.80856192 0.42289349 4278190080
-1.3856795 0.80616105 0.41901374 4278190080
-1.3745246 0.80610633 0.41642722 4278190080
-1.363387 0.80598354 0.41384071 4278190080
-1.3522671 0.80579293 0.4112542 4278190080
-1.3411652 0.80553496 0.40866768 4278190080
-1.32595 0.80270767 0.40478793 4278190080
-1.3190171 0.80481547 0.40349469 4278190080
-1.3079714 0.80435461 0.4009082 4278190080
-1.2969452 0.80382651 0.39832169 4278190080
-1.2859384 0.80323166 0.39573517 4278190080
-1.2749519 0.80256945 0.39314869 4278190080
-1.2680643 0.80442762 0.39185542 4278190080
-1.2571099 0.80364609 0.38926893 4278190080
-1.2502367 0.8054136 0.38797566 4278190080
-1.2474176 0.80977309 0.38797566 4278190080
-1.2405415 0.8114785 0.38668242 4278190080
-1.2497994 0.82377785 0.39056218 4278190080
-1.2187527 0.80943072 0.38150942 4278190080
-1.2078918 0.80830765 0.37892288 4278190080
-1.1930491 0.80441898 0.37504312 4278190080
-1.1822436 0.80315036 0.37245664 4278190080
-1.1714616 0.80181617 0.36987013 4278190080
-1.1646795 0.80315846 0.36857688 4278190080
-1.1539359 0.80170751 0.36599037 4278190080
-1.1471733 0.80296123 0.36469713 4278190080
-1.1364692 0.80139387 0.36211061 4278190080
-1.1297275 0.80255878 0.36081737 4278190080
-1.1190639 0.8008756 0.35823086 4278190080
-1.1123438 0.8019523 0.35693762 4278190080
-1.1017216 0.80015403 0.35435113 4278190080
-1.0950239 0.80114293 0.35305786 4278190080
-1.0844448 0.79922944 0.35047138 4278190080
-1.0777704 0.80013096 0.34917811 4278190080
-1.0672349 0.79810303 0.34659159 4278190080
-1.0604452 0.79910272 0.34529832 4278190080
-1.0499551 0.79695922 0.34271184 4278190080
-1.04333 0.7976858 0.34141856 4278190080
-1.0367123 0.79837614 0.34012532 4278190080
-1.0301028 0.79902977 0.33883208 4278190080
-1.0235015 0.79964703 0.33753884 4278190080
-1.0169085 0.800228 0.33624557 4278190080
-1.0065387 0.79777265 0.33365908 4278190080
-0.99997306 0.7982682 0.33236581 4278190080
-0.9896524 0.79570103 0.32977933 4278190080
-0.98311538 0.79611117 0.32848606 4278190080
-0.97284478 0.79343277 0.32589957 4278190080
-0.96633708 0.79375809 0.32460633 4278190080
-0.95611739 0.79096925 0.32201982 4278190080
-0.94963992 0.79121023 0.32072657 4278190080
-0.94317245 0.79141563 0.3194333 4278190080
-0.94040418 0.79470307 0.3194333 4278190080
-0.93394637 0.79485047 0.31814006 4278190080
-0.93116593 0.7981059 0.31814006 4278190080
-0.9247182 0.79819542 0.31684682 4278190080
-0.92192644 0.80141842 0.31684682 4278190080
-0.91993207 0.81102902 0.31814006 4278190080
-0.80660236 0.86527771 0.30650076 4278190080
-0.77766174 0.84599715 0.29744801 4278190080
-0.75842315 0.83087057 0.29098177 4278190080
-0.76200569 0.84066993 0.29356825 4278190080
-0.72998601 0.81101608 0.28192899 4278190080
-0.72715044 0.81355941 0.28192899 4278190080
-0.714688 0.80525565 0.27804923 4278190080
-0.70867944 0.80412191 0.27675596 4278190080
-0.70586824 0.80659074 0.27675596 4278190080
-0.69988042 0.80540407 0.27546272 4278190080
-0.69706464 0.80784231 0.27546272 4278190080
-0.69109803 0.80660284 0.27416947 4278190080
-0.68827826 0.80901027 0.27416947 4278190080
-0.68233335 0.80771828 0.2728762 4278190080
-0.67950976 0.81009513 0.2728762 4278190080
-0.67358667 0.80875105 0.27158296 4278190080
-0.67075956 0.81109732 0.27158296 4278190080
-0.66778237 0.81355023 0.27158296 4278190080
-0.66188699 0.81213248 0.27028972 4278190080
-0.65904814 0.81443793 0.27028972 4278190080
-0.65317619 0.81296831 0.26899645 4278190080
-0.65033442 0.8152433 0.26899645 4278190080
-0.64448607 0.81372225 0.26770321 4278190080
-0.63865602 0.81217045 0.26640996 4278190080
-0.63284498 0.81058782 0.26511672 4278190080
-0.62705278 0.8089745 0.26382345 4278190080
-0.62422514 0.81115836 0.26382345 4278190080
-0.61845773 0.80949444 0.26253021 4278190080
-0.61270934 0.80780029 0.26123697 4278190080
-0.60988587 0.80993408 0.26123697 4278190080
-0.60416317 0.80818963 0.25994369 4278190080
-0.59846008 0.80641508 0.25865045 4278190080
-0.59564161 0.80849916 0.25865045 4278190080
-0.59010535 0.80657196 0.25735721 4278190080
-0.58728635 0.80862689 0.25735721 4278190080
-0.58431852 0.81077403 0.25735721 4278190080
-0.57867461 0.80888051 0.25606394 4278190080
-0.57584763 0.8108955 0.25606394 4278190080
-0.57023072 0.80895311 0.2547707 4278190080
-0.56463462 0.80698127 0.25347742 4278190080
-0.5590592 0.80498028 0.25218418 4278190080
-0.55624598 0.80692685 0.25218418 4278190080
-0.55069858 0.8048774 0.25089094 4278190080
-0.54774481 0.80689049 0.25089094 4278190080
-0.5422262 0.80479199 0.24959768 4278190080
-0.53955442 0.80658567 0.24959768 4278190080
-0.53406423 0.80444032 0.24830443 4278190080
-0.53125304 0.80629963 0.24830443 4278190080
-0.52579188 0.80410689 0.24701117 4278190080
-0.52021283 0.8019765 0.24571793 4278190080
-0.51741028 0.80378747 0.24571793 4278190080
-0.5120014 0.80151832 0.24442467 4278190080
-0.50920027 0.8033008 0.24442467 4278190080
-0.50382161 0.80098498 0.24313143 4278190080
-0.50102264 0.80273873 0.24313143 4278190080
-0.49821752 0.8044827 0.24313143 4278190080
-0.49540636 0.8062169 0.24313143 4278190080
-0.49007472 0.80381751 0.24183817 4278190080
-0.48726591 0.80552328 0.24183817 4278190080
-0.48196581 0.80307794 0.24054492 4278190080
-0.47915965 0.80475539 0.24054492 4278190080
-0.47634766 0.80642307 0.24054492 4278190080
-0.47108772 0.80391383 0.23925166 4278190080
-0.46813819 0.80563504 0.23925166 4278190080
-0.46291119 0.80307972 0.2379584 4278190080
-0.46010491 0.80469078 0.2379584 4278190080
-0.45729327 0.80629194 0.2379584 4278190080
-0.452108 0.80367374 0.23666516 4278190080
-0.44929993 0.80524701 0.23666516 4278190080
-0.44648638 0.80681044 0.23666516 4278190080
-0.44134337 0.80413008 0.2353719 4278190080
-0.43853378 0.80566573 0.2353719 4278190080
-0.43342462 0.80294138 0.23407865 4278190080
-0.43061924 0.80444938 0.23407865 4278190080
-0.42780861 0.8059476 0.23407865 4278190080
-0.42499256 0.80743611 0.23407865 4278190080
-0.41993687 0.8046329 0.2327854 4278190080
-0.41712564 0.80609381 0.2327854 4278190080
-0.41430935 0.80754495 0.2327854 4278190080
-0.40929833 0.80468124 0.23149215 4278190080
-0.40431213 0.80179256 0.2301989 4278190080
-0.40137082 0.80326903 0.2301989 4278190080
-0.39642075 0.80033714 0.22890565 4278190080
-0.39362445 0.80171609 0.22890565 4278190080
-0.38871011 0.79874229 0.22761239 4278190080
-0.38591966 0.80009425 0.22761239 4278190080
-0.3831245 0.80143648 0.22761239 4278190080
-0.38032466 0.80276895 0.22761239 4278190080
-0.37546736 0.79971975 0.22631915 4278190080
-0.37267357 0.80102545 0.22631915 4278190080
-0.36987525 0.80232143 0.22631915 4278190080
-0.3670724 0.80360764 0.22631915 4278190080
-0.36426511 0.80488402 0.22631915 4278190080
-0.35947713 0.80174363 0.22502589 4278190080
-0.35667637 0.80299354 0.22502589 4278190080
-0.35387126 0.80423361 0.22502589 4278190080
-0.34913209 0.80103636 0.22373265 4278190080
-0.34633386 0.80225021 0.22373265 4278190080
-0.3416324 0.79901332 0.22243938 4278190080
-0.33695799 0.79575336 0.22114612 4278190080
-0.33417827 0.79692471 0.22114612 4278190080
-0.32954228 0.79362577 0.21985288 4278190080
-0.32677007 0.79477125 0.21985288 4278190080
-0.32385477 0.79596359 0.21985288 4278190080
-0.32107443 0.79708922 0.21985288 4278190080
-0.31829014 0.79820508 0.21985288 4278190080
-0.31550178 0.79931134 0.21985288 4278190080
-0.31095219 0.79590905 0.21855962 4278190080
-0.30817211 0.79698962 0.21855962 4278190080
-0.30366212 0.7935496 0.21726637 4278190080
-0.3008903 0.79460472 0.21726637 4278190080
-0.29811463 0.79565024 0.21726637 4278190080
-0.29365671 0.79215729 0.21597312 4278190080
-0.2908898 0.79317749 0.21597312 4278190080
-0.28811938 0.79418808 0.21597312 4278190080
-0.28534541 0.7951889 0.21597312 4278190080
-0.28256777 0.79618019 0.21597312 4278190080
-0.27978691 0.7971617 0.21597312 4278190080
-0.27541903 0.79357058 0.21467987 4278190080
-0.27264732 0.79452711 0.21467987 4278190080
-0.26987228 0.79547399 0.21467987 4278190080
-0.26555803 0.79183203 0.21338663 4278190080
-0.26279244 0.79275417 0.21338663 4278190080
-0.25988519 0.79371196 0.21338663 4278190080
-0.25711289 0.79461437 0.21338663 4278190080
-0.25433764 0.79550701 0.21338663 4278190080
-0.25155929 0.79638994 0.21338663 4278190080
-0.24877788 0.79726321 0.21338663 4278190080
-0.24457085 0.79351115 0.21209337 4278190080
-0.24179932 0.79436004 0.21209337 4278190080
-0.23902506 0.79519922 0.21209337 4278190080
-0.23624788 0.79602873 0.21209337 4278190080
-0.23346782 0.79684854 0.21209337 4278190080
-0.23068492 0.79765862 0.21209337 4278190080
-0.227899 0.79845905 0.21209337 4278190080
-0.22497109 0.79928893 0.21209337 4278190080
-0.22088738 0.79541564 0.21080011 4278190080
-0.21810955 0.7961818 0.21080011 4278190080
-0.21532886 0.79693836 0.21080011 4278190080
-0.21254575 0.79768509 0.21080011 4278190080
-0.20853283 0.79375082 0.20950687 4278190080
-0.20576088 0.79447389 0.20950687 4278190080
-0.20179184 0.7905075 0.20821361 4278190080
-0.19889304 0.79124182 0.20821361 4278190080
-0.19612992 0.79193127 0.20821361 4278190080
-0.1933642 0.79261112 0.20821361 4278190080
-0.19059655 0.7932812 0.20821361 4278190080
-0.18782614 0.79394168 0.20821361 4278190080
-0.18505345 0.79459256 0.20821361 4278190080
-0.18227895 0.79523361 0.20821361 4278190080
-0.17950177 0.79586506 0.20821361 4278190080
-0.17567664 0.79177147 0.20692036 4278190080
-0.1729116 0.79237992 0.20692036 4278190080
-0.17014445 0.7929787 0.20692036 4278190080
-0.16737567 0.79356772 0.20692036 4278190080
-0.16460441 0.79414719 0.20692036 4278190080
-0.16183157 0.79471689 0.20692036 4278190080
-0.15797101 0.79056853 0.2056271 4278190080
-0.15521069 0.79111511 0.2056271 4278190080
-0.15244807 0.79165208 0.2056271 4278190080
-0.14968401 0.79217935 0.2056271 4278190080
-0.14691772 0.79269707 0.2056271 4278190080
-0.14414962 0.79320508 0.2056271 4278190080
-0.14053319 0.78894836 0.20433384 4278190080
-0.13777824 0.78943413 0.20433384 4278190080
-0.134884 0.7899338 0.20433384 4278190080
-0.13212563 0.79039985 0.20433384 4278190080
-0.12936607 0.79085624 0.20433384 4278190080
-0.12660451 0.79130298 0.20433384 4278190080
-0.12384182 0.79174006 0.20433384 4278190080
-0.12107721 0.79216754 0.20433384 4278190080
-0.11831112 0.79258537 0.20433384 4278190080
-0.11554402 0.79299349 0.20433384 4278190080
-0.11209539 0.78861022 0.2030406 4278190080
-0.10934219 0.7889967 0.2030406 4278190080
-0.10644934 0.78939217 0.2030406 4278190080
-0.10369345 0.78975892 0.2030406 4278190080
-0.10093588 0.79011607 0.2030406 4278190080
-0.098177068 0.79046363 0.2030406 4278190080
-0.095417492 0.79080147 0.2030406 4278190080
-0.092656329 0.79112977 0.2030406 4278190080
-0.089894459 0.79144835 0.2030406 4278190080
-0.087131076 0.79175735 0.2030406 4278190080
-0.084366627 0.79205668 0.2030406 4278190080
-0.081601568 0.7923463 0.2030406 4278190080
-0.078219861 0.78783387 0.20174734 4278190080
-0.075469166 0.78810209 0.20174734 4278190080
-0.072717547 0.78836077 0.20174734 4278190080
-0.069965459 0.78860974 0.20174734 4278190080
-0.067212105 0.78884917 0.20174734 4278190080
-0.064458355 0.78907895 0.20174734 4278190080
-0.061703391 0.78929919 0.20174734 4278190080
-0.058947679 0.78950977 0.20174734 4278190080
-0.056053702 0.78972054 0.20174734 4278190080
-0.053296555 0.78991139 0.20174734 4278190080
-0.050539177 0.79009259 0.20174734 4278190080
-0.047780763 0.79026419 0.20174734 4278190080
-0.045022186 0.79042614 0.20174734 4278190080
-0.042262644 0.79057848 0.20174734 4278190080
-0.039502583 0.79072124 0.20174734 4278190080
-0.036742464 0.79085428 0.20174734 4278190080
-0.033843707 0.79098362 0.20174734 4278190080
-0.031082284 0.79109699 0.20174734 4278190080
-0.028320482 0.79120064 0.20174734 4278190080
-0.025558757 0.79129469 0.20174734 4278190080
-0.022934556 0.7913751 0.20174734 4278190080
-0.020171832 0.79145032 0.20174734 4278190080
-0.017409286 0.79151589 0.20174734 4278190080
-0.014646105 0.79157186 0.20174734 4278190080
-0.011882746 0.79161817 0.20174734 4278190080
-0.0091196625 0.79165483 0.20174734 4278190080
-0.0063172723 0.78685212 0.2004541 4278190080
-0.0035708586 0.78686941 0.2004541 4278190080
-0.00082398253 0.78687704 0.2004541 4278190080
0.0019229037 0.78687513 0.2004541 4278190080
0.0048068152 0.78686279 0.2004541 4278190080
0.0075995596 0.79167086 0.20174734 4278190080
0.010363129 0.79163951 0.20174734 4278190080
0.013126572 0.7915985 0.20174734 4278190080
0.015889434 0.79154789 0.20174734 4278190080
0.018652523 0.79148757 0.20174734 4278190080
0.021414964 0.79141766 0.20174734 4278190080
0.024177564 0.79133809 0.20174734 4278190080
0.026939873 0.79124886 0.20174734 4278190080
0.029701428 0.79115003 0.20174734 4278190080
0.032401938 0.78621006 0.2004541 4278190080
0.035146292 0.78609216 0.2004541 4278190080
0.037890222 0.78596473 0.2004541 4278190080
0.040633269 0.78582764 0.2004541 4278190080
0.043376237 0.78568101 0.2004541 4278190080
0.046118259 0.78552485 0.2004541 4278190080
0.04886014 0.78535908 0.2004541 4278190080
0.051601425 0.78518373 0.2004541 4278190080
0.054341663 0.78499883 0.2004541 4278190080
0.057432022 0.78962147 0.20174734 4278190080
0.060325626 0.7894057 0.20174734 4278190080
0.063080966 0.78919029 0.20174734 4278190080
0.065835118 0.78896528 0.20174734 4278190080
0.06858889 0.78873068 0.20174734 4278190080
0.07134182 0.78848642 0.20174734 4278190080
0.074093468 0.78823262 0.20174734 4278190080
0.076844633 0.78796917 0.20174734 4278190080
0.079594433 0.78769618 0.20174734 4278190080
0.08234369 0.78741348 0.20174734 4278190080
0.085091941 0.78712124 0.20174734 4278190080
0.087838739 0.78681946 0.20174734 4278190080
0.090584882 0.78650802 0.20174734 4278190080
0.093466856 0.78617078 0.20174734 4278190080
0.096210703 0.78583968 0.20174734 4278190080
0.098952956 0.7854991 0.20174734 4278190080
0.10169442 0.78514886 0.20174734 4278190080
0.10443424 0.78478914 0.20174734 4278190080
0.10717319 0.78441978 0.20174734 4278190080
0.10991084 0.78404087 0.20174734 4278190080
0.11264674 0.78365248 0.20174734 4278190080
0.11608557 0.78803277 0.2030406 4278190080
0.11883535 0.78762281 0.2030406 4278190080
0.12232134 0.79197639 0.20433384 4278190080
0.12508528 0.79154456 0.20433384 4278190080
0.12798548 0.79108083 0.20433384 4278190080
0.13074626 0.79062921 0.20433384 4278190080
0.13350502 0.79016805 0.20433384 4278190080
0.13626258 0.78969717 0.20433384 4278190080
0.13901804 0.78921676 0.20433384 4278190080
0.14177226 0.78872669 0.20433384 4278190080
0.14452472 0.78822696 0.20433384 4278190080
0.14727502 0.7877177 0.20433384 4278190080
0.15016104 0.78717268 0.20433384 4278190080
0.15382962 0.79138476 0.2056271 4278190080
0.1565913 0.79084295 0.2056271 4278190080
0.15935065 0.79029161 0.2056271 4278190080
0.16210848 0.78973049 0.2056271 4278190080
0.16486391 0.78915989 0.2056271 4278190080
0.16761775 0.78857958 0.2056271 4278190080
0.17036957 0.78798962 0.2056271 4278190080
0.17311887 0.78739017 0.2056271 4278190080
0.17586648 0.78678101 0.2056271 4278190080
0.17861155 0.78616244 0.2056271 4278190080
0.18135484 0.78553414 0.2056271 4278190080
0.18409593 0.78489625 0.2056271 4278190080
0.18683435 0.78424889 0.2056271 4278190080
0.18957092 0.78359193 0.2056271 4278190080
0.19230476 0.78292549 0.2056271 4278190080
0.19503668 0.78224939 0.2056271 4278190080
0.19776621 0.78156376 0.2056271 4278190080
0.20062935 0.78083372 0.2056271 4278190080
0.20335349 0.78012872 0.2056271 4278190080
0.20607558 0.77941406 0.2056271 4278190080
0.21004602 0.783355 0.20692036 4278190080
0.21277891 0.78261709 0.20692036 4278190080
0.21679305 0.78652579 0.20821361 4278190080
0.21953698 0.78576434 0.20821361 4278190080
0.22227862 0.78499317 0.20821361 4278190080
0.22501758 0.78421247 0.20821361 4278190080
0.22775337 0.78342229 0.20821361 4278190080
0.23062353 0.78258216 0.20821361 4278190080
0.23335359 0.78177243 0.20821361 4278190080
0.23608123 0.78095311 0.20821361 4278190080
0.23880558 0.78012431 0.20821361 4278190080
0.24152744 0.77928591 0.20821361 4278190080
0.24424635 0.77843803 0.20821361 4278190080
0.24842387 0.78218406 0.20950687 4278190080
0.25115284 0.78131211 0.20950687 4278190080
0.25387836 0.78043073 0.20950687 4278190080
0.25660118 0.7795397 0.20950687 4278190080
0.26098344 0.78317612 0.21080011 4278190080
0.2637158 0.7822603 0.21080011 4278190080
0.26644456 0.78133512 0.21080011 4278190080
0.26917046 0.78040022 0.21080011 4278190080
0.27189311 0.77945584 0.21080011 4278190080
0.27461201 0.77850211 0.21080011 4278190080
0.27908716 0.78203911 0.21209337 4278190080
0.28181505 0.78106022 0.21209337 4278190080
0.28453991 0.78007168 0.21209337 4278190080
0.28726089 0.77907383 0.21209337 4278190080
0.28997877 0.77806628 0.21209337 4278190080
0.29269314 0.77704924 0.21209337 4278190080
0.29540351 0.77602291 0.21209337 4278190080
0.29811069 0.77498698 0.21209337 4278190080
0.30256358 0.77844352 0.21338663 4278190080
0.30527917 0.77738255 0.21338663 4278190080
0.30812627 0.77625847 0.21338663 4278190080
0.31263176 0.779661 0.21467987 4278190080
0.31535113 0.77856505 0.21467987 4278190080
0.31806707 0.7774595 0.21467987 4278190080
0.32077914 0.77634442 0.21467987 4278190080
0.32348689 0.77522004 0.21467987 4278190080
0.3261911 0.77408612 0.21467987 4278190080
0.330782 0.77738714 0.21597312 4278190080
0.33349371 0.77622765 0.21597312 4278190080
0.3362014 0.77505875 0.21597312 4278190080
0.34084204 0.77830476 0.21726637 4278190080
0.34355694 0.77711022 0.21726637 4278190080
0.34823555 0.78031689 0.21855962 4278190080
0.35095739 0.77909654 0.21855962 4278190080
0.35367498 0.7778666 0.21855962 4278190080
0.35638782 0.77662742 0.21855962 4278190080
0.3592318 0.77531606 0.21855962 4278190080
0.36193615 0.77405733 0.21855962 4278190080
0.36463606 0.77278912 0.21855962 4278190080
0.36733112 0.77151173 0.21855962 4278190080
0.37002215 0.77022469 0.21855962 4278190080
0.37481487 0.77327472 0.21985288 4278190080
0.37751198 0.77196157 0.21985288 4278190080
0.3802045 0.770639 0.21985288 4278190080
0.38289198 0.76930732 0.21985288 4278190080
0.38774231 0.77228236 0.22114612 4278190080
0.39057016 0.77085608 0.22114612 4278190080
0.3954567 0.77378869 0.22243938 4278190080
0.39815506 0.77240372 0.22243938 4278190080
0.40307695 0.77529442 0.22373265 4278190080
0.40578094 0.77388263 0.22373265 4278190080
0.40847957 0.77246159 0.22373265 4278190080
0.41344634 0.77529269 0.22502589 4278190080
0.41614985 0.7738449 0.22502589 4278190080
0.42128676 0.77655965 0.22631915 4278190080
0.42399463 0.7750845 0.22631915 4278190080
0.42903048 0.77782881 0.22761239 4278190080
0.43174276 0.7763266 0.22761239 4278190080
0.43681234 0.77902752 0.22890565 4278190080
0.43952915 0.77749795 0.22890565 4278190080
0.44463173 0.7801553 0.2301989 4278190080
0.44735244 0.77859837 0.2301989 4278190080
0.45006728 0.77703226 0.2301989 4278190080
0.45521238 0.77962726 0.23149215 4278190080
0.45793119 0.77803344 0.23149215 4278190080
0.46064401 0.77643037 0.23149215 4278190080
0.46348697 0.77473664 0.23149215 4278190080
0.46618822 0.7731142 0.23149215 4278190080
0.47139269 0.77560943 0.2327854 4278190080
0.47409695 0.7739594 0.2327854 4278190080
0.47679585 0.77229965 0.2327854 4278190080
0.47948894 0.77063054 0.2327854 4278190080
0.48217577 0.76895225 0.2327854 4278190080
0.48743728 0.77134728 0.23407865 4278190080
0.49026102 0.76955563 0.23407865 4278190080
0.49294445 0.76783955 0.23407865 4278190080
0.49824491 0.77016956 0.2353719 4278190080
0.50093043 0.76842558 0.2353719 4278190080
0.50639576 0.77062082 0.23666516 4278190080
0.51174933 0.77287543 0.2379584 4278190080
0.51444376 0.77108455 0.2379584 4278190080
0.51982695 0.77329236 0.23925166 4278190080
0.52252281 0.77147329 0.23925166 4278190080
0.52521271 0.76964456 0.23925166 4278190080
0.53063262 0.77178639 0.24054492 4278190080
0.53332317 0.76992959 0.24054492 4278190080
0.53600764 0.76806313 0.24054492 4278190080
0.54146308 0.77013868 0.24183817 4278190080
0.54414821 0.76824379 0.24183817 4278190080
0.54963213 0.77027118 0.24313143 4278190080
0.55245149 0.76825154 0.24313143 4278190080
0.55796349 0.77022976 0.24442467 4278190080
0.56064844 0.76827759 0.24442467 4278190080
0.56332695 0.76631576 0.24442467 4278190080
0.56887251 0.76822639 0.24571793 4278190080
0.57155079 0.76623583 0.24571793 4278190080
0.5771234 0.76809734 0.24701117 4278190080
0.58271557 0.76992947 0.24830443 4278190080
0.58832794 0.77173162 0.24959768 4278190080
0.59101796 0.76967347 0.24959768 4278190080
0.59665608 0.77142602 0.25089094 4278190080
0.60231364 0.7731486 0.25218418 4278190080
0.60500848 0.77104163 0.25218418 4278190080
0.61069119 0.77271426 0.25347742 4278190080
0.61338449 0.77057803 0.25347742 4278190080
0.61909187 0.77220041 0.2547707 4278190080
0.62495279 0.77368343 0.25606394 4278190080
0.62764978 0.77149707 0.25606394 4278190080
0.6333999 0.77303767 0.25735721 4278190080
0.63609463 0.77082181 0.25735721 4278190080
0.63878155 0.76859659 0.25735721 4278190080
0.6445604 0.77006602 0.25865045 4278190080
0.64724463 0.7678113 0.25865045 4278190080
0.65304643 0.76922941 0.25994369 4278190080
0.65886641 0.77061605 0.26123697 4278190080
0.66470397 0.7719714 0.26253021 4278190080
0.67055857 0.77329564 0.26382345 4278190080
0.67643088 0.77458805 0.26511672 4278190080
0.6792652 0.77210367 0.26511672 4278190080
0.68515927 0.77334285 0.26640996 4278190080
0.68785429 0.77094674 0.26640996 4278190080
0.69376945 0.77213347 0.26770321 4278190080
0.6964606 0.7697069 0.26770321 4278190080
0.70239598 0.77084142 0.26899645 4278190080
0.7050826 0.76838475 0.26899645 4278190080
0.71103811 0.76946634 0.27028972 4278190080
0.71701008 0.77051526 0.27158296 4278190080
0.71969551 0.76800758 0.27158296 4278190080
0.72568655 0.76900363 0.2728762 4278190080
0.72836661 0.76646566 0.2728762 4278190080
0.73437673 0.76740825 0.27416947 4278190080
0.74040264 0.76831782 0.27546272 4278190080
0.74644375 0.7691946 0.27675596 4278190080
0.74912399 0.76658458 0.27675596 4278190080
0.75518316 0.7674073 0.27804923 4278190080
0.76125675 0.76819748 0.27934247 4278190080
0.76747972 0.76882011 0.28063571 4278190080
0.77015853 0.76613665 0.28063571 4278190080
0.77626437 0.76683784 0.28192899 4278190080
0.78238404 0.767506 0.28322226 4278190080
0.7850585 0.76477015 0.28322226 4278190080
0.7911948 0.76538306 0.2845155 4278190080
0.79747832 0.76582354 0.28580874 4278190080
0.79315579 0.75636905 0.28322226 4278190080
1.0703225 0.7776348 0.34400508 4278190080
1.0651959 0.76824319 0.34141856 4278190080
1.071798 0.7673322 0.34271184 4278190080
1.0547854 0.74959683 0.33624557 4278190080
1.0652887 0.75147885 0.33883208 4278190080
1.0679055 0.74775553 0.33883208 4278190080
1.0744754 0.7467795 0.34012532 4278190080
1.0850266 0.74850988 0.34271184 4278190080
1.0916181 0.74744636 0.34400508 4278190080
1.098215 0.74634647 0.34529832 4278190080
1.108822 0.7479099 0.34788486 4278190080
1.1154397 0.74672139 0.34917811 4278190080
1.122062 0.74549639 0.35047138 4278190080
1.1286898 0.74423361 0.35176462 4278190080
1.1393634 0.74557889 0.35435113 4278190080
1.1460099 0.74422753 0.35564438 4278190080
1.1567205 0.74545515 0.35823086 4278190080
1.1635143 0.7438122 0.35952413 4278190080
1.1701818 0.74233389 0.36081737 4278190080
1.1768534 0.74081737 0.36211061 4278190080
1.1835288 0.73926336 0.36340389 4278190080
1.1902071 0.73767233 0.36469713 4278190080
1.2010033 0.73857313 0.36728364 4278190080
1.2076968 0.7368924 0.36857688 4278190080
1.2185253 0.73767453 0.37116337 4278190080
1.2293738 0.73839003 0.37374988 4278190080
1.2402416 0.7390393 0.3763364 4278190080
1.2469717 0.73716319 0.37762964 4278190080
1.2578695 0.73769301 0.38021615 4278190080
1.2646118 0.7357263 0.38150942 4278190080
1.2755389 0.73613566 0.38409594 4278190080
1.2864836 0.73647827 0.38668242 4278190080
1.2974467 0.73675269 0.38926893 4278190080
1.3084267 0.73696017 0.39185542 4278190080
1.3194244 0.73709929 0.39444193 4278190080
1.3305672 0.73693877 0.39702845 4278190080
1.3373649 0.73461473 0.39832169 4278190080
1.3484039 0.73456275 0.4009082 4278190080
1.3552089 0.73214763 0.40220144 4278190080
1.3620138 0.72969317 0.40349469 4278190080
1.3688177 0.72720087 0.40478793 4278190080
1.3756211 0.72466916 0.4060812 4278190080
1.3867044 0.72433496 0.40866768 4278190080
1.3978018 0.72393286 0.4112542 4278190080
1.4089135 0.72346133 0.41384071 4278190080
1.4200385 0.72292185 0.41642722 4278190080
1.4311771 0.72231257 0.41901374 4278190080
1.4423287 0.72163433 0.42160022 4278190080
1.4534924 0.72088778 0.42418674 4278190080
1.4690032 0.72220212 0.42806649 4278190080
1.4801985 0.72130191 0.43065301 4278190080
1.4958811 0.72217077 0.43453273 4278190080
1.5071062 0.72111452 0.43711925 4278190080
1.5183424 0.71998781 0.43970576 4278190080
1.5295887 0.71879226 0.44229224 4278190080
1.5408454 0.71752608 0.44487876 4278190080
1.5564973 0.71821362 0.44875854 4278190080
1.5677797 0.71679312 0.45134503 4278190080
1.5834709 0.71729463 0.45522478 4278190080
1.5991842 0.71769613 0.45910454 4278190080
1.6149198 0.7179957 0.46298429 4278190080
1.6306767 0.71819413 0.46686405 4278190080
1.6420274 0.71636075 0.46945056 4278190080
1.6579441 0.71608216 0.47333032 4278190080
1.6737552 0.71598977 0.47721004 4278190080
1.6895862 0.7157948 0.48108983 4278190080
1.7009817 0.71363032 0.48367634 4278190080
1.7168434 0.713247 0.4875561 4278190080
1.7327229 0.71276158 0.49143586 4278190080
1.7486194 0.71217483 0.49531561 4278190080
1.764533 0.71148479 0.49919537 4278190080
1.7804627 0.71069318 0.50307512 4278190080
1.7964087 0.7097981 0.50695485 4278190080
1.8124932 0.70848453 0.51083463 4278190080
1.8284689 0.70738107 0.51471442 4278190080
1.8489691 0.70790249 0.51988739 4278190080
1.8649786 0.70657718 0.52376711 4278190080
1.8855238 0.70684409 0.52894014 4278190080
1.9060932 0.70697713 0.53411317 4278190080
1.9266865 0.70697403 0.5392862 4278190080
1.9473025 0.70683676 0.54445922 4278190080
1.9633951 0.7049309 0.54833895 4278190080
1.9840497 0.70453751 0.55351192 4278190080
2.0047247 0.70400947 0.55868495 4278190080
2.0254207 0.70334458 0.56385797 4278190080
2.0461357 0.70254475 0.569031 4278190080
2.0668697 0.7016077 0.57420403 4278190080
2.0922008 0.70207089 0.58067024 4278190080
2.1129756 0.70084631 0.58584327 4278190080
2.1337674 0.69948405 0.59101623 4278190080
2.1545751 0.69798625 0.59618932 4278190080
2.1753983 0.69635046 0.60136229 4278190080
2.1962361 0.69457775 0.60653532 4278190080
2.2170873 0.69266909 0.61170834 4278190080
2.2425673 0.69204628 0.61817455 4278190080
2.2634492 0.68984711 0.62334752 4278190080
2.2889683 0.68890125 0.62981385 4278190080
2.3192577 0.68875742 0.63757336 4278190080
2.3448219 0.68745112 0.64403963 4278190080
2.3750441 0.6873185 0.65179914 4278190080
2.4006495 0.68565542 0.65826535 4278190080
2.4309211 0.68513221 0.66602492 4278190080
2.4612174 0.68440711 0.67378443 4278190080
2.491538 0.68347752 0.68154395 4278190080
2.5218818 0.68234575 0.68930346 4278190080
2.5569146 0.68225431 0.69835621 4278190080
2.587306 0.6806975 0.70611572 4278190080
2.6223922 0.68015075 0.71516848 4278190080
2.6528268 0.67816961 0.72292799 4278190080
2.6879623 0.67716551 0.73198074 4278190080
2.7231233 0.67592287 0.74103355 4278190080
2.7583075 0.67444283 0.75008625 4278190080
2.7982097 0.67385763 0.7604323 4278190080
2.8334417 0.67188609 0.76948506 4278190080
2.8733969 0.67077613 0.77983105 4278190080
2.9133785 0.66939384 0.79017711 4278190080
2.9533851 0.66774046 0.80052316 4278190080
2.9698417 0.66057408 0.80440289 4278190080
2.9721296 0.65020275 0.80440289 4278190080
2.9650486 0.63727564 0.8018164 4278190080
2.957804 0.62492436 0.79922986 4278190080
2.9552383 0.61361492 0.79793668 4278190080
2.9620945 0.60426021 0.79922986 4278190080
2.964186 0.5939163 0.79922986 4278190080
2.7537575 0.51187027 0.73974025 4278190080
2.7507761 0.50138807 0.73844707 4278190080
2.766773 0.49433234 0.74232674 4278190080
2.7684817 0.48467091 0.74232674 4278190080
2.7701566 0.47500503 0.74232674 4278190080
2.7717979 0.46533191 0.74232674 4278190080
2.7734053 0.4556531 0.74232674 4278190080
2.7797477 0.4467366 0.74362004 4278190080
2.7908328 0.43852961 0.74620652 4278190080
2.7971201 0.42951906 0.74749976 4278190080
2.8081553 0.42118487 0.75008625 4278190080
2.8096087 0.41137943 0.75008625 4278190080
2.8253713 0.40361959 0.75396603 4278190080
2.8028448 0.3904224 0.74749976 4278190080
2.8521175 0.3866353 0.7604323 4278190080
2.88218 0.38046917 0.76819187 4278190080
2.9170237 0.3747147 0.77724457 4278190080
2.9374843 0.36692411 0.7824176 4278190080
2.9723098 0.36074251 0.79147035 4278190080
2.9687543 0.34979919 0.79017711 4278190080
2.974756 0.33998197 0.79147035 4278190080
2.9759247 0.32959703 0.79147035 4278190080
2.9722545 0.31869152 0.79017711 4278190080
2.9733489 0.30831543 0.79017711 4278190080
2.9696014 0.29745263 0.78888386 4278190080
2.9706216 0.28708434 0.78888386 4278190080
2.9716055 0.27671415 0.78888386 4278190080
2.9677427 0.26590794 0.78759056 4278190080
2.9686527 0.25554791 0.78759056 4278190080
2.9695268 0.2451832 0.78759056 4278190080
2.9703646 0.23481549 0.78759056 4278190080
2.9711661 0.22444651 0.78759056 4278190080
2.9671142 0.21372621 0.78629738 4278190080
2.9678421 0.20336869 0.78629738 4278190080
2.968534 0.19300711 0.78629738 4278190080
2.9643688 0.18234664 0.78500408 4278190080
2.964987 0.1719989 0.78500408 4278190080
2.9655695 0.16164748 0.78500408 4278190080
2.9661157 0.15129568 0.78500408 4278190080
2.9666257 0.14094044 0.78500408 4278190080
2.9670997 0.13058349 0.78500408 4278190080
2.9675374 0.12022655 0.78500408 4278190080
2.9679389 0.10986654 0.78500408 4278190080
2.9634774 0.099344961 0.78371084 4278190080
2.9638216 0.088481471 0.78371084 4278190080
2.9641123 0.078136213 0.78371084 4278190080
2.9643672 0.067788422 0.78371084 4278190080
2.9694145 0.057533365 0.78500408 4278190080
2.9695971 0.047168773 0.78500408 4278190080
2.9697437 0.036802024 0.78500408 4278190080
2.9650245 0.026393417 0.78371084 4278190080
2.9650986 0.016042758 0.78371084 4278190080
2.9651365 0.0056919027 0.78371084 4278190080
2.9651384 -0.0046576327 0.78371084 4278190080
2.9651041 -0.015007868 0.78371084 4278190080
2.9602039 -0.025316617 0.7824176 4278190080
2.9600973 -0.035649501 0.7824176 4278190080
2.959955 -0.045981951 0.7824176 4278190080
2.9597764 -0.056313846 0.7824176 4278190080
2.9595618 -0.066645049 0.7824176 4278190080
2.9593112 -0.076975442 0.7824176 4278190080
2.9590244 -0.087304898 0.7824176 4278190080
2.9587016 -0.097633287 0.7824176 4278190080
2.9583428 -0.10796048 0.7824176 4278190080
2.957948 -0.11828637 0.7824176 4278190080
2.9575169 -0.12861082 0.7824176 4278190080
2.9570501 -0.1389337 0.7824176 4278190080
2.956547 -0.14925489 0.7824176 4278190080
2.956008 -0.15957424 0.7824176 4278190080
2.9554331 -0.16989167 0.7824176 4278190080
2.9548221 -0.18020701 0.7824176 4278190080
2.954175 -0.19052018 0.7824176 4278190080
2.9486732 -0.20050336 0.78112435 4278190080
2.9479554 -0.21079493 0.78112435 4278190080
2.9472017 -0.22108392 0.78112435 4278190080
2.9464121 -0.23137023 0.78112435 4278190080
2.9455864 -0.24165373 0.78112435 4278190080
2.944725 -0.25193426 0.78112435 4278190080
2.9438276 -0.26221174 0.78112435 4278190080
2.9428945 -0.272486 0.78112435 4278190080
2.9419253 -0.28275695 0.78112435 4278190080
2.9409204 -0.29302448 0.78112435 4278190080
2.9398797 -0.30328843 0.78112435 4278190080
2.938803 -0.31354868 0.78112435 4278190080
2.937634 -0.32431784 0.78112435 4278190080
2.9412827 -0.33511683 0.7824176 4278190080
2.9400952 -0.3453818 0.7824176 4278190080
2.9388716 -0.35564253 0.7824176 4278190080
2.9376123 -0.36589894 0.7824176 4278190080
2.9363172 -0.37615091 0.7824176 4278190080
2.9349861 -0.38639826 0.7824176 4278190080
2.9336195 -0.39664093 0.7824176 4278190080
2.9370012 -0.40754262 0.78371084 4278190080
2.9355607 -0.4177922 0.78371084 4278190080
2.9340844 -0.42803666 0.78371084 4278190080
2.9325726 -0.4382759 0.78371084 4278190080
2.9310248 -0.44850981 0.78371084 4278190080
2.9294415 -0.45873827 0.78371084 4278190080
3.0333087 -0.49563619 0.70019275 4278190080
3.0315602 -0.50622141 0.70019275 4278190080
3.0297747 -0.51680046 0.70019275 4278190080
3.032752 -0.52820915 0.70131665 4278190080
3.0308897 -0.53879219 0.70131665 4278190080
3.0289905 -0.54936868 0.70131665 4278190080
3.0270543 -0.55993849 0.70131665 4278190080
3.0298691 -0.5714044 0.70244056 4278190080
3.0278561 -0.58197713 0.70244056 4278190080
3.0305872 -0.59347904 0.70356447 4278190080
3.0284972 -0.60405415 0.70356447 4278190080
3.0311449 -0.61559159 0.70468837 4278190080
3.0289776 -0.62616855 0.70468837 4278190080
3.0267735 -0.63673782 0.70468837 4278190080
3.0245323 -0.64729935 0.70468837 4278190080
3.0222545 -0.65785301 0.70468837 4278190080
3.0199397 -0.66839862 0.70468837 4278190080
3.0175881 -0.67893612 0.70468837 4278190080
3.0151999 -0.68946534 0.70468837 4278190080
3.0175202 -0.70108873 0.70581228 4278190080
3.0150547 -0.71161753 0.70581228 4278190080
3.0125523 -0.72213769 0.70581228 4278190080
3.0147471 -0.73380136 0.70693618 4278190080
3.0121672 -0.74432033 0.70693618 4278190080
3.0095508 -0.75483018 0.70693618 4278190080
3.0067639 -0.76585567 0.70693618 4278190080
3.0040724 -0.77634656 0.70693618 4278190080
3.0013442 -0.78682798 0.70693618 4278190080
3.0032876 -0.7985518 0.70806009 4278190080
3.000623 -0.80850667 0.70806009 4278190080
3.0024824 -0.82025981 0.70918399 4278190080
3.0041509 -0.83256012 0.7103079 4278190080
3.0012264 -0.84304148 0.7103079 4278190080
3.0029514 -0.8548466 0.7114318 4278190080
2.999949 -0.8653236 0.7114318 4278190080
3.0015864 -0.87715673 0.71255571 4278190080
2.9985063 -0.88762879 0.71255571 4278190080
2.9955463 -0.89756739 0.71255571 4278190080
2.9923952 -0.90801823 0.71255571 4278190080
2.9938645 -0.91988915 0.71367961 4278190080
2.9906354 -0.93033415 0.71367961 4278190080
2.9873695 -0.94076765 0.71367961 4278190080
2.9840674 -0.95118982 0.71367961 4278190080
2.9807291 -0.9616003 0.71367961 4278190080
2.9819856 -0.97351116 0.71480352 4278190080
2.9785693 -0.98391438 0.71480352 4278190080
2.9797375 -0.99584979 0.71592742 4278190080
2.9762433 -1.006245 0.71592742 4278190080
2.9771447 -1.018724 0.71705133 4278190080
2.9735706 -1.02911 0.71705133 4278190080
2.9699602 -1.0394834 0.71705133 4278190080
2.9663136 -1.0498441 0.71705133 4278190080
2.9672182 -1.0618337 0.71817523 4278190080
2.9636807 -1.0716674 0.71817523 4278190080
2.9644976 -1.0836788 0.71929914 4278190080
2.9606967 -1.0940202 0.71929914 4278190080
2.9614241 -1.106053 0.72042304 4278190080
2.9575453 -1.1163836 0.72042304 4278190080
2.9536304 -1.1267005 0.72042304 4278190080
2.9542255 -1.1387562 0.72154701 4278190080
2.9502325 -1.1490614 0.72154701 4278190080
2.9507372 -1.1611366 0.72267085 4278190080
2.946666 -1.1714295 0.72267085 4278190080
2.9470801 -1.1835238 0.72379476 4278190080
2.9429309 -1.1938039 0.72379476 4278190080
2.943254 -1.2059165 0.72491866 4278190080
2.9390268 -1.2161829 0.72491866 4278190080
2.9392591 -1.2283133 0.72604257 4278190080
2.9349535 -1.2385657 0.72604257 4278190080
2.9350941 -1.250713 0.72716647 4278190080
2.9307106 -1.2609508 0.72716647 4278190080
2.9307599 -1.2731143 0.72829038 4278190080
2.9262979 -1.2833369 0.72829038 4278190080
2.9262552 -1.295516 0.72941428 4278190080
2.9261634 -1.3077105 0.73053819 4278190080
2.9215808 -1.3179169 0.73053819 4278190080
2.9213967 -1.3301258 0.73166209 4278190080
2.9211628 -1.3423496 0.732786 4278190080
2.9208794 -1.3545879 0.7339099 4278190080
2.9161332 -1.3647754 0.7339099 4278190080
2.9157569 -1.377027 0.73503381 4278190080
2.9155729 -1.3887835 0.73615772 4278190080
2.9150987 -1.4010628 0.73728162 4278190080
2.9101903 -1.41123 0.73728162 4278190080
2.9096227 -1.4235208 0.73840553 4278190080
2.9046359 -1.4336686 0.73840553 4278190080
2.8996139 -1.4437989 0.73840553 4278190080
2.89891 -1.4560986 0.73952943 4278190080
2.8938098 -1.4662088 0.73952943 4278190080
2.8930123 -1.4785182 0.74065334 4278190080
2.8921642 -1.4908401 0.74177724 4278190080
2.8869429 -1.5009265 0.74177724 4278190080
2.8860006 -1.5132571 0.74290115 4278190080
2.8807008 -1.523322 0.74290115 4278190080
2.8796649 -1.5356607 0.74402505 4278190080
2.8742869 -1.5457034 0.74402505 4278190080
2.8731568 -1.5580494 0.74514896 4278190080
2.8719754 -1.5704067 0.74627286 4278190080
2.8707426 -1.5827745 0.74739677 4278190080
2.8694587 -1.5951529 0.74852067 4278190080
2.863873 -1.6051594 0.74852067 4278190080
2.8624942 -1.6175433 0.74964458 4278190080
2.8610637 -1.6299371 0.75076848 4278190080
2.8595817 -1.6423407 0.75189239 4278190080
2.8580477 -1.6547536 0.75301629 4278190080
2.856462 -1.6671759 0.7541402 4278190080
2.850625 -1.6771365 0.7541402 4278190080
2.8489437 -1.6895621 0.7552641 4278190080
2.8430288 -1.6994965 0.7552641 4278190080
2.8412523 -1.7119246 0.75638801 4278190080
2.8394234 -1.7243608 0.75751191 4278190080
2.8333869 -1.7342618 0.75751191 4278190080
2.8314626 -1.7466996 0.75863582 4278190080
2.8336234 -1.7617174 0.76088363 4278190080
2.8274567 -1.7715979 0.76088363 4278190080
2.8253748 -1.7840579 0.76200753 4278190080
2.8232405 -1.7965251 0.76313144 4278190080
2.8210535 -1.8089988 0.76425534 4278190080
2.8147218 -1.8188351 0.76425534 4278190080
2.8124385 -1.8313079 0.76537925 4278190080
2.8063502 -1.8406242 0.76537925 4278190080
2.8039727 -1.8530952 0.76650316 4278190080
2.8015423 -1.865572 0.76762706 4278190080
2.7990589 -1.8780544 0.76875097 4278190080
2.7965224 -1.8905423 0.76987487 4278190080
2.7939329 -1.9030349 0.77099878 4278190080
2.7912903 -1.9155328 0.77212268 4278190080
2.788594 -1.9280353 0.77324653 4278190080
2.7858448 -1.9405423 0.77437049 4278190080
2.783042 -1.9530536 0.77549434 4278190080
2.7762077 -1.9627562 0.77549434 4278190080
2.773308 -1.9752616 0.7766183 4278190080
2.7703547 -1.9877706 0.77774221 4278190080
2.7676969 -1.9997997 0.77886611 4278190080
2.7646384 -2.0123158 0.77999002 4278190080
2.7611728 -2.0253167 0.78111392 4278190080
2.7580049 -2.037838 0.78223783 4278190080
2.7551405 -2.049881 0.78336173 4278190080
2.7518673 -2.0624075 0.78448564 4278190080
2.7485397 -2.0749362 0.78560954 4278190080
2.7451582 -2.087467 0.78673345 4278190080
2.7417226 -2.099999 0.78785735 4278190080
2.7382331 -2.1125329 0.78898126 4278190080
2.7308424 -2.1220779 0.78898126 4278190080
2.7272549 -2.1346002 0.79010516 4278190080
2.7197871 -2.1441071 0.79010516 4278190080
2.7161016 -2.1566176 0.79122907 4278190080
2.7123621 -2.1691284 0.79235297 4278190080
2.7351284 -2.203032 0.80134416 4278190080
2.7576907 -2.2371213 0.81033546 4278190080
2.7611835 -2.2559814 0.81370717 4278190080
2.7457676 -2.2594147 0.81145936 4278190080
2.737864 -2.2689855 0.81145936 4278190080
2.7303247 -2.2780521 0.81145936 4278190080
2.7298162 -2.2938373 0.81370717 4278190080
2.7292306 -2.3096468 0.81595498 4278190080
2.7285681 -2.32548 0.81820279 4278190080
2.716737 -2.3318172 0.81707889 4278190080
2.7122667 -2.3444722 0.81820279 4278190080
2.7003918 -2.3507266 0.81707889 4278190080
2.6958332 -2.3633502 0.81820279 4278190080
2.6985242 -2.3824193 0.82157451 4278190080
2.7011147 -2.401536 0.82494617 4278190080
2.6927152 -2.4109502 0.82494617 4278190080
2.6806648 -2.4170723 0.82382232 4278190080
2.6722112 -2.426415 0.82382232 4278190080
2.6565344 -2.4291523 0.82157451 4278190080
2.6552067 -2.4450111 0.82382232 4278190080
2.6395111 -2.447639 0.82157451 4278190080
2.6385028 -2.4630277 0.82382232 4278190080
2.6050794 -2.4842539 0.82157451 4278190080
2.5928776 -2.4899573 0.82045054 4278190080
2.5596542 -2.4752853 0.81258327 4278190080
2.4776988 -2.4128249 0.78898126 4278190080
2.4623044 -2.4146364 0.78673345 4278190080
2.4434607 -2.4129467 0.78336173 4278190080
2.4063203 -2.4088416 0.7766183 4278190080
0.87929815 -0.92432266 0.28547186 4278190080
0.8727206 -0.9238447 0.28434795 4278190080
0.84615749 -0.90201223 0.27648062 4278190080
2.1026149 -2.3866272 0.72491866 4278190080
2.100687 -2.4012861 0.72716647 4278190080
2.085902 -2.401248 0.72491866 4278190080
2.0679607 -2.3974471 0.72154701 4278190080
2.0532408 -2.3972502 0.71929914 4278190080
2.0385475 -2.39698 0.71705133 4278190080
2.0238814 -2.3966365 0.71480352 4278190080
2.0092423 -2.39622 0.71255571 4278190080
1.9946311 -2.3957307 0.7103079 4278190080
1.9831523 -2.3989236 0.70918399 4278190080
1.9690025 -2.3979561 0.70693618 4278190080
1.9544629 -2.3972626 0.70468837 4278190080
0.72827619 -0.93248636 0.26411766 4278190080
0.73994392 -0.95427382 0.26973715 4278190080
0.69500065 -0.90280265 0.25400251 4278190080
0.65930164 -0.86264277 0.24163954 4278190080
1.754402 -2.3979645 0.67659074 4278190080
1.7317058 -2.3843634 0.67097121 4278190080
1.720523 -2.3864417 0.66984737 4278190080
1.6951697 -2.3686612 0.66310394 4278190080
1.6844833 -2.3702981 0.66197997 4278190080
1.681816 -2.3841259 0.66422778 4278190080
0.30774271 -0.68348205 0.16409011 4278190080
0.30337033 -0.68010265 0.16296621 4278190080
0.31096324 -0.70338506 0.16858575 4278190080
0.30459729 -0.69554049 0.16633794 4278190080
0.29647025 -0.68313879 0.16296621 4278190080
0.29396445 -0.68422079 0.16296621 4278190080
0.2816129 -0.66829753 0.15847059 4278190080
0.21107548 -0.67851949 0.15509889 4278190080
0.20882425 -0.67921573 0.15509889 4278190080
0.2050366 -0.67527866 0.15397498 4278190080
0.19848055 -0.66198981 0.15060325 4278190080
0.19112097 -0.65400642 0.14835544 4278190080
-0.010183147 -0.72026455 0.1573467 4278190080
-0.013642008 -0.77380878 0.16970964 4278190080
-0.015622802 -0.73965973 0.1618423 4278190080
-0.019043857 -0.77369469 0.16970964 4278190080
-0.021059969 -0.74927282 0.16409011 4278190080
-0.023675252 -0.7491948 0.16409011 4278190080
-0.02594858 -0.73936945 0.1618423 4278190080
-0.028529264 -0.73927438 0.1618423 4278190080
-0.03090483 -0.73430258 0.1607184 4278190080
-0.033467796 -0.73419023 0.1607184 4278190080
-0.036269203 -0.73893511 0.1618423 4278190080
-0.038848404 -0.73880398 0.1618423 4278190080
-0.041570053 -0.74353558 0.16296621 4278190080
-0.04416528 -0.74338591 0.16296621 4278190080
-0.047371708 -0.7529521 0.16521402 4278190080
-0.049031105 -0.73819816 0.1618423 4278190080
-0.053986561 -0.77204376 0.16970964 4278190080
-0.053469747 -0.72811997 0.15959449 4278190080
-0.055263534 -0.7182135 0.1573467 4278190080
-0.06149929 -0.73237503 0.1607184 4278190080
-0.12340681 -0.67504472 0.14947934 4278190080
-0.13022675 -0.6985575 0.15509889 4278190080
-0.12811649 -0.67416668 0.14947934 4278190080
-0.11842716 -0.61153406 0.13486858 4278190080
-0.13093396 -0.66369605 0.14723153 4278190080
-0.12173391 -0.60591578 0.13374469 4278190080
-0.12970616 -0.63412648 0.14048812 4278190080
-0.14614226 -0.63554168 0.14161202 4278190080
-0.15390185 -0.65874904 0.14723153 4278190080
-0.15957518 -0.67242903 0.15060325 4278190080
-0.79197627 -1.4983113 0.38212767 4278190080
-0.80636859 -1.5127351 0.38662326 4278190080
-0.8024171 -1.4927458 0.38212767 4278190080
-0.78904879 -1.4556698 0.37313643 4278190080
-0.80788732 -1.4786983 0.37987986 4278190080
-0.80834228 -1.4673346 0.37763205 4278190080
-0.5803805 -0.66296339 0.19443555 4278190080
-0.57194346 -0.64442205 0.18993993 4278190080
-0.58068287 -0.64968681 0.19218774 4278190080
-0.58620673 -0.65127695 0.19331163 4278190080
-0.58193243 -0.64200717 0.19106384 4278190080
-3.0787735 -2.29234 0.8766458 4278190080
-3.0868456 -2.2650263 0.87439799 4278190080
-3.0435381 -2.2169466 0.85978723 4278190080
-3.063103 -2.2148731 0.863159 4278190080
-3.0866475 -2.2155313 0.86765456 4278190080
-3.0864263 -2.1990893 0.86540675 4278190080
-3.1139724 -2.2023687 0.87102634 4278190080
-3.1415787 -2.2054825 0.8766458 4278190080
-3.1652477 -2.2056439 0.88114142 4278190080
-3.1929622 -2.2084391 0.88676101 4278190080
-3.2167182 -2.2083101 0.89125657 4278190080
-3.2401264 -2.2086074 0.89575219 4278190080
