# .PCD v0.7 - Point Cloud Data file format
VERSION 0.7
FIELDS x y z rgb
SIZE 4 4 4 4
TYPE F F F U
COUNT 1 1 1 1
WIDTH 1069
HEIGHT 1
VIEWPOINT 0 0 0 1 0 0 0
POINTS 1069
DATA ascii
-2.7179577 0.67917466 -0.53712732 4278190080
-2.7155704 0.68865782 -0.53712732 4278190080
-2.71315 0.69813263 -0.53712732 4278190080
-2.7106965 0.70759958 -0.53712732 4278190080
-2.7129548 0.71831352 -0.53808135 4278190080
-2.7104309 0.72777897 -0.53808135 4278190080
-2.7078741 0.73723555 -0.53808135 4278190080
-2.7100153 0.74798906 -0.53903544 4278190080
-2.7073877 0.7574448 -0.53903544 4278190080
-2.7094493 0.76822942 -0.53998947 4278190080
-2.7067511 0.77768236 -0.53998947 4278190080
-2.7088702 0.78802508 -0.5409435 4278190080
-2.7061031 0.79747587 -0.5409435 4278190080
-2.7033029 0.80691695 -0.5409435 4278190080
-2.7004695 0.81634885 -0.5409435 4278190080
-2.6976035 0.82577014 -0.5409435 4278190080
-2.6947048 0.83518136 -0.5409435 4278190080
-2.6870899 0.84311301 -0.53998947 4278190080
-2.6794527 0.85100174 -0.53903544 4278190080
-2.671793 0.85884815 -0.53808135 4278190080
-2.66396 0.86711538 -0.53712732 4278190080
-2.6562555 0.87487352 -0.53617328 4278190080
-2.6485288 0.88258839 -0.53521919 4278190080
-2.6175261 0.88242114 -0.52949494 4278190080
-2.5912027 0.88363171 -0.52472472 4278190080
-2.564903 0.88466936 -0.5199545 4278190080
-2.5432622 0.88715082 -0.51613832 4278190080
-2.5310485 0.89231598 -0.51423025 4278190080
-2.486155 0.88674724 -0.50564378 4278190080
-2.4414907 0.88043517 -0.49705744 4278190080
-2.3967488 0.87424028 -0.48847103 4278190080
-2.3569937 0.86860603 -0.48083866 4278190080
-2.317152 0.86312211 -0.47320631 4278190080
-2.2865646 0.86082995 -0.46748206 4278190080
-2.2606089 0.86007959 -0.46271181 4278190080
-2.2346869 0.85915858 -0.45794156 4278190080
-2.2133741 0.85984457 -0.45412537 4278190080
-2.1920841 0.86039233 -0.45030922 4278190080
-2.1708171 0.86080259 -0.44649303 4278190080
-2.1495745 0.86107433 -0.44267684 4278190080
-2.1283565 0.86120838 -0.43886068 4278190080
-2.1117074 0.86306173 -0.43599853 4278190080
-2.0859978 0.86106402 -0.43122834 4278190080
-2.060328 0.85889798 -0.42645809 4278190080
-2.0301757 0.85465842 -0.42073381 4278190080
-2.0045953 0.85213917 -0.41596362 4278190080
-1.9790574 0.84945178 -0.41119337 4278190080
-1.9625698 0.85049981 -0.40833122 4278190080
-1.9416025 0.8494764 -0.40451506 4278190080
-1.9206667 0.84831655 -0.40069887 4278190080
-1.9042457 0.84901977 -0.39783677 4278190080
-1.8833675 0.84760433 -0.39402059 4278190080
-1.8669912 0.84808344 -0.39115843 4278190080
-1.8506345 0.84845918 -0.38829628 4278190080
-1.8342984 0.84873068 -0.38543418 4278190080
-1.8179829 0.84889847 -0.38257203 4278190080
-1.7972492 0.84687078 -0.37875587 4278190080
-1.7809843 0.8468163 -0.37589371 4278190080
-1.7647417 0.84665912 -0.37303156 4278190080
-1.7485223 0.84639853 -0.37016943 4278190080
-1.7279161 0.84388119 -0.36635327 4278190080
-1.7117518 0.8433997 -0.36349112 4278190080
-1.6912168 0.84063107 -0.35967496 4278190080
-1.6751096 0.83992988 -0.35681283 4278190080
-1.6590282 0.83912605 -0.35395068 4278190080
-1.6473449 0.84045088 -0.35204259 4278190080
-1.6313087 0.83945864 -0.34918046 4278190080
-1.6196558 0.84062576 -0.34727237 4278190080
-1.6036662 0.83944607 -0.34441024 4278190080
-1.5877049 0.83816463 -0.34154809 4278190080
-1.5717723 0.8367821 -0.33868596 4278190080
-1.5601932 0.8376202 -0.33677787 4278190080
-1.5443113 0.83605105 -0.33391574 4278190080
-1.5327673 0.83673346 -0.33200765 4278190080
-1.5167921 0.83524287 -0.32914549 4278190080
-1.5052851 0.83576727 -0.3272374 4278190080
-1.4895103 0.83382452 -0.32437527 4278190080
-1.4780419 0.83419394 -0.32246718 4278190080
-1.4665893 0.83449346 -0.32055911 4278190080
-1.4551526 0.83472329 -0.31865102 4278190080
-1.4437324 0.83488351 -0.31674293 4278190080
-1.4323287 0.83497459 -0.31483483 4278190080
-1.4209422 0.83499593 -0.31292674 4278190080
-1.4053502 0.83244658 -0.31006461 4278190080
-1.3940077 0.83231479 -0.30815652 4278190080
-1.3826833 0.83211404 -0.30624843 4278190080
-1.371377 0.83184469 -0.30434033 4278190080
-1.3600899 0.83150637 -0.30243224 4278190080
-1.348822 0.83109939 -0.30052415 4278190080
-1.3375735 0.83062398 -0.29861605 4278190080
-1.326345 0.83008021 -0.29670799 4278190080
-1.3151364 0.82946861 -0.29479989 4278190080
-1.3039486 0.82878852 -0.2928918 4278190080
-1.2927816 0.82804054 -0.29098371 4278190080
-1.2816359 0.82722479 -0.28907561 4278190080
-1.2705117 0.82634139 -0.28716755 4278190080
-1.2676194 0.83077151 -0.28716755 4278190080
-1.2647117 0.83519119 -0.28716755 4278190080
-1.2577025 0.83688176 -0.28621349 4278190080
-1.2547736 0.84126675 -0.28621349 4278190080
-1.2436953 0.84014672 -0.28430539 4278190080
-1.2366973 0.84172153 -0.28335136 4278190080
-1.225656 0.8404817 -0.28144327 4278190080
-1.2146385 0.83917505 -0.27953517 4278190080
-1.2036451 0.83780187 -0.27762708 4278190080
-1.1966949 0.83918017 -0.27667302 4278190080
-1.1897494 0.84052056 -0.27571899 4278190080
-1.1788107 0.83897644 -0.27381089 4278190080
-1.1718862 0.84022617 -0.27285686 4278190080
-1.1649673 0.84143782 -0.2719028 4278190080
-1.1539389 0.83992529 -0.26999474 4278190080
-1.1470419 0.84104592 -0.26904067 4278190080
-1.1401511 0.84212863 -0.26808664 4278190080
-1.1293291 0.8402437 -0.26617855 4278190080
-1.1224616 0.84123743 -0.26522449 4278190080
-1.1116838 0.83923596 -0.26331642 4278190080
-1.1048408 0.8401404 -0.26236236 4278190080
-1.0941085 0.83802289 -0.26045427 4278190080
-1.0872905 0.83883882 -0.25950024 4278190080
-1.0766045 0.83660609 -0.25759214 4278190080
-1.0698127 0.83733386 -0.25663811 4278190080
-1.0630288 0.83802438 -0.25568405 4278190080
-1.0562533 0.83867782 -0.25472999 4278190080
-1.0533195 0.84235966 -0.25472999 4278190080
-1.04655 0.84295273 -0.25377595 4278190080
-1.035978 0.84041649 -0.25186786 4278190080
-1.0292373 0.84092212 -0.25091383 4278190080
-1.0225058 0.84139103 -0.24995977 4278190080
-1.0120045 0.83869129 -0.24805169 4278190080
-1.0015343 0.83592892 -0.24614359 4278190080
-0.99485326 0.83626163 -0.24518955 4278190080
-0.98443604 0.8333866 -0.24328147 4278190080
-0.97764045 0.83380431 -0.24232742 4278190080
-0.96727747 0.83081579 -0.24041933 4278190080
-0.96065944 0.83097619 -0.23946528 4278190080
-0.95035136 0.82787657 -0.2375572 4278190080
-0.96221399 0.844136 -0.24137338 4278190080
-0.80885279 0.88178056 -0.22515461 4278190080
-0.80907506 0.88822705 -0.22610866 4278190080
-0.79279989 0.87648582 -0.22229247 4278190080
-0.7798962 0.8682937 -0.21943034 4278190080
-0.7735936 0.86734778 -0.2184763 4278190080
-0.76405305 0.86269426 -0.2165682 4278190080
-0.75779575 0.86167043 -0.21561417 4278190080
-0.75155497 0.86061347 -0.21466012 4278190080
-0.74533063 0.85952365 -0.21370608 4278190080
-0.73897356 0.85852963 -0.21275203 4278190080
-0.73597229 0.86110383 -0.21275203 4278190080
-0.72978616 0.85992539 -0.21179798 4278190080
-0.72361708 0.85871452 -0.21084395 4278190080
-0.71746564 0.85747093 -0.2098899 4278190080
-0.71133173 0.85619485 -0.20893586 4278190080
-0.70521545 0.85488647 -0.20798181 4278190080
-0.69911695 0.85354578 -0.20702775 4278190080
-0.69303632 0.85217321 -0.2060737 4278190080
-0.68389058 0.84694988 -0.20416561 4278190080
-0.67478985 0.84167314 -0.20225753 4278190080
-0.66879106 0.84018332 -0.20130348 4278190080
-0.65976763 0.83481127 -0.19939539 4278190080
-0.65381956 0.83324802 -0.19844134 4278190080
-0.64774567 0.83176625 -0.19748731 4278190080
-0.64483833 0.83402222 -0.19748731 4278190080
-0.63893437 0.83237481 -0.19653326 4278190080
-0.63305002 0.83069623 -0.19557922 4278190080
-0.63014656 0.83290088 -0.19557922 4278190080
-0.62428778 0.83117098 -0.19462517 4278190080
-0.61844879 0.82941037 -0.19367112 4278190080
-0.61262947 0.82761931 -0.19271709 4278190080
-0.60973686 0.82975268 -0.19271709 4278190080
-0.6039443 0.82791078 -0.19176304 4278190080
-0.59817201 0.82603854 -0.190809 4278190080
-0.59242022 0.8241362 -0.18985495 4278190080
-0.58953965 0.82619923 -0.18985495 4278190080
-0.58381522 0.82424676 -0.1889009 4278190080
-0.58093452 0.82627964 -0.1889009 4278190080
-0.57523793 0.82427746 -0.18794686 4278190080
-0.57235718 0.82628036 -0.18794686 4278190080
-0.56668854 0.82422894 -0.18699281 4278190080
-0.56089807 0.82224572 -0.18603876 4278190080
-0.55802453 0.8241986 -0.18603876 4278190080
-0.55240649 0.82206774 -0.18508472 4278190080
-0.54953361 0.82399094 -0.18508472 4278190080
-0.54394507 0.82181132 -0.18413067 4278190080
-0.53837848 0.81960279 -0.18317664 4278190080
-0.53551424 0.82147706 -0.18317664 4278190080
-0.52997738 0.81922048 -0.18222259 4278190080
-0.524463 0.81693518 -0.18126854 4278190080
-0.52160823 0.81876087 -0.18126854 4278190080
-0.51874709 0.82057661 -0.18126854 4278190080
-0.51327145 0.81822455 -0.1803145 4278190080
-0.51041198 0.82001138 -0.1803145 4278190080
-0.50754654 0.82178801 -0.1803145 4278190080
-0.50467491 0.82355464 -0.1803145 4278190080
-0.49924728 0.82111746 -0.17936045 4278190080
-0.4962343 0.82294184 -0.17936045 4278190080
-0.49083892 0.82045704 -0.17840642 4278190080
-0.48797205 0.82216531 -0.17840642 4278190080
-0.48509923 0.82386363 -0.17840642 4278190080
-0.48222026 0.82555205 -0.17840642 4278190080
-0.47687492 0.82298356 -0.17745237 4278190080
-0.47399932 0.82464314 -0.17745237 4278190080
-0.46868685 0.82202882 -0.17649831 4278190080
-0.46325535 0.8194685 -0.17554426 4278190080
-0.46039209 0.82108051 -0.17554426 4278190080
-0.45513773 0.81839317 -0.17459023 4278190080
-0.45227826 0.81997687 -0.17459023 4278190080
-0.44941309 0.82155073 -0.17459023 4278190080
-0.44420218 0.81880027 -0.17363618 4278190080
-0.44134137 0.82034582 -0.17363618 4278190080
-0.43616492 0.81755096 -0.17268214 4278190080
-0.43330851 0.81906843 -0.17268214 4278190080
-0.43044662 0.82057607 -0.17268214 4278190080
-0.4253149 0.81771922 -0.17172809 4278190080
-0.42245796 0.81919885 -0.17172809 4278190080
-0.4195959 0.82066852 -0.17172809 4278190080
-0.41672873 0.82212812 -0.17172809 4278190080
-0.41385624 0.82357788 -0.17172809 4278190080
-0.40879047 0.82062423 -0.17077404 4278190080
-0.40592352 0.82204616 -0.17077404 4278190080
-0.40089387 0.81904966 -0.16982 4278190080
-0.39788911 0.82051361 -0.16982 4278190080
-0.3950226 0.82189745 -0.16982 4278190080
-0.3921513 0.82327133 -0.16982 4278190080
-0.38927519 0.82463515 -0.16982 4278190080
-0.38639435 0.82598889 -0.16982 4278190080
-0.38144442 0.82287979 -0.16886596 4278190080
-0.37856975 0.82420623 -0.16886596 4278190080
-0.37569046 0.82552266 -0.16886596 4278190080
-0.3707892 0.82235461 -0.16791192 4278190080
-0.36791644 0.82364392 -0.16791192 4278190080
-0.36305282 0.82043493 -0.16695787 4278190080
-0.36018679 0.82169718 -0.16695787 4278190080
-0.35731637 0.82294947 -0.16695787 4278190080
-0.35250258 0.81968284 -0.16600382 4278190080
-0.34963927 0.82090825 -0.16600382 4278190080
-0.34486395 0.8176015 -0.16504978 4278190080
-0.34200794 0.81880033 -0.16504978 4278190080
-0.33727184 0.81545359 -0.16409573 4278190080
-0.3342807 0.81668431 -0.16409573 4278190080
-0.33142793 0.81784618 -0.16409573 4278190080
-0.32842827 0.81905538 -0.16409573 4278190080
-0.32571036 0.82014 -0.16409573 4278190080
-0.32284558 0.8212719 -0.16409573 4278190080
-0.31997666 0.82239389 -0.16409573 4278190080
-0.31710407 0.82350582 -0.16409573 4278190080
-0.31422761 0.82460767 -0.16409573 4278190080
-0.30961561 0.82110703 -0.16314168 4278190080
-0.30674759 0.82218277 -0.16314168 4278190080
-0.302176 0.81864411 -0.16218764 4278190080
-0.29931659 0.81969386 -0.16218764 4278190080
-0.29478616 0.81611747 -0.16123359 4278190080
-0.29193562 0.81714147 -0.16123359 4278190080
-0.28744638 0.81352776 -0.16027956 4278190080
-0.28460473 0.81452626 -0.16027956 4278190080
-0.280157 0.81087565 -0.15932551 4278190080
-0.27732486 0.81184864 -0.15932551 4278190080
-0.27277777 0.80820924 -0.15837146 4278190080
-0.26995498 0.80915648 -0.15837146 4278190080
-0.26712888 0.81009388 -0.15837146 4278190080
-0.26429957 0.81102139 -0.15837146 4278190080
-0.26146701 0.811939 -0.15837146 4278190080
-0.25863105 0.81284678 -0.15837146 4278190080
-0.25432032 0.80906236 -0.15741742 4278190080
-0.25149465 0.80994517 -0.15741742 4278190080
-0.24722683 0.8061257 -0.15646337 4278190080
-0.24427049 0.80702645 -0.15646337 4278190080
-0.24145199 0.80787414 -0.15646337 4278190080
-0.23877162 0.8086704 -0.15646337 4278190080
-0.23580621 0.80954009 -0.15646337 4278190080
-0.23433495 0.8150754 -0.15741742 4278190080
-0.23148841 0.8158884 -0.15741742 4278190080
-0.22731587 0.81196505 -0.15646337 4278190080
-0.22448024 0.81275356 -0.15646337 4278190080
-0.22035171 0.80879664 -0.15550934 4278190080
-0.21752697 0.80956095 -0.15550934 4278190080
-0.21344273 0.8055709 -0.15455529 4278190080
-0.21048884 0.80634773 -0.15455529 4278190080
-0.20767272 0.80707765 -0.15455529 4278190080
-0.20485426 0.80779761 -0.15455529 4278190080
-0.20203331 0.80850774 -0.15455529 4278190080
-0.19920969 0.8092081 -0.15455529 4278190080
-0.19638407 0.8098985 -0.15455529 4278190080
-0.19355564 0.81057912 -0.15455529 4278190080
-0.19072527 0.81124973 -0.15455529 4278190080
-0.18789214 0.81191057 -0.15455529 4278190080
-0.18505673 0.81256157 -0.15455529 4278190080
-0.18221949 0.8132025 -0.15455529 4278190080
-0.1793796 0.81383365 -0.15455529 4278190080
-0.17653796 0.81445479 -0.15455529 4278190080
-0.17369373 0.8150661 -0.15455529 4278190080
-0.17070532 0.81569719 -0.15455529 4278190080
-0.16785678 0.81628817 -0.15455529 4278190080
-0.16500665 0.81686908 -0.15455529 4278190080
-0.16215406 0.81744009 -0.15455529 4278190080
-0.15929951 0.81800115 -0.15455529 4278190080
-0.15644343 0.8185522 -0.15455529 4278190080
-0.15344194 0.81912017 -0.15455529 4278190080
-0.14969514 0.81482339 -0.15360124 4278190080
-0.1468498 0.815341 -0.15360124 4278190080
-0.14400308 0.81584859 -0.15360124 4278190080
-0.14031793 0.81150991 -0.15264718 4278190080
-0.13748419 0.81199479 -0.15264718 4278190080
-0.13384676 0.80762762 -0.15169315 4278190080
-0.13102663 0.80808991 -0.15169315 4278190080
-0.12820533 0.80854231 -0.15169315 4278190080
-0.12538204 0.80898494 -0.15169315 4278190080
-0.12255722 0.80941772 -0.15169315 4278190080
-0.11973133 0.80984056 -0.15169315 4278190080
-0.11676243 0.81027395 -0.15169315 4278190080
-0.11393316 0.81067657 -0.15169315 4278190080
-0.11110251 0.81106937 -0.15169315 4278190080
-0.10827093 0.81145221 -0.15169315 4278190080
-0.1054376 0.81182522 -0.15169315 4278190080
-0.10246152 0.81220621 -0.15169315 4278190080
-0.099028297 0.80768728 -0.1507391 4278190080
-0.096208602 0.80802798 -0.1507391 4278190080
-0.093387298 0.80835897 -0.1507391 4278190080
-0.090565287 0.80867994 -0.1507391 4278190080
-0.08774174 0.80899119 -0.1507391 4278190080
-0.084404945 0.80441123 -0.14978506 4278190080
-0.081596769 0.80470091 -0.14978506 4278190080
-0.07878717 0.80498087 -0.14978506 4278190080
-0.075977035 0.80525094 -0.14978506 4278190080
-0.073165551 0.8055113 -0.14978506 4278190080
-0.070353173 0.80576175 -0.14978506 4278190080
-0.06754037 0.80600244 -0.14978506 4278190080
-0.064585462 0.80624461 -0.14978506 4278190080
-0.061771009 0.80646509 -0.14978506 4278190080
-0.058814872 0.80668604 -0.14978506 4278190080
-0.055998482 0.80688649 -0.14978506 4278190080
-0.05318141 0.80707705 -0.14978506 4278190080
-0.050364118 0.80725777 -0.14978506 4278190080
-0.047545783 0.80742866 -0.14978506 4278190080
-0.044727299 0.80758965 -0.14978506 4278190080
-0.041653536 0.80283934 -0.14883101 4278190080
-0.03885068 0.80297989 -0.14883101 4278190080
-0.036047775 0.8031106 -0.14883101 4278190080
-0.033103678 0.80323732 -0.14883101 4278190080
-0.0304849 0.80825263 -0.14978506 4278190080
-0.027663214 0.80835408 -0.14978506 4278190080
-0.024841622 0.80844575 -0.14978506 4278190080
-0.022019297 0.80852753 -0.14978506 4278190080
-0.019196702 0.80859947 -0.14978506 4278190080
-0.016374305 0.80866152 -0.14978506 4278190080
-0.013469045 0.8038063 -0.14883101 4278190080
-0.010663413 0.80384845 -0.14883101 4278190080
-0.0078572212 0.80388075 -0.14883101 4278190080
-0.0050509344 0.80390328 -0.14883101 4278190080
-0.0022450143 0.80391604 -0.14883101 4278190080
0.00056136132 0.80391896 -0.14883101 4278190080
0.003507748 0.80391151 -0.14883101 4278190080
0.0063140728 0.8038944 -0.14883101 4278190080
0.0091198925 0.80386746 -0.14883101 4278190080
0.011926029 0.80383068 -0.14883101 4278190080
0.014731592 0.80378419 -0.14883101 4278190080
0.017537404 0.80372787 -0.14883101 4278190080
0.020343002 0.80366176 -0.14883101 4278190080
0.023147926 0.80358583 -0.14883101 4278190080
0.025794543 0.79859459 -0.14787696 4278190080
0.028581746 0.7984997 -0.14787696 4278190080
0.031369027 0.79839504 -0.14787696 4278190080
0.034155924 0.79828066 -0.14787696 4278190080
0.036941979 0.79815656 -0.14787696 4278190080
0.039728012 0.79802275 -0.14787696 4278190080
0.042513136 0.79787922 -0.14787696 4278190080
0.045298163 0.79772598 -0.14787696 4278190080
0.048221551 0.79755461 -0.14787696 4278190080
0.051318727 0.80227953 -0.14883101 4278190080
0.054118637 0.80209553 -0.14883101 4278190080
0.056918312 0.8019017 -0.14883101 4278190080
0.059717298 0.80169815 -0.14883101 4278190080
0.062515125 0.80148482 -0.14883101 4278190080
0.065312617 0.80126166 -0.14883101 4278190080
0.068108894 0.80102885 -0.14883101 4278190080
0.071044661 0.8007738 -0.14883101 4278190080
0.073839188 0.80052096 -0.14883101 4278190080
0.076165386 0.79537255 -0.14787696 4278190080
0.078941457 0.79510182 -0.14787696 4278190080
0.08171615 0.79482144 -0.14787696 4278190080
0.084490262 0.79453135 -0.14787696 4278190080
0.087262928 0.79423159 -0.14787696 4278190080
0.090588011 0.79879898 -0.14883101 4278190080
0.093375959 0.79847789 -0.14883101 4278190080
0.096162342 0.79814714 -0.14883101 4278190080
0.099552087 0.80267739 -0.14978506 4278190080
0.10249326 0.80230713 -0.14978506 4278190080
0.10529338 0.80194443 -0.14978506 4278190080
0.10809179 0.80157208 -0.14978506 4278190080
0.11088931 0.80118984 -0.14978506 4278190080
0.11368505 0.80079794 -0.14978506 4278190080
0.11647984 0.8003962 -0.14978506 4278190080
0.1192732 0.79998469 -0.14978506 4278190080
0.12206469 0.79956353 -0.14978506 4278190080
0.12561275 0.80398184 -0.1507391 4278190080
0.12855853 0.80351609 -0.1507391 4278190080
0.13136272 0.80306238 -0.1507391 4278190080
0.13416487 0.80259901 -0.1507391 4278190080
0.13696581 0.80212575 -0.1507391 4278190080
0.13892208 0.79680753 -0.14978506 4278190080
0.14170237 0.79631782 -0.14978506 4278190080
0.14448133 0.79581827 -0.14978506 4278190080
0.14725813 0.79530913 -0.14978506 4278190080
0.1501724 0.79476404 -0.14978506 4278190080
0.15294547 0.79423505 -0.14978506 4278190080
0.1557171 0.79369628 -0.14978506 4278190080
0.15848643 0.79314792 -0.14978506 4278190080
0.16223276 0.79739946 -0.1507391 4278190080
0.16501538 0.79682827 -0.1507391 4278190080
0.16779557 0.79624748 -0.1507391 4278190080
0.17160298 0.80045593 -0.15169315 4278190080
0.17439578 0.79985213 -0.15169315 4278190080
0.17718689 0.79923844 -0.15169315 4278190080
0.17997585 0.79861504 -0.15169315 4278190080
0.18276219 0.79798198 -0.15169315 4278190080
0.18568559 0.79730684 -0.15169315 4278190080
0.18846776 0.79665375 -0.15169315 4278190080
0.19239423 0.80076331 -0.15264718 4278190080
0.19518799 0.80008692 -0.15264718 4278190080
0.19679989 0.79463643 -0.15169315 4278190080
0.19957224 0.79394472 -0.15169315 4278190080
0.20234257 0.79324323 -0.15169315 4278190080
0.20511045 0.79253203 -0.15169315 4278190080
0.20801371 0.79177493 -0.15169315 4278190080
0.21077643 0.791044 -0.15169315 4278190080
0.21481639 0.79504168 -0.15264718 4278190080
0.21759047 0.79428697 -0.15264718 4278190080
0.22036147 0.79352266 -0.15264718 4278190080
0.22313021 0.79274857 -0.15264718 4278190080
0.22589622 0.79196483 -0.15264718 4278190080
0.23002183 0.79588675 -0.15360124 4278190080
0.23279876 0.79507893 -0.15360124 4278190080
0.23557243 0.79426157 -0.15360124 4278190080
0.23834366 0.79343438 -0.15360124 4278190080
0.24111198 0.79259753 -0.15360124 4278190080
0.24401525 0.79170847 -0.15360124 4278190080
0.24677709 0.79085195 -0.15360124 4278190080
0.24953635 0.78998572 -0.15360124 4278190080
0.25229257 0.78910977 -0.15360124 4278190080
0.25504526 0.7882244 -0.15360124 4278190080
0.2577953 0.78732926 -0.15360124 4278190080
0.26222354 0.79103798 -0.15455529 4278190080
0.26498336 0.79011774 -0.15455529 4278190080
0.2677395 0.78918809 -0.15455529 4278190080
0.27049282 0.7882486 -0.15455529 4278190080
0.2748521 0.7919364 -0.15550934 4278190080
0.27761456 0.79097223 -0.15550934 4278190080
0.28037405 0.78999829 -0.15550934 4278190080
0.28312969 0.78901488 -0.15550934 4278190080
0.28769463 0.79258537 -0.15646337 4278190080
0.29045925 0.79157639 -0.15646337 4278190080
0.2949276 0.7951594 -0.15741742 4278190080
0.29770118 0.79412514 -0.15741742 4278190080
0.30047154 0.7930811 -0.15741742 4278190080
0.30323824 0.79202735 -0.15741742 4278190080
0.30600083 0.79096413 -0.15741742 4278190080
0.30876014 0.78989106 -0.15741742 4278190080
0.31151521 0.78880858 -0.15741742 4278190080
0.31440458 0.78766143 -0.15741742 4278190080
0.31715184 0.78655922 -0.15741742 4278190080
0.31989568 0.7854473 -0.15741742 4278190080
0.32450238 0.78886509 -0.15837146 4278190080
0.32725424 0.78772748 -0.15837146 4278190080
0.33190089 0.79110622 -0.15932551 4278190080
0.33466011 0.78994298 -0.15932551 4278190080
0.33934602 0.79328251 -0.16027956 4278190080
0.34211278 0.79209322 -0.16027956 4278190080
0.34487578 0.79089415 -0.16027956 4278190080
0.34763458 0.78968543 -0.16027956 4278190080
0.35038874 0.78846723 -0.16027956 4278190080
0.35514787 0.79171747 -0.16123359 4278190080
0.35790905 0.7904731 -0.16123359 4278190080
0.36270633 0.79368293 -0.16218764 4278190080
0.36561278 0.79234827 -0.16218764 4278190080
0.37044847 0.79551649 -0.16314168 4278190080
0.37531072 0.79866058 -0.16409573 4278190080
0.38019899 0.80178058 -0.16504978 4278190080
0.38723242 0.80930334 -0.16695787 4278190080
0.39432251 0.81678683 -0.16886596 4278190080
0.39932066 0.81981784 -0.16982 4278190080
0.40434477 0.82282388 -0.17077404 4278190080
0.40721422 0.82140756 -0.17077404 4278190080
0.41022199 0.81990957 -0.17077404 4278190080
0.41308168 0.81847256 -0.17077404 4278190080
0.41816306 0.82139951 -0.17172809 4278190080
0.42102748 0.81993496 -0.17172809 4278190080
0.42614439 0.82281852 -0.17268214 4278190080
0.4290137 0.82132614 -0.17268214 4278190080
0.43416581 0.82416594 -0.17363618 4278190080
0.43718347 0.82256919 -0.17363618 4278190080
0.4400523 0.82103801 -0.17363618 4278190080
0.44524941 0.82381469 -0.17459023 4278190080
0.44812208 0.82225561 -0.17459023 4278190080
0.45098975 0.82068628 -0.17459023 4278190080
0.45623022 0.82340032 -0.17554426 4278190080
0.45910183 0.82180268 -0.17554426 4278190080
0.46437651 0.82447147 -0.17649831 4278190080
0.46725136 0.82284558 -0.17649831 4278190080
0.47255945 0.82546908 -0.17745237 4278190080
0.47558165 0.82373154 -0.17745237 4278190080
0.47845429 0.82206637 -0.17745237 4278190080
0.48132065 0.82039142 -0.17745237 4278190080
0.48668003 0.82293081 -0.17840642 4278190080
0.48954937 0.82122713 -0.17840642 4278190080
0.49241319 0.81951314 -0.17840642 4278190080
0.495271 0.8177892 -0.17840642 4278190080
0.50082278 0.82015741 -0.17936045 4278190080
0.50368237 0.81840438 -0.17936045 4278190080
0.50912333 0.82081205 -0.1803145 4278190080
0.5119856 0.81902975 -0.1803145 4278190080
0.51484114 0.81723779 -0.1803145 4278190080
0.5176909 0.81543559 -0.1803145 4278190080
0.52317894 0.81775808 -0.18126854 4278190080
0.526173 0.81583488 -0.18126854 4278190080
0.53169191 0.81810874 -0.18222259 4278190080
0.53723353 0.82035369 -0.18317664 4278190080
0.54009396 0.81847328 -0.18317664 4278190080
0.54566497 0.82067031 -0.18413067 4278190080
0.54852653 0.81876051 -0.18413067 4278190080
0.55412692 0.82090902 -0.18508472 4278190080
0.55698925 0.81896967 -0.18508472 4278190080
0.56276208 0.82097107 -0.18603876 4278190080
0.56562454 0.81900156 -0.18603876 4278190080
0.56847972 0.81702232 -0.18603876 4278190080
0.57132834 0.8150329 -0.18603876 4278190080
0.57417005 0.81303346 -0.18603876 4278190080
0.5798496 0.81502378 -0.18699281 4278190080
0.58283323 0.81289279 -0.18699281 4278190080
0.58854073 0.81483239 -0.18794686 4278190080
0.59441161 0.81663811 -0.1889009 4278190080
0.60001796 0.81862116 -0.18985495 4278190080
0.60287201 0.81652158 -0.18985495 4278190080
0.60864782 0.81835037 -0.190809 4278190080
0.61150044 0.816221 -0.190809 4278190080
0.61434603 0.81408137 -0.190809 4278190080
0.61718369 0.81193209 -0.190809 4278190080
0.62299806 0.81366968 -0.19176304 4278190080
0.6258347 0.81148994 -0.19176304 4278190080
0.62866324 0.8093006 -0.19176304 4278190080
0.63450903 0.81096661 -0.19271709 4278190080
0.64037365 0.81260204 -0.19367112 4278190080
0.64320642 0.81036162 -0.19367112 4278190080
0.64909613 0.81194502 -0.19462517 4278190080
0.65514636 0.81338298 -0.19557922 4278190080
0.66107345 0.81490302 -0.19653326 4278190080
0.66391414 0.8125903 -0.19653326 4278190080
0.66986537 0.81405771 -0.19748731 4278190080
0.67270261 0.81171465 -0.19748731 4278190080
0.67867714 0.81312948 -0.19844134 4278190080
0.6815111 0.81075573 -0.19844134 4278190080
0.6843372 0.80837172 -0.19844134 4278190080
0.69033927 0.80971283 -0.19939539 4278190080
0.69316125 0.80729842 -0.19939539 4278190080
0.69597518 0.80487376 -0.19939539 4278190080
0.69892037 0.80231756 -0.19939539 4278190080
0.7017169 0.79987282 -0.19939539 4278190080
0.70125479 0.79374051 -0.19844134 4278190080
0.70075887 0.78762078 -0.19748731 4278190080
0.70350367 0.78517014 -0.19748731 4278190080
0.7062403 0.78270948 -0.19748731 4278190080
0.70896834 0.78023934 -0.19748731 4278190080
0.71513718 0.78125608 -0.19844134 4278190080
0.7211867 0.78236371 -0.19939539 4278190080
0.72391301 0.77984172 -0.19939539 4278190080
0.72998261 0.78089541 -0.20034944 4278190080
0.73270375 0.77834278 -0.20034944 4278190080
0.73879308 0.77934223 -0.20130348 4278190080
0.74150914 0.77675849 -0.20130348 4278190080
0.74421579 0.77416563 -0.20130348 4278190080
0.75032753 0.77508938 -0.20225753 4278190080
0.75302827 0.77246577 -0.20225753 4278190080
0.75915855 0.77333492 -0.20321156 4278190080
0.76185358 0.77068007 -0.20321156 4278190080
0.76813632 0.77136052 -0.20416561 4278190080
0.77082396 0.76867473 -0.20416561 4278190080
0.77699006 0.76943278 -0.20511965 4278190080
0.78317082 0.7701571 -0.2060737 4278190080
0.78936571 0.77084804 -0.20702775 4278190080
0.79557538 0.7715047 -0.20798181 4278190080
0.8090055 0.77879548 -0.21084395 4278190080
0.81881487 0.78274977 -0.21275203 4278190080
0.83934015 0.79678285 -0.21752225 4278190080
0.84925938 0.80058134 -0.21943034 4278190080
0.8592152 0.80432028 -0.22133842 4278190080
0.85842246 0.79797477 -0.22038439 4278190080
1.1150914 0.81821716 -0.26140833 4278190080
1.1179404 0.81432015 -0.26140833 4278190080
1.1128217 0.8046608 -0.25950024 4278190080
1.1196108 0.80363381 -0.26045427 4278190080
1.1184121 0.79687238 -0.25950024 4278190080
1.1211871 0.79296333 -0.25950024 4278190080
1.1199309 0.78622508 -0.2585462 4278190080
1.1186417 0.77950472 -0.25759214 4278190080
1.117319 0.77280354 -0.25663811 4278190080
1.1159635 0.76612049 -0.25568405 4278190080
1.1187638 0.7620253 -0.25568405 4278190080
1.1254834 0.76086414 -0.25663811 4278190080
1.1281326 0.75693059 -0.25663811 4278190080
1.1389382 0.75842917 -0.2585462 4278190080
1.1456735 0.75715482 -0.25950024 4278190080
1.1524134 0.75584322 -0.26045427 4278190080
1.1591585 0.75449318 -0.26140833 4278190080
1.165908 0.75310522 -0.26236236 4278190080
1.1767937 0.75432861 -0.26427045 4278190080
1.1835611 0.75285023 -0.26522449 4278190080
1.1944826 0.75395417 -0.26713258 4278190080
1.2012669 0.75238508 -0.26808664 4278190080
1.2122233 0.7533685 -0.26999474 4278190080
1.2190231 0.75170898 -0.27094877 4278190080
1.2301443 0.75235784 -0.27285686 4278190080
1.2369591 0.75060523 -0.27381089 4278190080
1.2479817 0.75134569 -0.27571899 4278190080
1.2548101 0.74950206 -0.27667302 4278190080
1.2658638 0.75012141 -0.27858111 4278190080
1.2727054 0.74818593 -0.27953517 4278190080
1.2837893 0.74868375 -0.28144327 4278190080
1.2948918 0.7491132 -0.28335136 4278190080
1.3060125 0.74947488 -0.28525946 4278190080
1.3171519 0.7497673 -0.28716755 4278190080
1.3240347 0.74757862 -0.28812158 4278190080
1.335201 0.74774849 -0.29002967 4278190080
1.3422236 0.7452324 -0.29098371 4278190080
1.3491163 0.74290985 -0.29193777 4278190080
1.3560088 0.74054897 -0.2928918 4278190080
1.3672172 0.74048567 -0.29479989 4278190080
1.3741177 0.73803073 -0.29575393 4278190080
1.3896813 0.74015188 -0.29861605 4278190080
1.4009367 0.73988044 -0.30052415 4278190080
1.4122066 0.7395401 -0.30243224 4278190080
1.4278475 0.74139106 -0.30529436 4278190080
1.4391546 0.74089527 -0.30720249 4278190080
1.4504751 0.74033022 -0.30911058 4278190080
1.4618094 0.73969436 -0.31101868 4278190080
1.4731565 0.73898906 -0.31292674 4278190080
1.4845167 0.73821276 -0.31483483 4278190080
1.4958893 0.73736614 -0.31674293 4278190080
1.5072737 0.73644978 -0.31865102 4278190080
1.5187986 0.73519683 -0.32055911 4278190080
1.5302058 0.7341373 -0.32246718 4278190080
1.5416244 0.7330063 -0.32437527 4278190080
1.5530533 0.73180526 -0.32628337 4278190080
1.56894 0.73260909 -0.32914549 4278190080
1.5803969 0.73124981 -0.33105361 4278190080
1.5963243 0.73186576 -0.33391574 4278190080
1.6078068 0.73034859 -0.33582383 4278190080
1.6237733 0.73077524 -0.33868596 4278190080
1.63528 0.72909975 -0.34059405 4278190080
1.6424313 0.72508371 -0.34154809 4278190080
1.6494493 0.72131234 -0.34250215 4278190080
1.6609645 0.71945244 -0.34441024 4278190080
1.6679765 0.71558499 -0.34536427 4278190080
1.6794989 0.71359658 -0.34727237 4278190080
1.7000751 0.71534449 -0.35108852 4278190080
1.7161537 0.71506864 -0.35395068 4278190080
1.7322507 0.71469015 -0.35681283 4278190080
1.7529095 0.71606308 -0.36062899 4278190080
1.7690488 0.71546018 -0.36349112 4278190080
1.7852048 0.71475416 -0.36635327 4278190080
1.8013775 0.71394312 -0.3692154 4278190080
1.8176904 0.71271116 -0.37207752 4278190080
1.8338943 0.71168864 -0.37493965 4278190080
1.8546945 0.71232229 -0.37875587 4278190080
1.8709337 0.71107459 -0.38161799 4278190080
1.8917805 0.71144986 -0.38543418 4278190080
1.9080521 0.70997745 -0.38829628 4278190080
1.9243368 0.70839912 -0.39115843 4278190080
1.945245 0.7083962 -0.39497462 4278190080
1.9616827 0.70624876 -0.39783677 4278190080
1.9826307 0.70598328 -0.40165293 4278190080
2.0036011 0.70557904 -0.40546912 4278190080
2.0199568 0.70342386 -0.40833122 4278190080
2.0409629 0.70275986 -0.4121474 4278190080
2.0619891 0.70195782 -0.41596362 4278190080
2.0783818 0.699453 -0.41882575 4278190080
2.0994396 0.69839036 -0.4226419 4278190080
2.1205149 0.69719028 -0.42645809 4278190080
2.1416073 0.69585037 -0.43027425 4278190080
2.1627162 0.69437164 -0.43409044 4278190080
2.1885185 0.6942392 -0.43886068 4278190080
2.2096629 0.69246608 -0.44267684 4278190080
2.2355096 0.69200635 -0.44744709 4278190080
2.26138 0.69137323 -0.45221731 4278190080
2.2872729 0.69056791 -0.45698753 4278190080
2.3133075 0.68918717 -0.46175775 4278190080
2.3345339 0.68664861 -0.46557397 4278190080
2.3651977 0.68670589 -0.47129822 4278190080
2.3864534 0.68385327 -0.47511441 4278190080
2.3888257 0.67551959 -0.47511441 4278190080
2.2871628 0.63815689 -0.45412537 4278190080
2.2136619 0.60932904 -0.43886068 4278190080
2.1684091 0.58873743 -0.42932025 4278190080
2.16571 0.57989472 -0.42836618 4278190080
2.1724663 0.57358509 -0.42932025 4278190080
2.1697054 0.5647614 -0.42836618 4278190080
2.1716635 0.55718499 -0.42836618 4278190080
2.1688371 0.54839748 -0.42741215 4278190080
2.1659756 0.53963643 -0.42645809 4278190080
2.1678457 0.5320732 -0.42645809 4278190080
2.1649194 0.52334905 -0.42550406 4278190080
2.161958 0.51465291 -0.42455 4278190080
2.1637414 0.50710267 -0.42455 4278190080
2.1702812 0.50064951 -0.42550406 4278190080
2.1768017 0.494158 -0.42645809 4278190080
2.1833887 0.48724452 -0.42741215 4278190080
2.1898699 0.48067304 -0.42836618 4278190080
2.1963325 0.47406113 -0.42932025 4278190080
2.2027748 0.46741107 -0.43027425 4278190080
2.2091978 0.46072069 -0.43122834 4278190080
2.2156007 0.45399106 -0.43218234 4278190080
2.2172499 0.44586778 -0.43218234 4278190080
2.2380531 0.44192934 -0.43599853 4278190080
2.3504066 0.45559576 -0.45794156 4278190080
2.482168 0.47215158 -0.48370078 4278190080
2.4452021 0.45628244 -0.47606841 4278190080
2.4322963 0.44509336 -0.47320631 4278190080
2.4434969 0.43833438 -0.47511441 4278190080
2.4401782 0.42895204 -0.47416034 4278190080
2.4416606 0.42043108 -0.47416034 4278190080
2.4382737 0.41109034 -0.47320631 4278190080
2.4396937 0.40257615 -0.47320631 4278190080
2.4362385 0.39327615 -0.47225225 4278190080
2.4375966 0.38476917 -0.47225225 4278190080
2.4340742 0.3755092 -0.47129822 4278190080
2.43537 0.36701119 -0.47129822 4278190080
2.4366364 0.35850739 -0.47129822 4278190080
2.4378729 0.35000056 -0.47129822 4278190080
2.4342189 0.34080759 -0.47034416 4278190080
2.4353938 0.33230799 -0.47034416 4278190080
2.4365389 0.32380563 -0.47034416 4278190080
2.4376545 0.31529802 -0.47034416 4278190080
2.43874 0.30678788 -0.47034416 4278190080
2.4349244 0.29767713 -0.46939012 4278190080
2.4359486 0.2891753 -0.46939012 4278190080
2.4369922 0.28024554 -0.46939012 4278190080
2.4379556 0.27173662 -0.46939012 4278190080
2.4340093 0.26269901 -0.46843606 4278190080
2.4349115 0.25420061 -0.46843606 4278190080
2.4309008 0.24520783 -0.46748206 4278190080
2.431742 0.2367204 -0.46748206 4278190080
2.4276667 0.22777158 -0.46652797 4278190080
2.4284468 0.21929683 -0.46652797 4278190080
2.4291975 0.21081811 -0.46652797 4278190080
2.4299188 0.20233813 -0.46652797 4278190080
2.4306102 0.19385438 -0.46652797 4278190080
2.431272 0.18536825 -0.46652797 4278190080
2.4319043 0.17688118 -0.46652797 4278190080
2.432507 0.16839066 -0.46652797 4278190080
2.43308 0.15989938 -0.46652797 4278190080
2.4287248 0.1511001 -0.46557397 4278190080
2.4292374 0.14262083 -0.46557397 4278190080
2.4297204 0.13414112 -0.46557397 4278190080
2.4301956 0.1252352 -0.46557397 4278190080
2.430618 0.11675096 -0.46557397 4278190080
2.4310107 0.10826529 -0.46557397 4278190080
2.4313738 0.099779591 -0.46557397 4278190080
2.4317074 0.09129139 -0.46557397 4278190080
2.4320111 0.082803369 -0.46557397 4278190080
2.4322853 0.074313037 -0.46557397 4278190080
2.4325299 0.065821812 -0.46557397 4278190080
2.4278381 0.057215434 -0.4646199 4278190080
2.4280231 0.048739832 -0.4646199 4278190080
2.4281783 0.040264927 -0.4646199 4278190080
2.4283042 0.031788241 -0.4646199 4278190080
2.4284003 0.023311168 -0.4646199 4278190080
2.4284668 0.014835102 -0.4646199 4278190080
2.4285038 0.0063575641 -0.4646199 4278190080
2.4285111 -0.0021192764 -0.4646199 4278190080
2.4235809 -0.010574933 -0.46366581 4278190080
2.4235291 -0.019034743 -0.46366581 4278190080
2.4234478 -0.027494323 -0.46366581 4278190080
2.4233372 -0.03595357 -0.46366581 4278190080
2.423197 -0.044412374 -0.46366581 4278190080
2.423027 -0.052870639 -0.46366581 4278190080
2.422817 -0.061751124 -0.46366581 4278190080
2.4225867 -0.070207953 -0.46366581 4278190080
2.422327 -0.078663938 -0.46366581 4278190080
2.4220376 -0.087118953 -0.46366581 4278190080
2.4217188 -0.095572911 -0.46366581 4278190080
2.4213703 -0.10402571 -0.46366581 4278190080
2.4209926 -0.11247724 -0.46366581 4278190080
2.4205852 -0.12092739 -0.46366581 4278190080
2.4201484 -0.12937607 -0.46366581 4278190080
2.419682 -0.13782318 -0.46366581 4278190080
2.4142871 -0.1459724 -0.46271181 4278190080
2.4137628 -0.15439895 -0.46271181 4278190080
2.4132092 -0.1628236 -0.46271181 4278190080
2.412626 -0.17124628 -0.46271181 4278190080
2.416908 -0.18003146 -0.46366581 4278190080
2.4162648 -0.18846695 -0.46366581 4278190080
2.4155922 -0.19690013 -0.46366581 4278190080
2.4148903 -0.20533094 -0.46366581 4278190080
2.4141588 -0.21375921 -0.46366581 4278190080
2.413398 -0.22218491 -0.46366581 4278190080
2.4126077 -0.23060788 -0.46366581 4278190080
2.411788 -0.23902804 -0.46366581 4278190080
2.4158216 -0.24794643 -0.4646199 4278190080
2.4149413 -0.2563777 -0.4646199 4278190080
2.4139855 -0.26522717 -0.4646199 4278190080
2.4130449 -0.27365193 -0.4646199 4278190080
2.41695 -0.28264347 -0.46557397 4278190080
2.4159486 -0.29107848 -0.46557397 4278190080
2.4149179 -0.29950994 -0.46557397 4278190080
2.4138577 -0.30793777 -0.46557397 4278190080
2.4127681 -0.31636181 -0.46557397 4278190080
2.411649 -0.32478201 -0.46557397 4278190080
2.4105008 -0.33319828 -0.46557397 4278190080
2.409323 -0.34161043 -0.46557397 4278190080
2.4129727 -0.35072446 -0.46652797 4278190080
2.4117339 -0.35914516 -0.46652797 4278190080
2.4104655 -0.36756149 -0.46652797 4278190080
2.4486063 -0.37993953 -0.38596693 4278190080
2.4521425 -0.38925871 -0.38674822 4278190080
2.4507687 -0.39781591 -0.38674822 4278190080
2.4493651 -0.40636826 -0.38674822 4278190080
2.452801 -0.41574097 -0.38752955 4278190080
2.451335 -0.42430031 -0.38752955 4278190080
2.4498389 -0.4328545 -0.38752955 4278190080
2.448313 -0.44140339 -0.38752955 4278190080
2.4516144 -0.45084009 -0.38831082 4278190080
2.4500256 -0.45939505 -0.38831082 4278190080
2.4484072 -0.46794444 -0.38831082 4278190080
2.4467587 -0.47648814 -0.38831082 4278190080
2.4450805 -0.48502603 -0.38831082 4278190080
2.4482136 -0.49453583 -0.38909215 4278190080
2.4463847 -0.50350571 -0.38909215 4278190080
2.4447014 -0.5116154 -0.38909215 4278190080
2.4477308 -0.52117437 -0.38987345 4278190080
2.4458966 -0.52971536 -0.38987345 4278190080
2.4488559 -0.53931206 -0.39065477 4278190080
2.4469583 -0.54785687 -0.39065477 4278190080
2.4450312 -0.55639505 -0.39065477 4278190080
2.443074 -0.56492645 -0.39065477 4278190080
2.4409871 -0.57387692 -0.39065477 4278190080
2.4389689 -0.58239406 -0.39065477 4278190080
2.441824 -0.59164166 -0.39143607 4278190080
2.4397438 -0.60016161 -0.39143607 4278190080
2.4423192 -0.61029696 -0.3922174 4278190080
2.4401739 -0.61881852 -0.3922174 4278190080
2.4379988 -0.62733263 -0.3922174 4278190080
2.4405725 -0.63708633 -0.3929987 4278190080
2.4383337 -0.64560163 -0.3929987 4278190080
2.4360654 -0.65410906 -0.3929987 4278190080
2.4385326 -0.66390586 -0.39378002 4278190080
2.4362001 -0.67241395 -0.39378002 4278190080
2.4338381 -0.68091375 -0.39378002 4278190080
2.4361978 -0.69075239 -0.39456129 4278190080
2.4337716 -0.69925213 -0.39456129 4278190080
2.4313161 -0.70774329 -0.39456129 4278190080
2.4288309 -0.71622586 -0.39456129 4278190080
2.4263158 -0.72469968 -0.39456129 4278190080
2.4284985 -0.73459464 -0.39534262 4278190080
2.4259195 -0.7430672 -0.39534262 4278190080
2.4280279 -0.75299352 -0.39612392 4278190080
2.4300966 -0.76294369 -0.39690524 4278190080
2.4274185 -0.77142161 -0.39690524 4278190080
2.4294124 -0.78140235 -0.39768654 4278190080
2.4266698 -0.78987783 -0.39768654 4278190080
2.423898 -0.79834366 -0.39768654 4278190080
2.4257817 -0.80836111 -0.39846787 4278190080
2.4229453 -0.81682372 -0.39846787 4278190080
2.4247534 -0.82687038 -0.39924917 4278190080
2.4218524 -0.83532935 -0.39924917 4278190080
2.4235849 -0.84540468 -0.40003049 4278190080
2.4252765 -0.85550231 -0.40081182 4278190080
2.4222755 -0.86396283 -0.40081182 4278190080
2.4238906 -0.87408823 -0.40159309 4278190080
2.4254646 -0.88423544 -0.40237442 4278190080
2.4223633 -0.89269644 -0.40237442 4278190080
2.4238603 -0.90287048 -0.40315571 4278190080
2.4206939 -0.91132581 -0.40315571 4278190080
2.4174981 -0.91977006 -0.40315571 4278190080
2.4188824 -0.92997545 -0.40393704 4278190080
2.4156215 -0.9384132 -0.40393704 4278190080
2.4170935 -0.9482221 -0.40471834 4278190080
2.4183602 -0.95847321 -0.40549967 4278190080
2.4195845 -0.96874458 -0.40628096 4278190080
2.4160175 -0.9776063 -0.40628096 4278190080
2.4171619 -0.98790222 -0.40706229 4278190080
2.4182637 -0.998218 -0.40784356 4278190080
2.419323 -1.0085535 -0.40862489 4278190080
2.4157877 -1.0169924 -0.40862489 4278190080
2.4167678 -1.0273509 -0.40940619 4278190080
2.413167 -1.0357807 -0.40940619 4278190080
2.4095368 -1.0441979 -0.40940619 4278190080
2.4104018 -1.0545819 -0.41018751 4278190080
2.4068913 -1.0625694 -0.41018751 4278190080
2.4076786 -1.0729748 -0.41096881 4278190080
2.4084225 -1.0833986 -0.41175014 4278190080
2.4046259 -1.091799 -0.41175014 4278190080
2.4052896 -1.1022434 -0.41253144 4278190080
2.4012337 -1.1110518 -0.41253144 4278190080
2.4020114 -1.1210972 -0.41331276 4278190080
2.4025512 -1.1315792 -0.41409403 4278190080
2.4030471 -1.1420788 -0.41487536 4278190080
2.4034986 -1.1525954 -0.41565666 4278190080
2.4039063 -1.1631291 -0.41643798 4278190080
2.4042695 -1.1736797 -0.41721928 4278190080
2.4045885 -1.184247 -0.41800061 4278190080
2.40044 -1.1926334 -0.41800061 4278190080
2.4006774 -1.203218 -0.41878191 4278190080
2.3964627 -1.2115905 -0.41878191 4278190080
2.3966186 -1.222192 -0.41956323 4278190080
2.3923376 -1.2305504 -0.41956323 4278190080
2.3924115 -1.241168 -0.42034456 4278190080
2.3924401 -1.251801 -0.42112583 4278190080
2.3924239 -1.2624494 -0.42190716 4278190080
2.3967218 -1.2754329 -0.42346978 4278190080
2.3966067 -1.2861265 -0.42425108 4278190080
2.396446 -1.2968348 -0.42503241 4278190080
2.3962398 -1.3075577 -0.4258137 4278190080
2.395988 -1.3182949 -0.42659503 4278190080
2.39569 -1.3290461 -0.4273763 4278190080
2.3910363 -1.3374004 -0.4273763 4278190080
2.390655 -1.3481646 -0.42815763 4278190080
2.3902276 -1.3589422 -0.42893893 4278190080
2.3897543 -1.3697331 -0.42972025 4278190080
2.3892343 -1.3805374 -0.43050155 4278190080
2.3886683 -1.3913547 -0.43128288 4278190080
2.3880558 -1.4021847 -0.43206418 4278190080
2.3873966 -1.4130275 -0.4328455 4278190080
2.3866909 -1.4238826 -0.43362677 4278190080
2.3859384 -1.4347502 -0.4344081 4278190080
2.385139 -1.4456296 -0.4351894 4278190080
2.3842926 -1.4565212 -0.43597072 4278190080
2.3833992 -1.4674242 -0.43675202 4278190080
2.3824589 -1.4783387 -0.43753335 4278190080
2.3814712 -1.4892645 -0.43831462 4278190080
2.3804364 -1.5002016 -0.43909594 4278190080
2.379354 -1.5111492 -0.43987724 4278190080
2.3782241 -1.5221077 -0.44065857 4278190080
2.3770471 -1.5330769 -0.4414399 4278190080
2.3758218 -1.5440561 -0.44222119 4278190080
2.3745492 -1.5550456 -0.44300252 4278190080
2.3735018 -1.5656306 -0.44378382 4278190080
2.3721354 -1.5766398 -0.44456515 4278190080
2.3707206 -1.5876585 -0.44534642 4278190080
2.368979 -1.5991 -0.44612774 4278190080
2.3718314 -1.6125002 -0.44769037 4278190080
2.3702626 -1.6235604 -0.44847167 4278190080
2.3686457 -1.6346295 -0.44925299 4278190080
2.3710349 -1.6485261 -0.45081562 4278190080
2.3693109 -1.6596256 -0.45159689 4278190080
2.3675385 -1.6707336 -0.45237821 4278190080
2.3697422 -1.6847106 -0.45394084 4278190080
2.367862 -1.6958479 -0.45472214 4278190080
2.3699379 -1.709882 -0.45628476 4278190080
2.36795 -1.7210478 -0.45706609 4278190080
2.3659124 -1.7322203 -0.45784736 4278190080
2.363826 -1.7433999 -0.45862868 4278190080
2.3656547 -1.7575309 -0.46019131 4278190080
2.3515973 -1.7598599 -0.45862868 4278190080
2.3612144 -1.7799488 -0.46175393 4278190080
0.87757885 -0.69556046 -0.1711068 4278190080
0.84426874 -0.67397082 -0.1648563 4278190080
2.3383315 -1.9900762 -0.47972405 4278190080
2.3393352 -2.0192599 -0.4828493 4278190080
2.3248181 -2.0209336 -0.48128667 4278190080
2.3251812 -2.0355422 -0.4828493 4278190080
2.3365841 -2.0599761 -0.48675585 4278190080
2.3293793 -2.0681198 -0.48675585 4278190080
2.3515851 -2.1173768 -0.49456894 4278190080
0.80874223 -0.89160568 -0.18438904 4278190080
2.1112025 -2.4099092 -0.50081939 4278190080
2.0749571 -2.4021652 -0.49613157 4278190080
2.0569136 -2.3981478 -0.49378762 4278190080
2.0325196 -2.3865142 -0.4898811 4278190080
2.0177989 -2.3860526 -0.48831847 4278190080
2.0062819 -2.3892994 -0.48753715 4278190080
1.994767 -2.3924949 -0.48675585 4278190080
1.9801048 -2.3918352 -0.48519322 4278190080
1.965889 -2.390759 -0.48363063 4278190080
1.951285 -2.3899558 -0.482068 4278190080
1.9367107 -2.3890798 -0.48050538 4278190080
1.9217495 -2.3884666 -0.47894272 4278190080
1.9076523 -2.38711 -0.4773801 4278190080
1.8900993 -2.3821485 -0.4750362 4278190080
1.876076 -2.3806453 -0.47347358 4278190080
0.46236598 -0.60848284 -0.1148525 4278190080
0.5494644 -0.72837013 -0.13829179 4278190080
0.51435429 -0.68680149 -0.12969738 4278190080
0.45596874 -0.61329126 -0.1148525 4278190080
0.46262339 -0.6267997 -0.11719643 4278190080
1.7367278 -2.4053769 -0.46331656 4278190080
1.7168131 -2.3953683 -0.46019131 4278190080
1.7027154 -2.3932984 -0.45862868 4278190080
1.6829553 -2.3830912 -0.45550346 4278190080
1.6693726 -2.3805721 -0.45394084 4278190080
1.6554099 -2.378278 -0.45237821 4278190080
1.6414838 -2.3759158 -0.45081562 4278190080
1.6275942 -2.3734853 -0.44925299 4278190080
1.6165206 -2.3750694 -0.44847167 4278190080
1.6026913 -2.3725131 -0.44690904 4278190080
1.5916498 -2.373991 -0.44612774 4278190080
1.5806173 -2.3754208 -0.44534642 4278190080
1.566873 -2.3726816 -0.44378382 4278190080
1.5558743 -2.3740063 -0.44300252 4278190080
1.5399131 -2.366734 -0.44065857 4278190080
1.5316422 -2.3720949 -0.44065857 4278190080
0.59873289 -0.96377838 -0.17345072 4278190080
0.54871958 -0.89018935 -0.15938714 4278190080
0.52241838 -0.85418153 -0.15235536 4278190080
1.4092422 -2.378159 -0.43128288 4278190080
1.3934237 -2.3702915 -0.42893893 4278190080
1.3826535 -2.3708751 -0.42815763 4278190080
1.36695 -2.3628626 -0.4258137 4278190080
1.3566482 -2.3630996 -0.42503241 4278190080
1.3410596 -2.3549464 -0.42268845 4278190080
1.3352599 -2.3639133 -0.42346978 4278190080
1.311528 -2.3602266 -0.42112583 4278190080
0.37807116 -0.70925558 -0.12110297 4278190080
0.38482451 -0.72803563 -0.12422821 4278190080
0.34101394 -0.65063912 -0.11016464 4278190080
0.31824479 -0.61238605 -0.10313286 4278190080
0.31158119 -0.60471302 -0.10157024 4278190080
1.2311139 -2.4308627 -0.42503241 4278190080
1.1833063 -2.3775005 -0.41409403 4278190080
1.1553347 -2.3417568 -0.40706229 4278190080
1.1536622 -2.3590846 -0.40940619 4278190080
1.1393684 -2.3495665 -0.40706229 4278190080
1.1354384 -2.3624318 -0.40862489 4278190080
1.1208138 -2.3530047 -0.40628096 4278190080
1.1147015 -2.3613689 -0.40706229 4278190080
1.1064521 -2.3652456 -0.40706229 4278190080
0.41562006 -0.92178309 -0.15391797 4278190080
0.42247102 -0.94577408 -0.15782453 4278190080
0.40517789 -0.9156298 -0.15235536 4278190080
0.38428807 -0.87626356 -0.14532357 4278190080
0.99797863 -2.3648491 -0.40003049 4278190080
0.98210084 -2.3500915 -0.39690524 4278190080
0.97200328 -2.3489418 -0.39612392 4278190080
0.96005309 -2.3431809 -0.39456129 4278190080
0.95001173 -2.3419414 -0.39378002 4278190080
0.94039899 -2.3404963 -0.3929987 4278190080
0.93222356 -2.3437645 -0.3929987 4278190080
0.92222726 -2.3424094 -0.3922174 4278190080
0.91404521 -2.3456142 -0.3922174 4278190080
0.90407467 -2.3441827 -0.39143607 4278190080
0.89588654 -2.3473241 -0.39143607 4278190080
0.8859427 -2.3458171 -0.39065477 4278190080
0.8760199 -2.3442693 -0.38987345 4278190080
0.86611915 -2.3426807 -0.38909215 4278190080
0.8562398 -2.3410516 -0.38831082 4278190080
0.84847212 -2.343878 -0.38831082 4278190080
0.83695555 -2.3375266 -0.38674822 4278190080
0.83208811 -2.3497443 -0.38831082 4278190080
0.82061648 -2.3433125 -0.38674822 4278190080
0.81081569 -2.3414962 -0.38596693 4278190080
0.20701821 -0.6116091 -0.096101075 4278190080
0.20285037 -0.61300403 -0.096101075 4278190080
0.20377962 -0.62309623 -0.097663693 4278190080
0.19856595 -0.61440521 -0.096101075 4278190080
0.19341537 -0.60568553 -0.09453845 4278190080
0.19427177 -0.61577648 -0.096101075 4278190080
0.19359051 -0.62116581 -0.096882388 4278190080
0.19287406 -0.62655777 -0.097663693 4278190080
0.1921223 -0.63195223 -0.098445006 4278190080
0.18991515 -0.63261902 -0.098445006 4278190080
0.18770577 -0.63327807 -0.098445006 4278190080
0.18560469 -0.63389707 -0.098445006 4278190080
0.18201968 -0.62979668 -0.097663693 4278190080
0.17982012 -0.63042819 -0.097663693 4278190080
0.17494237 -0.62154436 -0.096101075 4278190080
0.17277166 -0.62215126 -0.096101075 4278190080
0.17190376 -0.62751359 -0.096882388 4278190080
0.1710005 -0.63287741 -0.097663693 4278190080
0.59577787 -2.3339257 -0.37502855 4278190080
0.58803493 -2.3358886 -0.37502855 4278190080
0.57393324 -2.3139603 -0.37112203 4278190080
0.56819695 -2.3255446 -0.37268466 4278190080
0.55776489 -2.3179109 -0.37112203 4278190080
