# .PCD v0.7 - Point Cloud Data file format
VERSION 0.7
FIELDS x y z rgb
SIZE 4 4 4 4
TYPE F F F U
COUNT 1 1 1 1
WIDTH 1080
HEIGHT 1
VIEWPOINT 0 0 0 1 0 0 0
POINTS 1080
DATA ascii
1.0859375 -0.93028915 0.26680577 4294967295
1.0965649 -0.92838854 0.23681808 4294967295
1.0876667 -0.93096596 0.22845933 4294967295
1.0987175 -0.92777163 0.19943586 4294967295
1.0923867 -0.9312281 0.20714003 4294967295
1.0947443 -0.92452109 0.17475045 4294967295
1.0863334 -0.93057793 0.18821386 4294967295
1.0935197 -0.91999465 0.14530492 4294967295
1.094 -0.89991945 0.1004163 4294967295
1.0936686 -0.91554397 0.11446294 4294967295
1.094 -0.89991945 0.095339775 4294967295
1.0926851 -0.90637368 0.086542249 4294967295
1.0936955 -0.91091031 0.055460423 4294967295
1.0936296 -0.91153091 0.022976249 4294967295
1.104 0.96300721 -0.0058777332 4294967295
1.0938114 0.94163799 -0.0071747899 4294967295
1.0932754 0.91527337 -0.0083755255 4294967295
1.0936153 0.88558054 -0.0095003247 4294967295
1.0947545 0.85532236 -0.015090823 4294967295
1.0947386 0.82423604 -0.01299715 4294967295
1.0945292 0.7951017 -0.010752261 4294967295
1.0942457 0.76488048 -0.011408985 4294967295
1.0942459 0.73560214 -0.014115274 4294967295
1.094246 0.7050091 -0.014142275 4294967295
1.0942001 0.67432791 -0.010028541 4294967295
1.0948839 0.6449843 -0.010675251 4294967295
1.0952678 0.61547267 -0.013001621 4294967295
1.0930167 0.5850988 -0.011232078 4294967295
1.0929021 0.55442452 -0.010462642 4294967295
1.0947667 0.52510619 -0.013690472 4294967295
1.0932789 0.4947781 -0.010305464 4294967295
1.0941718 0.46445253 -0.0092223883 4294967295
1.0940553 0.43454069 -0.0099388361 4294967295
1.0941929 0.40441105 -0.0086650252 4294967295
1.0925415 0.37461433 -0.0077159405 4294967295
1.0939618 0.34531543 -0.012204647 4294967295
1.0930448 0.31468278 -0.0096405149 4294967295
1.0919205 0.28533319 -0.0079809427 4294967295
1.0928273 0.25636598 -0.0089228153 4294967295
1.0931876 0.22498296 -0.0087385774 4294967295
1.0933334 0.19398595 -0.009324491 4294967295
1.0929193 0.16470404 -0.010473132 4294967295
1.0923287 0.13465254 -0.0091986656 4294967295
1.0931267 0.10554679 -0.010577857 4294967295
1.0942593 0.076295547 -0.011889756 4294967295
1.0944352 0.044825073 -0.011167765 4294967295
1.0945557 0.015839981 -0.011084318 4294967295
1.094597 -0.015750183 -0.011778951 4294967295
1.0941849 -0.044876877 -0.012110293 4294967295
1.0945339 -0.075066522 -0.0097210407 4294967295
1.093263 -0.10514078 -0.010304987 4294967295
1.0927782 -0.13537994 -0.010285795 4294967295
1.0933473 -0.16497988 -0.0096516013 4294967295
1.0942277 -0.19476357 -0.0090315938 4294967295
1.0927505 -0.2249641 -0.0095404387 4294967295
1.0939379 -0.25429675 -0.010295808 4294967295
1.0923769 -0.28438896 -0.010330319 4294967295
1.0934622 -0.31574908 -0.011991262 4294967295
1.0935396 -0.34544262 -0.011100352 4294967295
1.0933479 -0.37506273 -0.0094122291 4294967295
1.0929279 -0.40443245 -0.0096132755 4294967295
1.0941498 -0.43511492 -0.010517061 4294967295
1.093611 -0.46483907 -0.0097779632 4294967295
1.0936177 -0.49442339 -0.0094106197 4294967295
1.0943562 -0.52526009 -0.0094352365 4294967295
1.0933965 -0.55449104 -0.010616541 4294967295
1.0936205 -0.58572829 -0.0096158385 4294967295
1.0944644 -0.6149736 -0.010177433 4294967295
1.0939704 -0.64452654 -0.0090664625 4294967295
1.0934913 -0.67523676 -0.0085077882 4294967295
1.0936272 -0.70537668 -0.0098831058 4294967295
1.0928752 -0.73423713 -0.010245442 4294967295
1.0935892 -0.76494038 -0.0089171529 4294967295
1.0941792 -0.79530454 -0.010189056 4294967295
1.094571 -0.82408935 -0.0095584393 4294967295
1.0928499 -0.85524368 -0.0088731647 4294967295
1.0945734 -0.88665289 -0.0062373877 4294967295
1.0925062 -0.90670997 0.0029152632 4294967295
1.1220294 -0.93507951 1.1327617 4294967295
1.1244166 -0.92971987 1.0975049 4294967295
1.1238765 -0.93325388 1.1056697 4294967295
1.1158665 -0.92858964 1.0810139 4294967295
1.126353 -0.93202722 1.0722229 4294967295
1.1262693 -0.9292748 1.0476654 4294967295
1.1231934 -0.93216592 1.0444927 4294967295
1.1248332 -0.92962891 1.0037646 4294967295
1.1233779 -0.93272626 1.0159416 4294967295
1.1247272 -0.92946124 0.99604487 4294967295
1.1248914 -0.93371409 0.984061 4294967295
1.1228182 -0.92738807 0.94691288 4294967295
1.12524 -0.93308181 0.9608677 4294967295
1.1243334 -0.92709047 0.92457712 4294967295
1.1198 -0.93105489 0.91987133 4294967295
1.1231093 -0.92786807 0.89598811 4294967295
1.1230713 -0.93065137 0.89308035 4294967295
1.1235477 -0.92617005 0.86431861 4294967295
1.1236666 -0.93033856 0.87809342 4294967295
1.1268933 -0.92826629 0.83553523 4294967295
1.1195366 -0.93172336 0.83136845 4294967295
1.1263889 -0.92909908 0.80530465 4294967295
1.1230806 -0.93291122 0.80424023 4294967295
1.1274707 -0.92928874 0.77201802 4294967295
1.122419 -0.93458945 0.77634573 4294967295
1.1295384 -0.92893302 0.75728571 4294967295
1.1238317 -0.93281001 0.74461758 4294967295
1.1244999 -0.92897856 0.71653736 4294967295
1.1232413 -0.93140566 0.7158621 4294967295
1.126093 -0.92872661 0.68287253 4294967295
1.1216323 -0.93231481 0.68454838 4294967295
1.124397 -0.92799926 0.65538931 4294967295
1.1218371 -0.93200517 0.65807545 4294967295
1.1242813 -0.92896324 0.6262064 4294967295
1.1249195 -0.93165845 0.62189621 4294967295
1.1266792 -0.92811483 0.59428072 4294967295
1.1204032 -0.93214917 0.59556299 4294967295
1.1255373 -0.9251678 0.56560469 4294967295
1.1158665 -0.93093288 0.56426036 4294967295
1.1239231 -0.92621011 0.53436905 4294967295
1.1162 -0.93060845 0.54666603 4294967295
1.1258423 -0.92654508 0.5061062 4294967295
1.1156667 -0.93161869 0.50132966 4294967295
1.1225386 -0.92209715 0.47360745 4294967295
1.1162857 -0.93045837 0.48591456 4294967295
1.1242837 -0.92422765 0.4514502 4294967295
1.1227548 -0.93389291 0.4366833 4294967295
1.1215999 -0.92815089 0.40349871 4294967295
1.125767 -0.93555361 0.41784748 4294967295
1.1244332 -0.92676592 0.38457692 4294967295
1.1230496 -0.92082077 0.35482413 4294967295
1.1257982 -0.92500794 0.32583442 4294967295
1.1162684 -0.93420821 0.31972671 4294967295
1.1235096 -0.92397499 0.29499379 4294967295
1.1158665 -0.93291646 0.30674624 4294967295
1.1244001 -0.925134 0.265304 4294967295
1.1159999 -0.93022043 0.25436732 4294967295
1.1266353 -0.92777199 0.23381412 4294967295
1.1180588 -0.93066704 0.23677513 4294967295
1.1239367 -0.92596847 0.20430893 4294967295
1.1135 -0.93059552 0.20833716 4294967295
1.1226896 -0.92334801 0.1754396 4294967295
1.1238725 -0.92120266 0.14503911 4294967295
1.1229844 -0.91348231 0.1145063 4294967295
1.1240853 -0.9079898 0.08552748 4294967295
1.1234736 -0.91339058 0.054618001 4294967295
1.1240643 -0.91527569 0.024480402 4294967295
1.13475 0.99245512 -0.0099881291 4294967295
1.1256831 0.97186184 -0.0068800449 4294967295
1.1231639 0.94620782 -0.0072507262 4294967295
1.123566 0.91493297 -0.0087382197 4294967295
1.1227063 0.88485163 -0.014038026 4294967295
1.1224787 0.85586423 -0.013948739 4294967295
1.1234848 0.82518625 -0.0097191334 4294967295
1.1238786 0.794819 -0.011486769 4294967295
1.1240674 0.7640183 -0.011813581 4294967295
1.1235507 0.73491889 -0.013689876 4294967295
1.1243566 0.70570356 -0.010433912 4294967295
1.1236604 0.67603624 -0.010428607 4294967295
1.1204214 0.64415991 -0.011562228 4294967295
1.1234746 0.61407363 -0.01180917 4294967295
1.122213 0.58576792 -0.01179564 4294967295
1.1237502 0.55394369 -0.012570441 4294967295
1.1235342 0.52529365 -0.012726068 4294967295
1.12245 0.49481553 -0.0092142224 4294967295
1.1233729 0.46507713 -0.0098257065 4294967295
1.1254923 0.43462124 -0.0097719431 4294967295
1.1250399 0.40712759 -0.0099750757 4294967295
1.1257415 0.37342569 -0.010937512 4294967295
1.123889 0.34486967 -0.011418402 4294967295
1.1225735 0.31480637 -0.0081083179 4294967295
1.1231909 0.28553426 -0.0085496902 4294967295
1.1241477 0.25542367 -0.012025476 4294967295
1.1234424 0.22495089 -0.012057364 4294967295
1.1242455 0.19534454 -0.011832595 4294967295
1.1227318 0.16545068 -0.01076436 4294967295
1.1230514 0.13488774 -0.0098521113 4294967295
1.1232837 0.10439711 -0.01063621 4294967295
1.1234807 0.074724846 -0.011704564 4294967295
1.1234181 0.045506466 -0.010389388 4294967295
1.1231745 0.014640348 -0.010354459 4294967295
1.1241168 -0.015162871 -0.010580957 4294967295
1.1244533 -0.044167783 -0.012130558 4294967295
1.1242334 -0.075318567 -0.010839224 4294967295
1.1251074 -0.10478167 -0.011645615 4294967295
1.1246325 -0.13501453 -0.011493504 4294967295
1.1248257 -0.16517513 -0.0092617273 4294967295
1.1239506 -0.19500777 -0.0079580545 4294967295
1.1235398 -0.22479957 -0.0090323091 4294967295
1.1237879 -0.25497812 -0.0099011064 4294967295
1.1229856 -0.28493443 -0.010924339 4294967295
1.1232173 -0.31480169 -0.011150956 4294967295
1.1236577 -0.3444519 -0.011598051 4294967295
1.1242 -0.37585917 -0.010736883 4294967295
1.1247425 -0.40541407 -0.0094817281 4294967295
1.1232101 -0.43542638 -0.010504007 4294967295
1.1228472 -0.46511781 -0.0096245408 4294967295
1.1238815 -0.49573708 -0.0097113252 4294967295
1.1238666 -0.52455419 -0.0098829269 4294967295
1.124547 -0.55505747 -0.011719823 4294967295
1.1243912 -0.58427691 -0.011328518 4294967295
1.1236613 -0.61519337 -0.010093987 4294967295
1.1241822 -0.64535493 -0.0092579126 4294967295
1.1237383 -0.67439812 -0.0093123317 4294967295
1.1229272 -0.70483357 -0.0096589327 4294967295
1.1230937 -0.73509711 -0.010869265 4294967295
1.1248065 -0.76396924 -0.01154983 4294967295
1.1247586 -0.79565173 -0.010793269 4294967295
1.1243547 -0.82479894 -0.0096971989 4294967295
1.1227579 -0.85496646 -0.009411633 4294967295
1.1236575 -0.88663924 -0.0065037608 4294967295
1.1229665 -0.90533704 0.0030910373 4294967295
1.1556427 -0.94007683 1.158855 4294967295
1.1589999 -0.92783964 1.1215379 4294967295
1.155648 -0.94369155 1.1333354 4294967295
1.1557806 -0.92510438 1.103179 4294967295
1.1454885 -0.93281078 1.1032763 4294967295
1.1567831 -0.92531776 1.0760752 4294967295
1.14726 -0.93360579 1.0758836 4294967295
1.155661 -0.92672008 1.0488083 4294967295
1.1492585 -0.93274271 1.0414157 4294967295
1.1573783 -0.92831421 1.0164033 4294967295
1.1505775 -0.93326223 1.0149894 4294967295
1.158 -0.92972589 0.99876916 4294967295
1.1526355 -0.93308592 0.98455012 4294967295
1.1573751 -0.92488545 0.94960231 4294967295
1.1498275 -0.93252075 0.95837307 4294967295
1.1561249 -0.92574173 0.9329958 4294967295
1.1522727 -0.93133551 0.92196858 4294967295
1.1577274 -0.92839998 0.89019549 4294967295
1.1517584 -0.93200576 0.89679331 4294967295
1.1565667 -0.92884076 0.86400199 4294967295
1.1521035 -0.93121928 0.86460042 4294967295
1.15453 -0.92702031 0.83395475 4294967295
1.1461877 -0.93120784 0.84130865 4294967295
1.1556377 -0.92720741 0.80475688 4294967295
1.1448858 -0.93107194 0.80516315 4294967295
1.1553581 -0.92700469 0.77389508 4294967295
1.1464751 -0.93236983 0.77848279 4294967295
1.1543335 -0.92759985 0.75056285 4294967295
1.1505079 -0.9332664 0.74055219 4294967295
1.1537917 -0.93472219 0.71434224 4294967295
1.1535124 -0.93298256 0.68565041 4294967295
1.1558223 -0.9284758 0.65351564 4294967295
1.15086 -0.93125933 0.6551013 4294967295
1.1552615 -0.92736822 0.62359345 4294967295
1.1474544 -0.93217599 0.62726241 4294967295
1.1559882 -0.92626935 0.59450793 4294967295
1.1459033 -0.93128729 0.59697706 4294967295
1.153975 -0.92488879 0.56614071 4294967295
1.1554286 -0.93047339 0.55212355 4294967295
1.1548094 -0.92715973 0.53187132 4294967295
1.1522578 -0.93106025 0.5426532 4294967295
1.1529136 -0.92764366 0.50936139 4294967295
1.1546818 -0.93115944 0.49764526 4294967295
1.1521837 -0.9264282 0.47614178 4294967295
1.1579001 -0.93067014 0.48531181 4294967295
1.1541175 -0.92666852 0.44425479 4294967295
1.1515715 -0.93204623 0.43752825 4294967295
1.1568873 -0.92701644 0.41413146 4294967295
1.146085 -0.93251503 0.41668376 4294967295
1.1543334 -0.92695153 0.38415027 4294967295
1.1454285 -0.93045342 0.38935572 4294967295
1.1535468 -0.92171663 0.35557622 4294967295
1.1534253 -0.92431152 0.32469743 4294967295
1.1544445 -0.92186809 0.29390067 4294967295
1.1535786 -0.92298239 0.26635188 4294967295
1.1536517 -0.9262737 0.23516685 4294967295
1.1457001 -0.93074834 0.23662663 4294967295
1.154094 -0.92767364 0.20506051 4294967295
1.1539278 -0.92621362 0.17454955 4294967295
1.1537164 -0.92084652 0.14542776 4294967295
1.1598001 -0.89914405 0.10101548 4294967295
1.1542213 -0.91432929 0.11466014 4294967295
1.16036 -0.89537024 0.089505076 4294967295
1.1526163 -0.90836227 0.084273666 4294967295
1.1545857 -0.91799897 0.055386066 4294967295
1.1536524 -0.91433078 0.02399686 4294967295
1.1656667 1.0217555 -0.0073031783 4294967295
1.1529807 1.0043777 -0.0084035993 4294967295
1.1528596 0.97458857 -0.0072629452 4294967295
1.1543078 0.94597614 -0.010974526 4294967295
1.1551278 0.91402423 -0.014474273 4294967295
1.1526949 0.88556826 -0.013678253 4294967295
1.1532726 0.85511392 -0.011079371 4294967295
1.1551818 0.82456702 -0.011326849 4294967295
1.152707 0.79497772 -0.010147512 4294967295
1.1515785 0.76474547 -0.0097715259 4294967295
1.1522405 0.73519248 -0.0097731948 4294967295
1.1546551 0.70518434 -0.0095686316 4294967295
1.1521034 0.68192089 -0.013937116 4294967295
1.1543939 0.64019209 -0.01589185 4294967295
1.1551055 0.61498475 -0.011812747 4294967295
1.1537606 0.58447337 -0.011525631 4294967295
1.1533834 0.55566674 -0.010748267 4294967295
1.1534444 0.52469647 -0.010423422 4294967295
1.1533509 0.49419311 -0.0099688768 4294967295
1.1532116 0.46498457 -0.0092189908 4294967295
1.1543037 0.43550926 -0.0087252259 4294967295
1.1547831 0.40457943 -0.010391176 4294967295
1.1548624 0.37500474 -0.010910571 4294967295
1.1530908 0.34580866 -0.0082730651 4294967295
1.1516312 0.31505266 -0.0070738792 4294967295
1.1529199 0.28535274 -0.0092586279 4294967295
1.1537112 0.25545079 -0.014432311 4294967295
1.1538779 0.22408658 -0.014098108 4294967295
1.1541002 0.19571128 -0.011865079 4294967295
1.153347 0.16527443 -0.011452079 4294967295
1.1546609 0.13493498 -0.011327982 4294967295
1.1530861 0.10463572 -0.0098147988 4294967295
1.1539696 0.074752621 -0.0093103051 4294967295
1.1523392 0.045149576 -0.0097361207 4294967295
1.1541272 0.014622502 -0.010985434 4294967295
1.1538303 -0.015092022 -0.0088825226 4294967295
1.152897 -0.044516508 -0.010295928 4294967295
1.1535622 -0.074756794 -0.010475159 4294967295
1.1537759 -0.1053772 -0.010314405 4294967295
1.1532067 -0.13489971 -0.01047188 4294967295
1.15493 -0.16490012 -0.0086777806 4294967295
1.1539794 -0.19449227 -0.009195447 4294967295
1.1543829 -0.22573817 -0.010421991 4294967295
1.1531174 -0.25559512 -0.0099487901 4294967295
1.1529455 -0.284998 -0.010445893 4294967295
1.1531935 -0.3150875 -0.010699987 4294967295
1.1538367 -0.34410584 -0.011239231 4294967295
1.1532693 -0.37460336 -0.01255101 4294967295
1.1540754 -0.40464893 -0.0098542571 4294967295
1.1526464 -0.4343839 -0.0088627934 4294967295
1.1535519 -0.46426716 -0.010489762 4294967295
1.1535892 -0.4946205 -0.010499179 4294967295
1.1525 -0.52582181 -0.009427011 4294967295
1.1537308 -0.5553925 -0.01101476 4294967295
1.1535484 -0.58513033 -0.010721266 4294967295
1.1538333 -0.61443233 -0.0097766519 4294967295
1.1538926 -0.64430422 -0.0096846819 4294967295
1.1529799 -0.67431432 -0.0091255307 4294967295
1.1534708 -0.70475012 -0.011052728 4294967295
1.1548682 -0.73535252 -0.011581421 4294967295
1.1539 -0.76491129 -0.011688292 4294967295
1.1543276 -0.79483104 -0.011907935 4294967295
1.154362 -0.82430178 -0.010588884 4294967295
1.1532201 -0.85489976 -0.0098839998 4294967295
1.1537871 -0.88578659 -0.0085538626 4294967295
1.1544054 -0.90830457 0.0014091134 4294967295
1.1663333 0.65340972 -0.021135747 4294967295
1.1909167 -0.93633324 1.182765 4294967295
1.1930715 -0.92782414 1.1560261 4294967295
1.1855801 -0.94277358 1.1640681 4294967295
1.1823846 -0.96143502 1.1564636 4294967295
1.1890528 -0.92731333 1.1336064 4294967295
1.1810001 -0.93887466 1.1395646 4294967295
1.181 -0.9605248 1.149397 4294967295
1.1844158 -0.92607713 1.1044376 4294967295
1.1837751 -0.92734683 1.0751419 4294967295
1.1919999 -0.93071973 1.0695568 4294967295
1.1902038 -0.9270137 1.044219 4294967295
1.1811187 -0.93240762 1.0445321 4294967295
1.1896 -0.92792881 1.0260838 4294967295
1.1834406 -0.93328232 1.013576 4294967295
1.1923869 -0.92765439 0.98064208 4294967295
1.1833816 -0.93447071 0.98603666 4294967295
1.1845398 -0.92620444 0.95505935 4294967295
1.1817499 -0.93112612 0.96095377 4294967295
1.1876482 -0.92864716 0.92699564 4294967295
1.1797693 -0.93280411 0.92086387 4294967295
1.1897957 -0.92753553 0.89255977 4294967295
1.1799484 -0.93184578 0.89555186 4294967295
1.1889856 -0.92582303 0.86463356 4294967295
1.1783724 -0.93231255 0.86676311 4294967295
1.1797693 -0.9293735 0.84383237 4294967295
1.1858002 -0.93180442 0.83297664 4294967295
1.190325 -0.92822903 0.80422741 4294967295
1.1822242 -0.93146586 0.80538464 4294967295
1.1889555 -0.92827564 0.77613568 4294967295
1.1811155 -0.93161803 0.77437747 4294967295
1.1907059 -0.92744231 0.7450918 4294967295
1.1805539 -0.93304694 0.74317831 4294967295
1.193 -0.92851502 0.71666312 4294967295
1.1835358 -0.93739176 0.71526617 4294967295
1.19125 -0.92981827 0.68638617 4294967295
1.1832366 -0.93455464 0.68610191 4294967295
1.1913265 -0.92700064 0.65572196 4294967295
1.1805938 -0.9325251 0.65422809 4294967295
1.1853914 -0.92912042 0.61927271 4294967295
1.1855693 -0.93212432 0.62748986 4294967295
1.1851368 -0.92673385 0.59438664 4294967295
1.1836817 -0.9261784 0.5654465 4294967295
1.176 -0.93052739 0.55191487 4294967295
1.1864796 -0.92761165 0.53531659 4294967295
1.1779257 -0.93078285 0.5394994 4294967295
1.1893685 -0.92908937 0.51043218 4294967295
1.184805 -0.93276906 0.50361031 4294967295
1.1922727 -0.92970604 0.48244596 4294967295
1.1842091 -0.9326753 0.47516489 4294967295
1.1931034 -0.92768949 0.43774292 4294967295
1.1839602 -0.93286377 0.44640926 4294967295
1.1858644 -0.92818737 0.41446877 4294967295
1.1797367 -0.93053645 0.41760269 4294967295
1.1856667 -0.92507654 0.3834877 4294967295
1.1776667 -0.93048447 0.39621401 4294967295
1.1851668 -0.92525858 0.35650176 4294967295
1.1852236 -0.92635036 0.32363749 4294967295
1.1842 -0.91929233 0.29660386 4294967295
1.1842159 -0.92216069 0.26436681 4294967295
1.1844372 -0.92626554 0.23454893 4294967295
1.1856073 -0.92673522 0.20525134 4294967295
1.1754999 -0.93048036 0.20246217 4294967295
1.1855085 -0.92463046 0.17412826 4294967295
1.1776249 -0.93045092 0.18617362 4294967295
1.1854688 -0.9170056 0.14526072 4294967295
1.1838191 -0.91164327 0.11568943 4294967295
1.1811929 -0.89574164 0.083038181 4294967295
1.1845 -0.90182608 0.091713339 4294967295
1.1896667 -0.89809608 0.067407578 4294967295
1.1843334 -0.91691917 0.05395326 4294967295
1.1848062 -0.91424942 0.025523454 4294967295
1.1819166 1.0270633 -0.0060697198 4294967295
1.1829664 1.0055802 -0.0076013803 4294967295
1.1844501 0.97487307 -0.0096868277 4294967295
1.1838918 0.94408971 -0.012607753 4294967295
1.1842629 0.91522247 -0.011352241 4294967295
1.1848971 0.88538808 -0.010005653 4294967295
1.1849561 0.85544556 -0.010531366 4294967295
1.1860576 0.82478297 -0.01186651 4294967295
1.1852093 0.79376996 -0.011988044 4294967295
1.1846795 0.76550978 -0.01140058 4294967295
1.1842932 0.73540598 -0.0095110536 4294967295
1.1844231 0.70362204 -0.010563791 4294967295
1.1875204 0.67638719 -0.014875233 4294967295
1.1843067 0.64497703 -0.012589633 4294967295
1.1841922 0.61478519 -0.011137009 4294967295
1.1846154 0.58459783 -0.0094709992 4294967295
1.1843396 0.554654 -0.010372996 4294967295
1.1854339 0.5247497 -0.012002766 4294967295
1.1855088 0.49469814 -0.0097700953 4294967295
1.1860999 0.46561351 -0.009793818 4294967295
1.1854666 0.43460527 -0.010680974 4294967295
1.1850379 0.40333655 -0.0086547136 4294967295
1.184 0.37594312 -0.008356154 4294967295
1.1844313 0.34573272 -0.0085487962 4294967295
1.1831793 0.31608462 -0.010212898 4294967295
1.1849302 0.28481263 -0.013782561 4294967295
1.1867224 0.25522694 -0.017925024 4294967295
1.1849285 0.22438791 -0.014452398 4294967295
1.1854526 0.19539227 -0.011857152 4294967295
1.1847221 0.16470003 -0.013454139 4294967295
1.1860187 0.13501425 -0.011953354 4294967295
1.1842544 0.10510553 -0.0098073483 4294967295
1.1859131 0.075916119 -0.010185838 4294967295
1.1839813 0.04474809 -0.0107795 4294967295
1.185618 0.015015326 -0.011724412 4294967295
1.1858402 -0.014972044 -0.010720432 4294967295
1.1848552 -0.046224657 -0.0087578893 4294967295
1.1839217 -0.074901119 -0.01053071 4294967295
1.1851015 -0.10568362 -0.0096186399 4294967295
1.1847003 -0.13474461 -0.010387719 4294967295
1.1853832 -0.1647585 -0.0081763864 4294967295
1.1853863 -0.19468848 -0.011619031 4294967295
1.185737 -0.2247501 -0.01409924 4294967295
1.1847408 -0.25583676 -0.011583388 4294967295
1.1852915 -0.28504267 -0.0093865395 4294967295
1.1847632 -0.3146978 -0.010726929 4294967295
1.1851479 -0.34544969 -0.011967421 4294967295
1.1856419 -0.37500972 -0.013281465 4294967295
1.1867501 -0.40484363 -0.012177646 4294967295
1.1843821 -0.43498948 -0.0085697174 4294967295
1.1849232 -0.46509346 -0.010299146 4294967295
1.1864644 -0.49568594 -0.012197733 4294967295
1.184315 -0.52482098 -0.01088196 4294967295
1.1834509 -0.55493927 -0.010642052 4294967295
1.1855963 -0.58573627 -0.012240052 4294967295
1.1848825 -0.61493921 -0.010261834 4294967295
1.1843092 -0.64363605 -0.010229945 4294967295
1.1843125 -0.67506677 -0.010734856 4294967295
1.184558 -0.70529509 -0.012592018 4294967295
1.1858242 -0.73471767 -0.012393534 4294967295
1.1853271 -0.76469463 -0.012837291 4294967295
1.1849788 -0.79480296 -0.01342833 4294967295
1.1852447 -0.82559097 -0.013027787 4294967295
1.1843652 -0.85552776 -0.010686219 4294967295
1.1849998 -0.88584757 -0.0079712868 4294967295
1.1841167 -0.90614128 0.00069481134 4294967295
1.1805999 0.67477071 -0.023074865 4294967295
1.1743333 0.65698439 -0.021214068 4294967295
1.183 0.25103331 -0.020174503 4294967295
1.2194219 -0.93643546 1.1903777 4294967295
1.2160834 -0.9290635 1.1615899 4294967295
1.2145675 -0.93271577 1.1690712 4294967295
1.2133439 -0.92860019 1.1330168 4294967295
1.2172502 -0.9315607 1.1341186 4294967295
1.2174194 -0.92883319 1.1075422 4294967295
1.2174261 -0.93165165 1.1038228 4294967295
1.2234056 -0.92771983 1.0713475 4294967295
1.2129815 -0.93205005 1.0765369 4294967295
1.2158999 -0.9269737 1.0460629 4294967295
1.2155455 -0.93117791 1.0367683 4294967295
1.205 -0.92971987 1.0279889 4294967295
1.216815 -0.93483138 1.015276 4294967295
1.2137941 -0.92883319 0.98498148 4294967295
1.2171429 -0.93098748 0.98452222 4294967295
1.2202308 -0.92918861 0.95306003 4294967295
1.2182949 -0.93313473 0.95531058 4294967295
1.227 -0.92961287 0.93762362 4294967295
1.2169734 -0.93331337 0.92527425 4294967295
1.2173833 -0.92811066 0.889382 4294967295
1.2158571 -0.93202174 0.90309656 4294967295
1.2110436 -0.92750788 0.87221789 4294967295
1.2192106 -0.93366033 0.85934615 4294967295
1.2270833 -0.92872447 0.82709253 4294967295
1.2156506 -0.93408936 0.83551598 4294967295
1.2182531 -0.92640191 0.80275512 4294967295
1.2124801 -0.93075067 0.80664152 4294967295
1.2196515 -0.92490208 0.77598053 4294967295
1.2139448 -0.93168366 0.77583778 4294967295
1.2179132 -0.92819589 0.74402028 4294967295
1.2149706 -0.93101937 0.7460745 4294967295
1.2187272 -0.92880595 0.7182129 4294967295
1.215 -0.93177712 0.71184337 4294967295
1.205 -0.92971987 0.67012572 4294967295
1.2167466 -0.93449038 0.68622702 4294967295
1.2153711 -0.92821425 0.65334225 4294967295
1.2166666 -0.93070346 0.65576768 4294967295
1.2219547 -0.92808622 0.62582505 4294967295
1.2111787 -0.93220651 0.62462527 4294967295
1.2162666 -0.92783427 0.59480631 4294967295
1.2146667 -0.93059748 0.60368317 4294967295
1.218672 -0.92793256 0.56292963 4294967295
1.215 -0.9308126 0.56782496 4294967295
1.2171291 -0.92827445 0.53697896 4294967295
1.2129585 -0.93103653 0.5285328 4294967295
1.2212176 -0.92802662 0.50927573 4294967295
1.2121069 -0.93140972 0.50276655 4294967295
1.2258947 -0.92667478 0.46704516 4294967295
1.2153126 -0.93291312 0.47524205 4294967295
1.2174375 -0.92246735 0.44400647 4294967295
1.210826 -0.93223631 0.45515469 4294967295
1.2177022 -0.92506289 0.41710117 4294967295
1.2133332 -0.9308641 0.41052604 4294967295
1.216933 -0.92313248 0.38503194 4294967295
1.2172796 -0.92399096 0.355194 4294967295
1.2166635 -0.9243955 0.32450193 4294967295
1.2168705 -0.91963893 0.29683942 4294967295
1.2174691 -0.92392206 0.26412216 4294967295
1.2171746 -0.92560214 0.23524535 4294967295
1.2163044 -0.92401075 0.20465326 4294967295
1.2162063 -0.92188311 0.17539296 4294967295
1.2169155 -0.91625756 0.14523771 4294967295
1.2166952 -0.91157371 0.11578998 4294967295
1.201 -0.89876837 0.071917772 4294967295
1.2179794 -0.91086555 0.085496962 4294967295
1.201 -0.89876837 0.067737997 4294967295
1.2176892 -0.90971851 0.052119434 4294967295
1.2170696 -0.91755152 0.025819927 4294967295
1.2173104 1.0314621 -0.01074636 4294967295
1.2157028 1.0057815 -0.011119485 4294967295
1.2170527 0.97464079 -0.013191402 4294967295
1.2173923 0.94416326 -0.009299159 4294967295
1.2154319 0.91590625 -0.0088132024 4294967295
1.2172683 0.88498259 -0.0089774132 4294967295
1.2151961 0.8548792 -0.012121618 4294967295
1.2184683 0.82483923 -0.014068365 4294967295
1.2174547 0.79468447 -0.012123704 4294967295
1.2164829 0.76542568 -0.0097916126 4294967295
1.2154168 0.7358138 -0.0088131428 4294967295
1.214846 0.70537788 -0.01357013 4294967295
1.2180233 0.67387062 -0.012785017 4294967295
1.2169186 0.64530486 -0.012564957 4294967295
1.2163686 0.61420375 -0.013038516 4294967295
1.2171578 0.58442122 -0.011678219 4294967295
1.2164636 0.55521709 -0.013995111 4294967295
1.2176667 0.52423257 -0.011909544 4294967295
1.2170004 0.49493238 -0.0091211796 4294967295
1.218308 0.46463582 -0.011868775 4294967295
1.2177236 0.43541706 -0.012656569 4294967295
1.2173722 0.4053151 -0.0088846684 4294967295
1.2159768 0.37513423 -0.0083474517 4294967295
1.217122 0.34608075 -0.011873305 4294967295
1.2170607 0.31471276 -0.017019987 4294967295
1.2180178 0.28313839 -0.015651166 4294967295
1.21525 0.25546393 -0.01484108 4294967295
1.2158003 0.2262153 -0.01391542 4294967295
1.2173262 0.19445756 -0.013725519 4294967295
1.2170833 0.16540708 -0.012887597 4294967295
1.2162352 0.13546824 -0.011619508 4294967295
1.2161666 0.1060812 -0.012181997 4294967295
1.2175801 0.074062638 -0.011817098 4294967295
1.2171572 0.045373395 -0.011853695 4294967295
1.2164183 0.015402272 -0.011421621 4294967295
1.2190968 -0.016218353 -0.011086822 4294967295
1.2152884 -0.043374293 -0.0066424608 4294967295
1.216782 -0.073899224 -0.01101464 4294967295
1.2173638 -0.10583328 -0.01023525 4294967295
1.2167118 -0.13510716 -0.0093913078 4294967295
1.2172668 -0.16425915 -0.0086563826 4294967295
1.217592 -0.19547622 -0.013032734 4294967295
1.2179801 -0.22509874 -0.016908109 4294967295
1.2164288 -0.25557417 -0.013850093 4294967295
1.2160947 -0.28573918 -0.007288754 4294967295
1.2168391 -0.31499678 -0.008928895 4294967295
1.2160908 -0.34507209 -0.011123955 4294967295
1.2170701 -0.37459701 -0.011259496 4294967295
1.2178237 -0.40495667 -0.011981785 4294967295
1.2174151 -0.43468717 -0.010741591 4294967295
1.2168633 -0.46486709 -0.0095652938 4294967295
1.2187884 -0.4955073 -0.01245898 4294967295
1.2163749 -0.52608174 -0.012405336 4294967295
1.2168834 -0.55544639 -0.010725617 4294967295
1.2178869 -0.58461297 -0.012221277 4294967295
1.2173862 -0.6152609 -0.013393044 4294967295
1.2161843 -0.64581388 -0.011995733 4294967295
1.2173725 -0.67484426 -0.011838078 4294967295
1.2181177 -0.70472687 -0.013988793 4294967295
1.2180197 -0.73386163 -0.014027238 4294967295
1.2173458 -0.76553231 -0.012234986 4294967295
1.2173605 -0.79540449 -0.013262153 4294967295
1.2173727 -0.82418454 -0.013603628 4294967295
1.2175184 -0.85547984 -0.014362812 4294967295
1.2167321 -0.88723832 -0.0075081587 4294967295
1.2165334 -0.90596753 0.0033891201 4294967295
1.255 -0.93581176 1.2170575 4294967295
1.2471365 -0.93408495 1.1944842 4294967295
1.2318333 -0.92946154 1.1750596 4294967295
1.2476459 -0.93756884 1.1643291 4294967295
1.2348669 -0.92926496 1.1299642 4294967295
1.2502364 -0.93214971 1.1357839 4294967295
1.234381 -0.9289239 1.1066618 4294967295
1.25126 -0.93264508 1.1047345 4294967295
1.2434232 -0.92803133 1.0734389 4294967295
1.2501667 -0.93143159 1.0825263 4294967295
1.2362103 -0.92706698 1.0500579 4294967295
1.2508684 -0.93576181 1.0425911 4294967295
1.2309999 -0.92978728 1.0018198 4294967295
1.2480776 -0.9342916 1.015027 4294967295
1.2347692 -0.92949349 0.9827404 4294967295
1.2488729 -0.93263292 0.98520792 4294967295
1.2579089 0.74478084 0.94496095 4294967295
1.2536668 0.70037329 0.94184923 4294967295
1.2577857 0.67212647 0.943308 4294967295
1.2589999 0.65712672 0.94267297 4294967295
1.2410002 -0.92840427 0.95469677 4294967295
1.2523749 -0.93120658 0.95023173 4294967295
1.2560717 0.73367 0.93259788 4294967295
1.249023 0.70286423 0.92659724 4294967295
1.2546927 0.67539692 0.92724586 4294967295
1.2589999 0.65725952 0.93311304 4294967295
1.232 -0.92958742 0.93741822 4294967295
1.2480375 -0.93584454 0.92515069 4294967295
1.2347693 -0.92888439 0.89133847 4294967295
1.2498076 -0.93297726 0.89584017 4294967295
1.2309999 -0.92978728 0.87900627 4294967295
1.2476383 -0.93610072 0.86500955 4294967295
1.2417778 -0.92922658 0.82834446 4294967295
1.2484108 -0.93229729 0.83751225 4294967295
1.2450747 -0.92372864 0.80522901 4294967295
1.245078 -0.92345864 0.77413213 4294967295
1.252 -0.93112111 0.76167214 4294967295
1.2438135 -0.92825592 0.74760354 4294967295
1.2519474 -0.9315328 0.74077791 4294967295
1.2437112 -0.92830497 0.70917064 4294967295
1.2498709 -0.93232644 0.72108829 4294967295
1.2493076 -0.92862868 0.69793034 4294967295
1.2470833 -0.93687177 0.68503368 4294967295
1.2341999 -0.92876494 0.64913428 4294967295
1.2502747 -0.93396378 0.65493047 4294967295
1.2339998 -0.92789811 0.62635237 4294967295
1.2513955 -0.93228024 0.62486047 4294967295
1.2349411 -0.9287166 0.59328902 4294967295
1.2516304 -0.93228465 0.59537762 4294967295
1.2432076 -0.92824799 0.56565672 4294967295
1.252353 -0.93069154 0.56354755 4294967295
1.2437778 -0.92791718 0.52871829 4294967295
1.2500882 -0.93190223 0.53908306 4294967295
1.2447399 -0.92688018 0.5107109 4294967295
1.2493846 -0.93327647 0.49649656 4294967295
1.2429999 -0.92582601 0.467388 4294967295
1.2491667 -0.93405616 0.48103896 4294967295
1.2447345 -0.92115051 0.4444479 4294967295
1.2467999 -0.92325461 0.41481507 4294967295
1.2464138 -0.9249329 0.38390541 4294967295
1.25275 -0.93058753 0.39304519 4294967295
1.2459867 -0.92254269 0.35380363 4294967295
1.2461032 -0.92333716 0.32627577 4294967295
1.2465756 -0.92095786 0.29485559 4294967295
1.2468499 -0.92352217 0.26441443 4294967295
1.2464148 -0.92265224 0.23499325 4294967295
1.2473943 -0.92443591 0.20599133 4294967295
1.2472793 -0.92391932 0.17506883 4294967295
1.24648 -0.91915184 0.14522594 4294967295
1.2468656 -0.91344911 0.11387137 4294967295
1.2485998 -0.91236657 0.084991962 4294967295
1.2475567 -0.91026807 0.056208432 4294967295
1.2468333 -0.91453069 0.024003953 4294967295
1.2500715 1.0614009 -0.017438531 4294967295
1.2490966 1.0344912 -0.014861345 4294967295
1.2470639 1.0053513 -0.015884876 4294967295
1.2464168 0.97464168 -0.012233615 4294967295
1.2480714 0.94540584 -0.011613488 4294967295
1.2458847 0.91429353 -0.012297034 4294967295
1.2463236 0.88435745 -0.013185263 4294967295
1.2453266 0.85523391 -0.013136387 4294967295
1.2469349 0.82525736 -0.012864292 4294967295
1.2452106 0.79631388 -0.009706676 4294967295
1.2464691 0.76514649 -0.010100961 4294967295
1.2439524 0.73934728 -0.013842642 4294967295
1.2488333 0.69783831 -0.016570032 4294967295
1.2466472 0.67471874 -0.013576508 4294967295
1.2474242 0.6446889 -0.016208887 4294967295
1.2477061 0.61451244 -0.015561461 4294967295
1.2473332 0.58443332 -0.014595509 4294967295
1.2471819 0.55518371 -0.015456796 4294967295
1.2464411 0.52558702 -0.011609316 4294967295
1.2468288 0.49374467 -0.010581493 4294967295
1.2482142 0.46556306 -0.012422144 4294967295
1.2451334 0.43528718 -0.011768579 4294967295
1.2465295 0.40621138 -0.010119915 4294967295
1.2466469 0.37460801 -0.012131572 4294967295
1.2472962 0.34688619 -0.016450763 4294967295
1.2481924 0.30906159 -0.017498553 4294967295
1.2470417 0.28636831 -0.01340425 4294967295
1.2444875 0.25429997 -0.013247967 4294967295
1.2450527 0.22617432 -0.01450938 4294967295
1.2459143 0.19418435 -0.014817655 4294967295
1.2447062 0.16465835 -0.011809587 4294967295
1.247094 0.13487676 -0.014163435 4294967295
1.2480358 0.10545754 -0.016042173 4294967295
1.2475002 0.074964426 -0.013105452 4294967295
1.2480235 0.045100093 -0.012101173 4294967295
1.2475612 0.014740824 -0.012109697 4294967295
1.2452501 -0.013698194 -0.0088508725 4294967295
1.2464502 -0.039599303 -0.0076365471 4294967295
1.2405237 -0.080519326 -0.011135936 4294967295
1.2465001 -0.10482857 -0.012576461 4294967295
1.2479032 -0.13474873 -0.010712624 4294967295
1.2486924 -0.16456178 -0.012160838 4294967295
1.245909 -0.19667563 -0.012020588 4294967295
1.2452263 -0.22456197 -0.014189482 4294967295
1.2478409 -0.25455368 -0.016138554 4294967295
1.2462413 -0.28342557 -0.010402918 4294967295
1.2454445 -0.31662959 -0.0094516873 4294967295
1.2453902 -0.34546757 -0.010689497 4294967295
1.2463168 -0.37413359 -0.010165691 4294967295
1.2456515 -0.40515438 -0.011293471 4294967295
1.2465498 -0.43537328 -0.011500955 4294967295
1.2480302 -0.46588731 -0.011024415 4294967295
1.2476665 -0.4954448 -0.012015641 4294967295
1.246822 -0.52430755 -0.012873113 4294967295
1.2470888 -0.55464113 -0.010935068 4294967295
1.2474446 -0.58552933 -0.010245442 4294967295
1.2465366 -0.6145457 -0.013575673 4294967295
1.2474413 -0.64499068 -0.016043484 4294967295
1.2474517 -0.67571253 -0.014348984 4294967295
1.2461044 -0.70558596 -0.011561394 4294967295
1.2461889 -0.73472607 -0.012527943 4294967295
1.2482042 -0.7645756 -0.012673676 4294967295
1.247372 -0.79471552 -0.011824787 4294967295
1.2456046 -0.82530725 -0.011606634 4294967295
1.2464892 -0.85500383 -0.012806773 4294967295
1.2472107 -0.88523233 -0.011324465 4294967295
1.2491965 -0.91019183 0.0016691685 4294967295
1.2589999 1.082146 -0.021288276 4294967295
1.255 1.0767591 -0.020536065 4294967295
1.2553333 0.73239577 -0.024565697 4294967295
1.24775 0.71310735 -0.022950649 4294967295
1.2545 0.33387458 -0.021530509 4294967295
1.2481905 0.32099614 -0.021448433 4294967295
1.277 -0.92897725 1.2331502 4294967295
1.2760414 -0.93200541 1.2228482 4294967295
1.2730315 -0.93675631 1.1950321 4294967295
1.2730168 -0.93824673 1.1646194 4294967295
1.2702636 -0.92839229 1.1342847 4294967295
1.2800001 -0.93107271 1.1396866 4294967295
1.2685002 -0.92912048 1.110855 4294967295
1.2744209 -0.93156093 1.1022053 4294967295
1.2701458 -0.92856288 1.0760689 4294967295
1.2810476 -0.93289346 1.06868 4294967295
1.2806667 -0.92915744 1.0321529 4294967295
1.2733473 -0.93641061 1.0459955 4294967295
1.2694131 -0.92784345 1.0178788 4294967295
1.274087 -0.93259275 1.0097671 4294967295
1.2690002 -0.92757231 0.98058635 4294967295
1.2735001 -0.93184584 0.99345642 4294967295
1.279031 0.79372269 0.94641483 4294967295
1.2646284 0.7660892 0.94657475 4294967295
1.2605 0.69300395 0.94610119 4294967295
1.26175 0.68417883 0.94652367 4294967295
1.2626798 0.64316201 0.94379193 4294967295
1.2700526 0.62047184 0.94374657 4294967295
1.2719474 0.55142534 0.94297373 4294967295
1.2701091 -0.92688292 0.9555648 4294967295
1.2817273 -0.93184257 0.94543546 4294967295
1.2822633 0.78819734 0.934816 4294967295
1.2723811 0.76360649 0.92945647 4294967295
1.269766 0.73614442 0.92186904 4294967295
1.2709426 0.70576811 0.91396922 4294967295
1.2635882 0.67297155 0.91290641 4294967295
1.2696999 0.64537781 0.92458498 4294967295
1.2759545 0.61399686 0.92753446 4294967295
1.2699999 0.58493024 0.92260379 4294967295
1.270579 0.55561906 0.92845118 4294967295
1.288 0.53928018 0.93746698 4294967295
1.2718856 -0.93255115 0.92565107 4294967295
1.2821667 0.69748133 0.9092961 4294967295
1.2744617 0.67166448 0.90725297 4294967295
1.2845454 0.65622658 0.90681005 4294967295
1.2725172 -0.93321478 0.8946054 4294967295
1.2704473 -0.92930996 0.86248589 4294967295
1.271513 -0.93164611 0.86644912 4294967295
1.2679423 -0.92802179 0.83620894 4294967295
1.2820001 -0.93220192 0.83379078 4294967295
1.2714794 -0.92449886 0.80388653 4294967295
1.2825 -0.93148762 0.81814444 4294967295
1.271085 -0.92583847 0.77530181 4294967295
1.2870001 -0.93127364 0.77489948 4294967295
1.2677555 -0.92700475 0.74637783 4294967295
1.277375 -0.93142152 0.73713422 4294967295
1.2705272 -0.92691517 0.71349609 4294967295
1.2742499 -0.93133289 0.72429478 4294967295
1.2686191 -0.92762321 0.69402742 4294967295
1.2729481 -0.93463367 0.68016744 4294967295
1.2692084 -0.92868114 0.64621216 4294967295
1.2729331 -0.93371218 0.66025662 4294967295
1.2684243 -0.92896301 0.63049442 4294967295
1.2734001 -0.93162262 0.62014633 4294967295
1.2673 -0.92896736 0.58688754 4294967295
1.2745434 -0.93183792 0.59873515 4294967295
1.2656388 -0.92853272 0.56560594 4294967295
1.2820476 -0.93221825 0.56499994 4294967295
1.2693332 -0.92756873 0.53043789 4294967295
1.2748619 -0.93258274 0.54081553 4294967295
1.2720001 -0.92612833 0.50526208 4294967295
1.2622856 -0.9316572 0.4944253 4294967295
1.2709558 -0.92822975 0.47443315 4294967295
1.2695924 -0.93203646 0.48243552 4294967295
1.2691907 -0.92594063 0.44415358 4294967295
1.285625 -0.93189526 0.44862264 4294967295
1.2717607 -0.92146504 0.41371667 4294967295
1.2712344 -0.92575687 0.38684577 4294967295
1.2719229 -0.92315298 0.35379484 4294967295
1.2722547 -0.92484993 0.32504463 4294967295
1.2729684 -0.92155182 0.29408985 4294967295
1.2710307 -0.92096567 0.26594791 4294967295
1.2704906 -0.92137873 0.23491213 4294967295
1.2706668 -0.92263049 0.20371607 4294967295
1.2701588 -0.92040116 0.1749348 4294967295
1.2709244 -0.91795212 0.14565533 4294967295
1.2719669 -0.91512668 0.11476961 4294967295
1.2673078 -0.89930052 0.080315888 4294967295
1.2715932 -0.90409786 0.086084604 4294967295
1.2722907 -0.90839344 0.055398405 4294967295
1.2709823 -0.90940917 0.022843331 4294967295
1.2819999 1.0820715 -0.019269705 4294967295
1.2710607 1.0648631 -0.016798615 4294967295
1.2718571 1.0346286 -0.014908731 4294967295
1.2715455 1.005187 -0.013785422 4294967295
1.2721081 0.97515053 -0.011186481 4294967295
1.2724183 0.94457757 -0.011626542 4294967295
1.272683 0.91539222 -0.01375109 4294967295
1.2699732 0.8851285 -0.012845516 4294967295
1.2701998 0.85429811 -0.01219058 4294967295
1.270964 0.8256256 -0.011356831 4294967295
1.2726665 0.79442304 -0.011946321 4294967295
1.2710646 0.765894 -0.012857139 4294967295
1.2678001 0.74136323 -0.017408669 4294967295
1.2720321 0.70414096 -0.014586329 4294967295
1.2720858 0.67550945 -0.015345216 4294967295
1.2710302 0.64518183 -0.017417014 4294967295
1.2723334 0.61402953 -0.01461333 4294967295
1.2722971 0.58564842 -0.014138401 4294967295
1.273162 0.5549947 -0.014018714 4294967295
1.272613 0.52509725 -0.012549698 4294967295
1.2742907 0.49506935 -0.01306051 4294967295
1.2729665 0.46454829 -0.012213171 4294967295
1.2708646 0.43598378 -0.010507524 4294967295
1.2689033 0.40372279 -0.010623097 4294967295
1.2710303 0.37505713 -0.013841987 4294967295
1.2716998 0.34277922 -0.015862584 4294967295
1.269424 0.31483227 -0.010783851 4294967295
1.269923 0.28538451 -0.0089603662 4294967295
1.2700002 0.2559436 -0.012453079 4294967295
1.272583 0.22475402 -0.016282856 4294967295
1.271515 0.1961527 -0.015742779 4294967295
1.2707241 0.16502152 -0.0142138 4294967295
1.27028 0.13587125 -0.01610148 4294967295
1.2694999 0.10244919 -0.017438054 4294967295
1.2710606 0.075166151 -0.013051689 4294967295
1.271613 0.044650339 -0.012037575 4294967295
1.2736329 0.014655212 -0.01278621 4294967295
1.2702914 -0.014857668 -0.0099193454 4294967295
1.2732859 -0.04267979 -0.011381149 4294967295
1.2692223 -0.084380783 -0.014865756 4294967295
1.2706666 -0.10553636 -0.013950706 4294967295
1.2709334 -0.13477565 -0.011658967 4294967295
1.2718966 -0.16520731 -0.013992667 4294967295
1.268889 -0.19272144 -0.012003541 4294967295
1.2687187 -0.22622757 -0.011559427 4294967295
1.2681174 -0.25488302 -0.01411587 4294967295
1.2697393 -0.28324649 -0.0132128 4294967295
1.2701499 -0.31397361 -0.012811542 4294967295
1.2715 -0.34665421 -0.011373937 4294967295
1.2718126 -0.37549683 -0.01017803 4294967295
1.2700297 -0.4061425 -0.010931969 4294967295
1.2724997 -0.43410942 -0.011720002 4294967295
1.2725912 -0.46513724 -0.013700545 4294967295
1.2708001 -0.49642414 -0.011801481 4294967295
1.2721386 -0.52423817 -0.011580825 4294967295
1.2710937 -0.5545283 -0.011358976 4294967295
1.272862 -0.58549511 -0.0097130537 4294967295
1.2703226 -0.61538243 -0.012064517 4294967295
1.2715292 -0.64435542 -0.015459716 4294967295
1.2726287 -0.67536217 -0.017262042 4294967295
1.271243 -0.70481122 -0.011550128 4294967295
1.2707295 -0.73504466 -0.0095761418 4294967295
1.271946 -0.76455194 -0.010879934 4294967295
1.2727109 -0.79548424 -0.010884881 4294967295
1.2713407 -0.82561398 -0.009606123 4294967295
1.269878 -0.8548494 -0.0097044706 4294967295
1.2705168 -0.88742507 -0.0078402758 4294967295
1.2704747 -0.90509999 0.0026149154 4294967295
1.284375 1.1197869 -0.023626447 4294967295
1.2763181 1.0957955 -0.02319473 4294967295
1.2844999 0.75313586 -0.024801552 4294967295
1.2746316 0.73381782 -0.027372897 4294967295
1.26425 0.71633208 -0.023543179 4294967295
1.288 0.12688377 -0.021802902 4294967295
1.2817143 0.10840753 -0.021279395 4294967295
1.3046999 -0.92701417 1.2443764 4294967295
1.3099999 -0.93063664 1.2434449 4294967295
1.3018461 -0.92868984 1.2354052 4294967295
1.3017941 -0.9326365 1.2225655 4294967295
1.3002763 -0.93603551 1.1937814 4294967295
1.3058203 -0.92825359 1.1614537 4294967295
1.2971113 -0.93482029 1.1688125 4294967295
1.3058935 -0.92793006 1.133886 4294967295
1.2947037 -0.93150324 1.1359003 4294967295
1.3057199 -0.92773712 1.1047919 4294967295
1.2949376 -0.93234921 1.1049587 4294967295
1.3037289 -0.92548072 1.0744686 4294967295
1.2930385 -0.93129456 1.0730643 4294967295
1.3028359 -0.92639923 1.0441431 4294967295
1.2928078 -0.93378007 1.0512769 4294967295
1.3034375 -0.92701328 1.0232561 4294967295
1.3009616 -0.9334268 1.0106008 4294967295
1.317 0.50253171 0.97131181 4294967295
1.3015454 -0.92868668 0.97369558 4294967295
1.3021592 -0.93234372 0.9875595 4294967295
1.2928001 0.8172487 0.94201952 4294967295
1.29 0.80948937 0.94110823 4294967295
1.2957143 0.54350877 0.95515525 4294967295
1.2965995 0.52520943 0.95236784 4294967295
1.301887 0.50060177 0.95178354 4294967295
1.3033861 -0.92644739 0.95469904 4294967295
1.2938331 -0.93133837 0.95198929 4294967295
1.318 0.84234965 0.92272675 4294967295
1.3044822 0.82008189 0.92670995 4294967295
1.3006284 0.79578823 0.92144227 4294967295
1.3018434 0.76564676 0.91629648 4294967295
1.2986944 0.7372756 0.91421568 4294967295
1.3042858 0.70547777 0.91245407 4294967295
1.308 0.68421936 0.91056681 4294967295
1.2916774 0.63913465 0.91680861 4294967295
1.2915264 0.62056321 0.91479361 4294967295
1.2914168 0.58140403 0.91235667 4294967295
1.2943572 0.55148375 0.91860425 4294967295
1.2983874 0.52518398 0.92483073 4294967295
1.3061712 0.49951974 0.9268198 4294967295
1.3059324 -0.9265312 0.92549241 4294967295
1.2952751 -0.93392408 0.92253828 4294967295
1.314 0.78948963 0.90930969 4294967295
1.3101176 0.73073965 0.90797174 4294967295
1.2996 0.70937765 0.90834713 4294967295
1.2981 0.67660534 0.90790159 4294967295
1.2915384 0.64229506 0.90542138 4294967295
1.2950321 0.61530542 0.90659618 4294967295
1.2956157 0.58570707 0.90540147 4294967295
1.2961711 0.55560839 0.9052009 4294967295
1.3032055 0.52284104 0.90502441 4294967295
1.3087333 0.50341386 0.90592563 4294967295
1.3057288 -0.92633772 0.89540684 4294967295
1.2950239 -0.93428314 0.89718008 4294967295
1.304 -0.92895097 0.86197287 4294967295
1.3024358 -0.93179625 0.86580038 4294967295
1.3053333 -0.92888921 0.84667349 4294967295
1.3035468 -0.93265569 0.83427596 4294967295
1.303 -0.92644286 0.80265307 4294967295
1.2981817 -0.93175453 0.81645072 4294967295
1.3053154 -0.92573118 0.77504408 4294967295
1.2941579 -0.93134135 0.77510214 4294967295
1.3055619 -0.92714739 0.74541819 4294967295
1.2941034 -0.93230367 0.74531698 4294967295
1.3019716 -0.9281466 0.71517044 4294967295
1.2982962 -0.93081462 0.71496934 4294967295
1.3043751 -0.92638689 0.68374372 4294967295
1.294485 -0.93258059 0.68474066 4294967295
1.3043295 -0.92210537 0.65415418 4294967295
1.2935455 -0.93273252 0.65751201 4294967295
1.3051955 -0.92338276 0.62569118 4294967295
1.293793 -0.93208086 0.62518585 4294967295
1.304572 -0.92498475 0.59753287 4294967295
1.2950606 -0.93180323 0.59437352 4294967295
1.306 -0.92885667 0.57968402 4294967295
1.3026338 -0.93307239 0.56505495 4294967295
1.30436 -0.92804396 0.53071082 4294967295
1.3002076 -0.93249023 0.53958815 4294967295
1.3014145 -0.92711735 0.50562 4294967295
1.293 -0.93011451 0.49209049 4294967295
1.3034073 -0.92812657 0.48122761 4294967295
1.3003113 -0.9321472 0.47254497 4294967295
1.3073332 -0.92675209 0.43238181 4294967295
1.3013402 -0.93367606 0.44596088 4294967295
1.3026237 -0.92147517 0.41573992 4294967295
1.3028002 -0.92590624 0.38542557 4294967295
1.2936363 -0.93043536 0.3788408 4294967295
1.3022467 -0.92545253 0.35515186 4294967295
1.294 -0.93008387 0.36672109 4294967295
1.3010949 -0.92545795 0.32384786 4294967295
1.291 -0.93017584 0.31690624 4294967295
1.3013294 -0.92115772 0.29573458 4294967295
1.3027695 -0.92218214 0.26475933 4294967295
1.3021706 -0.92296737 0.23495948 4294967295
1.301864 -0.92302614 0.20358032 4294967295
1.301862 -0.91828781 0.17632961 4294967295
1.3010758 -0.91764271 0.14507961 4294967295
1.3021781 -0.91633421 0.11481345 4294967295
1.3056363 -0.89830726 0.075980455 4294967295
1.3017641 -0.90736115 0.087118715 4294967295
1.3071667 -0.89885491 0.066174507 4294967295
1.3020003 -0.90623409 0.054211974 4294967295
1.3028162 -0.9123823 0.025034338 4294967295
1.3061763 1.1476336 -0.017133296 4294967295
1.3056111 1.1287209 -0.018596172 4294967295
1.3035135 1.092847 -0.016046107 4294967295
1.3016123 1.0654272 -0.015300512 4294967295
1.3015002 1.0356551 -0.014619887 4294967295
1.3021837 1.0049185 -0.011833608 4294967295
1.301851 0.97453547 -0.0090309381 4294967295
1.3012308 0.94470501 -0.010218203 4294967295
1.3009202 0.91489077 -0.012062669 4294967295
1.2992384 0.8853845 -0.012948751 4294967295
1.3017074 0.8555522 -0.014144897 4294967295
1.3035152 0.8239817 -0.015847564 4294967295
1.3044734 0.79433936 -0.015093684 4294967295
1.3053998 0.76560318 -0.016246498 4294967295
1.3064001 0.73230237 -0.016440451 4294967295
1.3020002 0.70444918 -0.016443431 4294967295
1.299238 0.67805237 -0.018770874 4294967295
1.29775 0.63519192 -0.019125342 4294967295
1.3015653 0.61280626 -0.015538037 4294967295
1.2990402 0.58494443 -0.012688041 4294967295
1.3035161 0.55546206 -0.011525869 4294967295
1.3035789 0.52676851 -0.015047371 4294967295
1.303647 0.49439263 -0.015379429 4294967295
1.3026427 0.46616933 -0.012898564 4294967295
1.3020003 0.43369535 -0.013157487 4294967295
1.3031499 0.40501118 -0.014624596 4294967295
1.3037949 0.37461883 -0.017644942 4294967295
1.3010528 0.34510556 -0.013687611 4294967295
1.3020881 0.31493422 -0.0082504749 4294967295
1.3000624 0.28434697 -0.010086 4294967295
1.3026907 0.25403655 -0.014646828 4294967295
1.302163 0.22488423 -0.01734215 4294967295
1.3020751 0.19472472 -0.017133653 4294967295
1.3038055 0.16616611 -0.018264771 4294967295
1.299 0.14454561 -0.019265175 4294967295
1.3045714 0.093489982 -0.018811285 4294967295
1.3018538 0.075574569 -0.014791071 4294967295
1.3014663 0.045164168 -0.015377641 4294967295
1.3031335 0.014987405 -0.016063154 4294967295
1.3024846 -0.015645178 -0.014692187 4294967295
1.302422 -0.045609552 -0.013809562 4294967295
1.30275 -0.069614314 -0.018932819 4294967295
1.2990834 -0.10662292 -0.017915964 4294967295
1.3034643 -0.13534184 -0.016410232 4294967295
1.2992307 -0.16660844 -0.017241597 4294967295
1.3014691 -0.19403562 -0.015941203 4294967295
1.3012607 -0.22386135 -0.016080201 4294967295
1.29892 -0.2545332 -0.017702639 4294967295
1.2992778 -0.28214511 -0.018836439 4294967295
1.2983845 -0.31817919 -0.019447744 4294967295
1.3017882 -0.34420329 -0.015964687 4294967295
1.3010968 -0.37497124 -0.012399137 4294967295
1.3011799 -0.40499583 -0.013623714 4294967295
1.301273 -0.43528557 -0.013373315 4294967295
