# .PCD v0.7 - Point Cloud Data file format
VERSION 0.7
FIELDS x y z rgb
SIZE 4 4 4 4
TYPE F F F U
COUNT 1 1 1 1
WIDTH 1073
HEIGHT 1
VIEWPOINT 0 0 0 1 0 0 0
POINTS 1073
DATA ascii
1.0351919 -0.52460927 -0.0098264217 4294967295
1.0343378 -0.5558331 -0.0085021257 4294967295
1.0351501 -0.5853557 -0.0092113614 4294967295
1.0351863 -0.61503905 -0.009203434 4294967295
1.0353765 -0.64483613 -0.0082038045 4294967295
1.0356877 -0.67572665 -0.0062663555 4294967295
1.0347234 -0.70455986 -0.0069642663 4294967295
1.034685 -0.73467427 -0.0068723559 4294967295
1.0350859 -0.76578087 -0.0062656999 4294967295
1.0349507 -0.79578787 -0.0072257519 4294967295
1.0353767 -0.82542133 -0.010717094 4294967295
1.0360478 -0.85465974 -0.01072669 4294967295
1.0353084 -0.88566947 -0.0065262318 4294967295
1.0362173 -0.90834689 0.0021823049 4294967295
1.076 -0.92880046 1.1209004 4294967295
1.0683912 -0.9287951 1.1059301 4294967295
1.0617762 -0.93286031 1.1010565 4294967295
1.0700001 -0.92982888 1.0604502 4294967295
1.0638334 -0.93369627 1.0758541 4294967295
1.0659562 -0.92762017 1.0445132 4294967295
1.0595834 -0.93065387 1.0430467 4294967295
1.0636808 -0.92878276 1.015425 4294967295
1.0638572 -0.93062687 1.015646 4294967295
1.0700792 -0.92743701 0.98233938 4294967295
1.0600555 -0.93330622 0.98705173 4294967295
1.0698858 -0.92851061 0.96031243 4294967295
1.063 -0.93396497 0.95451021 4294967295
1.0620962 -0.92826879 0.9231472 4294967295
1.0661035 -0.93146497 0.93182421 4294967295
1.0634205 -0.92830223 0.8952077 4294967295
1.0662608 -0.93072176 0.89197272 4294967295
1.06671 -0.92721045 0.86330235 4294967295
1.06055 -0.93035018 0.8631289 4294967295
1.065518 -0.92464113 0.83525556 4294967295
1.0572963 -0.93059009 0.83916563 4294967295
1.0619999 -0.92483735 0.80511361 4294967295
1.064515 -0.92777115 0.77788615 4294967295
1.0646898 -0.9308753 0.76744962 4294967295
1.0660805 -0.92788082 0.74312025 4294967295
1.0608499 -0.93112564 0.74924874 4294967295
1.063375 -0.9289214 0.71827936 4294967295
1.0643333 -0.93170893 0.71100223 4294967295
1.0651668 -0.92839843 0.6763218 4294967295
1.0637624 -0.93213367 0.68930298 4294967295
1.063574 -0.92670357 0.6560992 4294967295
1.0574166 -0.93074089 0.64397085 4294967295
1.0670618 -0.92704916 0.62471104 4294967295
1.0579169 -0.93092459 0.62602443 4294967295
1.0659558 -0.9284603 0.59211886 4294967295
1.0625685 -0.93148094 0.60054207 4294967295
1.0657771 -0.92596835 0.56571329 4294967295
1.0589119 -0.9311682 0.55986947 4294967295
1.0694999 -0.92738771 0.54151911 4294967295
1.0626097 -0.93264663 0.53339189 4294967295
1.063362 -0.92591947 0.50496048 4294967295
1.0648333 -0.93061739 0.51925081 4294967295
1.0627375 -0.92745119 0.47519413 4294967295
1.0751666 -0.93011761 0.47313482 4294967295
1.0663474 -0.92480528 0.44374454 4294967295
1.0576251 -0.93120992 0.44502947 4294967295
1.0649996 -0.92421782 0.41737071 4294967295
1.0559413 -0.93092656 0.40979451 4294967295
1.06452 -0.92563319 0.38475031 4294967295
1.0640084 -0.92534387 0.35375798 4294967295
1.0632913 -0.92697692 0.32546008 4294967295
1.079 -0.93013942 0.32146722 4294967295
1.0638846 -0.92546982 0.29430193 4294967295
1.059 -0.93009812 0.30303359 4294967295
1.0642369 -0.92488647 0.26626873 4294967295
1.0601 -0.93057024 0.25558183 4294967295
1.0662633 -0.92798656 0.2340343 4294967295
1.0600811 -0.93095368 0.23773324 4294967295
1.0621693 -0.9267115 0.20369607 4294967295
1.079 -0.93013942 0.21506998 4294967295
1.0633142 -0.92491829 0.17489046 4294967295
1.0640922 -0.91619062 0.14515305 4294967295
1.0650346 -0.90715182 0.11711431 4294967295
1.0620722 -0.91047251 0.084160119 4294967295
1.0635765 -0.9079681 0.054178745 4294967295
1.0631999 -0.91056961 0.024434328 4294967295
1.0636182 0.90976316 -0.0083644986 4294967295
1.0627316 0.88468075 -0.0081955791 4294967295
1.0618591 0.85602617 -0.0079888701 4294967295
1.0635483 0.82465744 -0.010903418 4294967295
1.0637745 0.79534543 -0.011745572 4294967295
1.0651155 0.76568592 -0.0091789961 4294967295
1.0644654 0.73464918 -0.0094153881 4294967295
1.0650498 0.70496571 -0.0094968677 4294967295
1.064127 0.67558461 -0.0090386271 4294967295
1.0663868 0.64510971 -0.010164142 4294967295
1.0645521 0.61486542 -0.011134207 4294967295
1.0655468 0.58359379 -0.012330174 4294967295
1.0631665 0.55550301 -0.0091499686 4294967295
1.0640267 0.52463776 -0.0098498464 4294967295
1.0660934 0.49541709 -0.010906696 4294967295
1.0644729 0.46505573 -0.008043468 4294967295
1.0639098 0.43517929 -0.0067176819 4294967295
1.0628238 0.40501824 -0.0068318844 4294967295
1.0637313 0.37459055 -0.0067088604 4294967295
1.0644724 0.3448751 -0.008076489 4294967295
1.0646991 0.31471026 -0.0082421303 4294967295
1.0639436 0.28521648 -0.007768333 4294967295
1.0633684 0.25546187 -0.0074298978 4294967295
1.0646843 0.2249009 -0.0086078644 4294967295
1.0637971 0.19525668 -0.0067536831 4294967295
1.0648139 0.16417749 -0.0091676116 4294967295
1.0652384 0.13499466 -0.0079717636 4294967295
1.064558 0.10551508 -0.0075880289 4294967295
1.0633043 0.075429127 -0.0079528689 4294967295
1.0634561 0.044931158 -0.0096114278 4294967295
1.0642899 0.014116494 -0.0096755624 4294967295
1.0628222 -0.013811657 -0.0080699921 4294967295
1.063614 -0.044521485 -0.007583499 4294967295
1.0633661 -0.075032197 -0.007343173 4294967295
1.0628537 -0.10445672 -0.0081698298 4294967295
1.0639864 -0.13483104 -0.0076233149 4294967295
1.0641803 -0.1644133 -0.0064333677 4294967295
1.065184 -0.19541843 -0.0076631308 4294967295
1.0642736 -0.22497684 -0.0078582168 4294967295
1.0642815 -0.25427493 -0.0086536407 4294967295
1.0636063 -0.28514746 -0.0081080198 4294967295
1.0637046 -0.3150661 -0.0074389577 4294967295
1.0642534 -0.34585151 -0.0087898374 4294967295
1.064405 -0.37510124 -0.009205699 4294967295
1.0647143 -0.40485799 -0.0093577504 4294967295
1.0647165 -0.43447116 -0.0086017251 4294967295
1.0629344 -0.46602267 -0.0065336227 4294967295
1.0636841 -0.49547637 -0.0079724193 4294967295
1.0634878 -0.5248661 -0.0094621778 4294967295
1.0640994 -0.55458528 -0.0085995197 4294967295
1.0646892 -0.58502215 -0.0080207586 4294967295
1.0644094 -0.61542529 -0.0069106221 4294967295
1.0637308 -0.64498663 -0.0070410371 4294967295
1.0647691 -0.67440271 -0.0074577928 4294967295
1.0633637 -0.70473772 -0.0064554214 4294967295
1.0631449 -0.73519188 -0.0075511932 4294967295
1.0652058 -0.76490462 -0.0077969432 4294967295
1.063712 -0.79504067 -0.0069103837 4294967295
1.0634507 -0.82536232 -0.006960094 4294967295
1.0633373 -0.85568374 -0.0092445016 4294967295
1.0636187 -0.88622904 -0.0069103241 4294967295
1.0630753 -0.90860271 0.0020597577 4294967295
1.0899615 -0.92720568 1.125777 4294967295
1.1059999 -0.93031949 1.1222574 4294967295
1.0985231 -0.92796981 1.1065559 4294967295
1.0889727 -0.93272495 1.1029606 4294967295
1.0956 -0.92868555 1.0881214 4294967295
1.0926667 -0.93498898 1.0769386 4294967295
1.0942829 -0.92717999 1.0429747 4294967295
1.0899525 -0.93075508 1.0464158 4294967295
1.097535 -0.92881191 1.0128112 4294967295
1.0904443 -0.93152308 1.016477 4294967295
1.0942159 -0.92743129 0.98448569 4294967295
1.0854286 -0.93100005 0.99700892 4294967295
1.0933473 -0.92538899 0.96017885 4294967295
1.091127 -0.93165839 0.94951236 4294967295
1.0977333 -0.92904437 0.9195137 4294967295
1.0918372 -0.93166769 0.92637348 4294967295
1.0971901 -0.92844582 0.89373809 4294967295
1.0866191 -0.93129432 0.89860272 4294967295
1.0925092 -0.92252046 0.86462986 4294967295
1.0857778 -0.93037945 0.87304431 4294967295
1.0927207 -0.92299217 0.83482218 4294967295
1.0941617 -0.92685699 0.804524 4294967295
1.0951205 -0.92655712 0.77566719 4294967295
1.0856365 -0.93161601 0.76654184 4294967295
1.0939629 -0.92732823 0.74822539 4294967295
1.0924838 -0.93166357 0.73881572 4294967295
1.0982001 -0.92936027 0.70217192 4294967295
1.0942062 -0.93383592 0.71510398 4294967295
1.0967067 -0.92619997 0.68286586 4294967295
1.0868981 -0.93250966 0.68882036 4294967295
1.096828 -0.92765552 0.65593994 4294967295
1.0877187 -0.93062741 0.65291452 4294967295
1.0926175 -0.92587352 0.62519813 4294967295
1.0949832 -0.92768955 0.59202248 4294967295
1.0912859 -0.9313134 0.59650493 4294967295
1.0927851 -0.92317706 0.56599927 4294967295
1.0942454 -0.92561477 0.53634435 4294967295
1.0856296 -0.93221051 0.52902991 4294967295
1.0936579 -0.92659521 0.50542295 4294967295
1.0855001 -0.93070173 0.5179776 4294967295
1.0962793 -0.92810798 0.47445148 4294967295
1.0876451 -0.93123674 0.47470689 4294967295
1.092932 -0.92433476 0.4455249 4294967295
1.0930511 -0.92440391 0.41290516 4294967295
1.0935878 -0.92542261 0.38487685 4294967295
1.082 -0.93021518 0.39622796 4294967295
1.0941417 -0.92434323 0.35580128 4294967295
1.0941483 -0.92607874 0.33256578 4294967295
1.0943335 -0.93260115 0.31819886 4294967295
1.0931286 -0.92407775 0.2925145 4294967295
1.0968461 -0.93139732 0.30722845 4294967295
1.0932937 -0.92260957 0.26483586 4294967295
1.0937209 -0.92609447 0.23595458 4294967295
1.086 -0.93067032 0.22465715 4294967295
1.0963881 -0.92621863 0.20293829 4294967295
1.0877999 -0.93130058 0.20887101 4294967295
1.0936298 -0.92250562 0.17583016 4294967295
1.0929781 -0.91572398 0.1457698 4294967295
1.0916966 -0.90752357 0.11437887 4294967295
1.0944057 -0.91462225 0.085261196 4294967295
1.0941353 -0.9143278 0.05604133 4294967295
1.0934434 -0.90724975 0.024540514 4294967295
1.107 0.96305567 -0.011157811 4294967295
1.0999781 0.94205719 -0.0091598034 4294967295
1.0942065 0.9147175 -0.0074327588 4294967295
1.0929828 0.88680649 -0.0097531676 4294967295
1.0937023 0.85358268 -0.014179885 4294967295
1.0945555 0.82433206 -0.011711121 4294967295
1.0938164 0.79538792 -0.0077869892 4294967295
1.094238 0.76605308 -0.0083386898 4294967295
1.0925509 0.73570222 -0.0089931488 4294967295
1.093159 0.70389265 -0.0078147054 4294967295
1.0944558 0.67514318 -0.0098589659 4294967295
1.0938307 0.64477766 -0.011295319 4294967295
1.0935457 0.61356866 -0.013287008 4294967295
1.0929364 0.58602929 -0.009876132 4294967295
1.0927145 0.55417997 -0.0092176199 4294967295
1.0931715 0.52450007 -0.0086304545 4294967295
1.0930126 0.49549404 -0.0073121786 4294967295
1.0934583 0.46519423 -0.0074096322 4294967295
1.09395 0.4349204 -0.0077917576 4294967295
1.0936899 0.40492514 -0.0082472563 4294967295
1.0944225 0.37502301 -0.0075799823 4294967295
1.0938833 0.34555805 -0.0086519718 4294967295
1.0932332 0.31491956 -0.0083376765 4294967295
1.0930002 0.28467393 -0.0078843236 4294967295
1.0947709 0.25440302 -0.0092410445 4294967295
1.0936666 0.22479051 -0.0087564588 4294967295
1.0938359 0.19424717 -0.0081678033 4294967295
1.093026 0.16533777 -0.0077341795 4294967295
1.0928096 0.1354197 -0.0058355927 4294967295
1.0938156 0.10501781 -0.0072447658 4294967295
1.0939335 0.075230993 -0.0097292066 4294967295
1.0937312 0.044302016 -0.011641085 4294967295
1.0946354 0.01619905 -0.01061964 4294967295
1.0934856 -0.015918316 -0.0093483329 4294967295
1.0938002 -0.045314875 -0.0088222623 4294967295
1.0936379 -0.075213559 -0.0085737705 4294967295
1.0926274 -0.10311945 -0.0082904696 4294967295
1.0926367 -0.13613473 -0.0082776546 4294967295
1.0924823 -0.16513301 -0.0077957511 4294967295
1.0949014 -0.19507654 -0.0079573989 4294967295
1.0945003 -0.22487505 -0.0077831149 4294967295
1.0936366 -0.25571433 -0.0092936754 4294967295
1.0953126 -0.28444022 -0.010246396 4294967295
1.0951692 -0.31445637 -0.0093561411 4294967295
1.0937907 -0.34464774 -0.0084823966 4294967295
1.0939021 -0.37487131 -0.0073853135 4294967295
1.0951968 -0.40559855 -0.0080264211 4294967295
1.0949411 -0.43510607 -0.0081120133 4294967295
1.0935001 -0.46485999 -0.0082037449 4294967295
1.0930679 -0.49641269 -0.0073946714 4294967295
1.0935525 -0.52491385 -0.0085570216 4294967295
1.0950979 -0.55532885 -0.0093199015 4294967295
1.0937728 -0.58590847 -0.0080931187 4294967295
1.0931641 -0.6146459 -0.0060315728 4294967295
1.0924484 -0.64471829 -0.0055083632 4294967295
1.0943333 -0.67533088 -0.0084429979 4294967295
1.0949131 -0.70425004 -0.0080731511 4294967295
1.0934502 -0.73528945 -0.0084393024 4294967295
1.0942084 -0.76511371 -0.0075660944 4294967295
1.0943182 -0.79454643 -0.0077371001 4294967295
1.0936725 -0.82480109 -0.0079371929 4294967295
1.0938716 -0.85626894 -0.0079474449 4294967295
1.0938921 -0.88767844 -0.0040971041 4294967295
1.0905399 -0.90431291 0.0033996105 4294967295
1.138 -0.93347335 1.150244 4294967295
1.1266944 -0.92774022 1.1287984 4294967295
1.1209133 -0.93185067 1.1350647 4294967295
1.1219493 -0.92685789 1.1084516 4294967295
1.1244667 -0.93298393 1.0963843 4294967295
1.1292942 -0.92861807 1.0634148 4294967295
1.1239346 -0.93604046 1.0778805 4294967295
1.1269059 -0.92793077 1.0457292 4294967295
1.1173333 -0.93139678 1.0401876 4294967295
1.1270881 -0.92587399 1.0148437 4294967295
1.1155854 -0.93174523 1.0162368 4294967295
1.1258684 -0.9283694 0.98402703 4294967295
1.122226 -0.93080074 0.98867083 4294967295
1.1262788 -0.92665833 0.95285749 4294967295
1.120025 -0.93094587 0.95366001 4294967295
1.127429 -0.92522478 0.92638755 4294967295
1.1149999 -0.93121302 0.92553836 4294967295
1.1242208 -0.92755258 0.89297378 4294967295
1.1204666 -0.93047523 0.89884311 4294967295
1.124247 -0.92558718 0.86549723 4294967295
1.1238528 -0.92679256 0.83517265 4294967295
1.12 -0.93036962 0.82453227 4294967295
1.1230313 -0.92849368 0.80366892 4294967295
1.1248648 -0.9309479 0.80873752 4294967295
1.1237432 -0.92630303 0.77492654 4294967295
1.1261265 -0.92685729 0.74546385 4294967295
1.1161516 -0.93257201 0.73949462 4294967295
1.127418 -0.92791396 0.71558332 4294967295
1.1195923 -0.93395084 0.71658993 4294967295
1.1226753 -0.92341632 0.68464494 4294967295
1.113 -0.93104291 0.69998145 4294967295
1.1222359 -0.92533833 0.65555298 4294967295
1.1257144 -0.92745584 0.62652707 4294967295
1.1194284 -0.93195724 0.61493582 4294967295
1.1262609 -0.92615718 0.59240013 4294967295
1.1202308 -0.93330288 0.60019034 4294967295
1.1233332 -0.92507404 0.56503046 4294967295
1.137 -0.93001491 0.55613256 4294967295
1.1242045 -0.92772329 0.53550619 4294967295
1.13225 -0.93002069 0.52575439 4294967295
1.1218154 -0.92801994 0.50767189 4294967295
1.1268237 -0.93115282 0.49878958 4294967295
1.1195 -0.92930132 0.47804412 4294967295
1.1243335 -0.93269622 0.47525299 4294967295
1.1215633 -0.92754012 0.4415375 4294967295
1.13 -0.93168819 0.45364419 4294967295
1.1236843 -0.9280715 0.41521013 4294967295
1.1265237 -0.93046296 0.41576958 4294967295
1.1236471 -0.92500412 0.38474631 4294967295
1.1224847 -0.92233974 0.35514408 4294967295
1.1261224 -0.92572546 0.3262271 4294967295
1.1178379 -0.93451548 0.31740332 4294967295
1.1238735 -0.92620963 0.29365987 4294967295
1.1208076 -0.93322033 0.30456954 4294967295
1.1230372 -0.92240518 0.26442233 4294967295
1.1243334 -0.92471105 0.23502371 4294967295
1.1226379 -0.92500132 0.2055786 4294967295
1.1224899 -0.92238408 0.17553046 4294967295
1.1238718 -0.91710198 0.14523891 4294967295
1.1263739 -0.91559857 0.11597195 4294967295
1.1241962 -0.91341025 0.084080875 4294967295
1.1242899 -0.91375721 0.054370821 4294967295
1.1242906 -0.9104284 0.025643975 4294967295
1.1222501 0.96830612 -0.0071375966 4294967295
1.1221163 0.94521415 -0.0067142844 4294967295
1.1230478 0.91473687 -0.0091841817 4294967295
1.1246707 0.88581604 -0.016110361 4294967295
1.1237189 0.85449183 -0.012990355 4294967295
1.122619 0.82543528 -0.0060752034 4294967295
1.123328 0.79381591 -0.0067304969 4294967295
1.1237577 0.76506144 -0.0090190172 4294967295
1.1235789 0.73557705 -0.010194063 4294967295
1.1244838 0.70407242 -0.008535862 4294967295
1.1220808 0.67554295 -0.010561347 4294967295
1.1216664 0.64541465 -0.015363395 4294967295
1.1224898 0.61452568 -0.012641013 4294967295
1.1247842 0.58497989 -0.012378514 4294967295
1.1237414 0.55507511 -0.010709226 4294967295
1.1231109 0.52556372 -0.0071370602 4294967295
1.1240834 0.49504885 -0.0078108907 4294967295
1.1243609 0.46548411 -0.0086194277 4294967295
1.1247245 0.43458885 -0.0089126825 4294967295
1.1244545 0.40565655 -0.010000348 4294967295
1.1248772 0.37376067 -0.008772552 4294967295
1.122375 0.34433874 -0.0077250004 4294967295
1.1224385 0.31457895 -0.0074924827 4294967295
1.1237175 0.28542984 -0.0075144172 4294967295
1.1256813 0.25524706 -0.0098170042 4294967295
1.1236269 0.2252973 -0.0098105073 4294967295
1.1245 0.19518937 -0.0094671845 4294967295
1.1233153 0.16488357 -0.0072833896 4294967295
1.1225438 0.13488923 -0.006918788 4294967295
1.1240333 0.10455648 -0.0078319311 4294967295
1.1239997 0.075127229 -0.010234356 4294967295
1.123174 0.045225859 -0.010255754 4294967295
1.1242876 0.014628479 -0.0095457435 4294967295
1.1232201 -0.014895347 -0.0086402893 4294967295
1.1247286 -0.044878725 -0.0090473294 4294967295
1.1238259 -0.075090699 -0.0089421868 4294967295
1.123137 -0.10564115 -0.008788228 4294967295
1.1242083 -0.13476039 -0.0094943047 4294967295
1.1230501 -0.16442141 -0.0093633533 4294967295
1.1238596 -0.19527435 -0.0079962015 4294967295
1.123559 -0.22516757 -0.0061579347 4294967295
1.1232948 -0.25511065 -0.0071482658 4294967295
1.1243635 -0.28432968 -0.0092252493 4294967295
1.1244502 -0.3156828 -0.01029098 4294967295
1.1245298 -0.34509638 -0.0093330145 4294967295
1.1235094 -0.37562656 -0.0078037381 4294967295
1.1238242 -0.40505096 -0.0074775219 4294967295
1.1230844 -0.43505046 -0.0072597265 4294967295
1.1228511 -0.46534786 -0.0083301067 4294967295
1.1229817 -0.49456051 -0.0092983246 4294967295
1.1233461 -0.52596444 -0.0089564919 4294967295
1.1230714 -0.5551129 -0.0097309947 4294967295
1.1251431 -0.58491135 -0.0093557239 4294967295
1.1238028 -0.61526513 -0.0075482726 4294967295
1.1231154 -0.64446419 -0.0068406463 4294967295
1.1223335 -0.67543507 -0.008325398 4294967295
1.1244825 -0.70526814 -0.0080519319 4294967295
1.1240002 -0.73554873 -0.0093711615 4294967295
1.1248689 -0.76406765 -0.0083068609 4294967295
1.1241024 -0.79488093 -0.0085688829 4294967295
1.1240999 -0.8254239 -0.0082290173 4294967295
1.1252081 -0.85437119 -0.0080459118 4294967295
1.1233662 -0.88793916 -0.0029959679 4294967295
1.1211612 -0.90308797 0.0057815909 4294967295
1.1522667 -0.93472439 1.1574252 4294967295
1.1465 -0.92910111 1.1229992 4294967295
1.1535224 -0.93254966 1.1355555 4294967295
1.1581177 -0.92751068 1.1028384 4294967295
1.1492364 -0.9325884 1.1046925 4294967295
1.1550519 -0.92651546 1.0734739 4294967295
1.1459656 -0.93257385 1.0803938 4294967295
1.1527158 -0.92602164 1.0463085 4294967295
1.1670001 -0.93018496 1.0309228 4294967295
1.1519843 -0.9280389 1.0158005 4294967295
1.158125 -0.93077242 1.0105921 4294967295
1.1551818 -0.92830491 0.98402798 4294967295
1.1503421 -0.93075442 0.98708677 4294967295
1.1536444 -0.92193979 0.95390058 4294967295
1.1436666 -0.9305988 0.96454132 4294967295
1.1528949 -0.92449564 0.93092537 4294967295
1.1548648 -0.93169308 0.91668403 4294967295
1.1541606 -0.92747098 0.88911045 4294967295
1.1526573 -0.93169796 0.90321606 4294967295
1.1541899 -0.9274016 0.86551237 4294967295
1.1460625 -0.93028015 0.86520338 4294967295
1.1563287 -0.92790526 0.83453321 4294967295
1.1457202 -0.93076456 0.83393335 4294967295
1.1589688 -0.92775512 0.80505419 4294967295
1.1481525 -0.93217808 0.80625701 4294967295
1.1541632 -0.92668563 0.77420437 4294967295
1.1530001 -0.92560863 0.74540246 4294967295
1.1577187 -0.92779905 0.71488452 4294967295
1.1479757 -0.93190032 0.71518677 4294967295
1.1539384 -0.9250229 0.6853348 4294967295
1.15391 -0.92538369 0.65420181 4294967295
1.1526253 -0.92447555 0.62593234 4294967295
1.1519454 -0.92826217 0.59603965 4294967295
1.159 -0.93112779 0.5935387 4294967295
1.1545453 -0.92801893 0.56736469 4294967295
1.1515909 -0.93096179 0.55671972 4294967295
1.15275 -0.92801178 0.53563994 4294967295
1.1525294 -0.93052471 0.53132635 4294967295
1.1566001 -0.92859584 0.51381391 4294967295
1.1535001 -0.93276203 0.50431097 4294967295
1.1542871 -0.93640077 0.47445539 4294967295
1.1563336 -0.92629039 0.43854594 4294967295
1.1517665 -0.93363672 0.44951311 4294967295
1.156963 -0.92822868 0.42195237 4294967295
1.1524922 -0.93156612 0.41239476 4294967295
1.1543044 -0.92689663 0.38388228 4294967295
1.1543334 -0.93073827 0.39867473 4294967295
1.1551156 -0.92525411 0.35498804 4294967295
1.1542163 -0.92469925 0.32503459 4294967295
1.1571698 -0.92805034 0.29589602 4294967295
1.1511955 -0.93130499 0.29372829 4294967295
1.1542991 -0.92424363 0.26607484 4294967295
1.1542395 -0.92321175 0.23446083 4294967295
1.1539134 -0.92431492 0.20542017 4294967295
1.1528661 -0.92491913 0.17439765 4294967295
1.1530644 -0.91627419 0.14498305 4294967295
1.1534635 -0.90910685 0.11442229 4294967295
1.1598572 -0.89911747 0.087844998 4294967295
1.1531975 -0.90932667 0.086429775 4294967295
1.1532059 -0.91112155 0.054511636 4294967295
1.1559999 -0.89996022 0.035064489 4294967295
1.1526597 -0.90605611 0.025497705 4294967295
1.1585454 0.99873382 -0.01328069 4294967295
1.1528438 0.97489959 -0.010321438 4294967295
1.1529999 0.94445252 -0.010477483 4294967295
1.1542104 0.91381764 -0.013611138 4294967295
1.154232 0.8857584 -0.013276279 4294967295
1.1535661 0.85569018 -0.0080512762 4294967295
1.1530952 0.82451856 -0.0084201694 4294967295
1.1545926 0.79453921 -0.0086714625 4294967295
1.1535668 0.7646296 -0.0097510219 4294967295
1.1535846 0.73477244 -0.010283589 4294967295
1.1544229 0.70538253 -0.0095852017 4294967295
1.151087 0.68155146 -0.015292048 4294967295
1.1582856 0.63724476 -0.016358733 4294967295
1.1535537 0.61448985 -0.013542414 4294967295
1.1542696 0.58410001 -0.012493908 4294967295
1.1539615 0.55574143 -0.010244966 4294967295
1.1539775 0.52465302 -0.0095863938 4294967295
1.1542039 0.49395162 -0.0094407201 4294967295
1.1526294 0.46476278 -0.0077756643 4294967295
1.1536443 0.43482327 -0.0080909729 4294967295
1.1544771 0.4059667 -0.010362566 4294967295
1.1536225 0.375175 -0.009493053 4294967295
1.1526201 0.34571493 -0.0073012114 4294967295
1.1519419 0.31597367 -0.0064885616 4294967295
1.1524121 0.2844241 -0.0067437291 4294967295
1.1545001 0.25589934 -0.0091537833 4294967295
1.15418 0.22481953 -0.011657357 4294967295
1.1546865 0.19483981 -0.0086023808 4294967295
1.153131 0.16575015 -0.0072370172 4294967295
1.1529608 0.13608097 -0.0084065199 4294967295
1.1541299 0.10491574 -0.0084102154 4294967295
1.153578 0.07432434 -0.0088093281 4294967295
1.1537502 0.044841915 -0.0086812973 4294967295
1.1546316 0.015042091 -0.0092889071 4294967295
1.1534548 -0.014827468 -0.0080036521 4294967295
1.152661 -0.0445216 -0.0077394247 4294967295
1.1540538 -0.074602708 -0.0084224939 4294967295
1.1521115 -0.10563541 -0.0085220337 4294967295
1.1538463 -0.13504606 -0.0084904432 4294967295
1.1532909 -0.16490294 -0.0098724961 4294967295
1.1518233 -0.19427386 -0.009201169 4294967295
1.1537222 -0.22544517 -0.0063893199 4294967295
1.1541134 -0.25522125 -0.0058277845 4294967295
1.1526482 -0.28605986 -0.0076835752 4294967295
1.1543583 -0.31547773 -0.0097677112 4294967295
1.1546036 -0.34468365 -0.0088315606 4294967295
1.1528999 -0.37453616 -0.0098374486 4294967295
1.1533202 -0.4054459 -0.0085850954 4294967295
1.1536041 -0.43391925 -0.0084245801 4294967295
1.1528866 -0.46486813 -0.0090891123 4294967295
1.1534339 -0.49576324 -0.010466754 4294967295
1.1528748 -0.52493709 -0.010458529 4294967295
1.1525711 -0.55516416 -0.010175169 4294967295
1.1536185 -0.5855161 -0.0088101625 4294967295
1.154056 -0.61489898 -0.0083293319 4294967295
1.1535618 -0.64419794 -0.0079123378 4294967295
1.1536251 -0.67539984 -0.0095597506 4294967295
1.1546136 -0.70603597 -0.010486543 4294967295
1.1536345 -0.73666424 -0.0095271468 4294967295
1.15395 -0.76513517 -0.0080977678 4294967295
1.1528928 -0.7960062 -0.0092227459 4294967295
1.1532183 -0.82572424 -0.0086762309 4294967295
1.1525273 -0.85618746 -0.0063146949 4294967295
1.1536347 -0.88639736 -0.0048625469 4294967295
1.1543419 -0.90512115 0.0041339993 4294967295
1.1575001 0.66679162 -0.023970783 4294967295
1.1527779 0.65203106 -0.023002386 4294967295
1.1909332 -0.93984544 1.1834252 4294967295
1.1936667 -0.92712051 1.1559916 4294967295
1.1848042 -0.93743551 1.1648991 4294967295
1.1914752 -0.92665845 1.1349849 4294967295
1.1797057 -0.93457377 1.1365014 4294967295
1.1896964 -0.92797518 1.1049174 4294967295
1.1806818 -0.93124014 1.1058203 4294967295
1.1852404 -0.92723632 1.0739031 4294967295
1.1790999 -0.93079346 1.0860064 4294967295
1.1866002 -0.92433488 1.0462625 4294967295
1.181963 -0.93224555 1.0356364 4294967295
1.1907544 -0.92661524 1.0147178 4294967295
1.1798501 -0.93287832 1.0163851 4294967295
1.1892728 -0.92608649 0.98335612 4294967295
1.1795108 -0.93222314 0.98736787 4294967295
1.1850414 -0.92467088 0.95520926 4294967295
1.18802 -0.92783415 0.92873049 4294967295
1.1805439 -0.93312502 0.92166042 4294967295
1.185246 -0.92855251 0.8949728 4294967295
1.1820644 -0.93144125 0.89705181 4294967295
1.18275 -0.92891812 0.86238694 4294967295
1.18484 -0.9323104 0.86451089 4294967295
1.1871526 -0.92715442 0.832142 4294967295
1.1794688 -0.93138224 0.8417412 4294967295
1.1843803 -0.92726851 0.80495155 4294967295
1.1799999 -0.93050671 0.80891889 4294967295
1.1838601 -0.92653519 0.77542502 4294967295
1.1857847 -0.92745602 0.74641877 4294967295
1.1807691 -0.9308247 0.73454177 4294967295
1.1852442 -0.92712563 0.71272016 4294967295
1.1789374 -0.93113983 0.72483325 4294967295
1.1845651 -0.9256081 0.68543637 4294967295
1.1844497 -0.92598748 0.65535963 4294967295
1.184625 -0.92470205 0.62444562 4294967295
1.1813333 -0.93064064 0.61235929 4294967295
1.191375 -0.92666507 0.59160995 4294967295
1.1815079 -0.93306875 0.59605962 4294967295
1.1854715 -0.92384589 0.56726319 4294967295
1.1773076 -0.93197751 0.55824792 4294967295
1.1883749 -0.92661208 0.54082078 4294967295
1.1816491 -0.93187678 0.53377002 4294967295
1.1919512 -0.92570877 0.49893138 4294967295
1.1824301 -0.9332791 0.50592262 4294967295
1.191017 -0.92594266 0.47705138 4294967295
1.1792563 -0.93459052 0.47549161 4294967295
1.1859492 -0.92761874 0.44125625 4294967295
1.1815748 -0.93326771 0.453309 4294967295
1.1867013 -0.92590541 0.41530979 4294967295
1.1784875 -0.93365788 0.41066244 4294967295
1.18432 -0.92489451 0.38569239 4294967295
1.1758749 -0.93111348 0.39742756 4294967295
1.1832614 -0.92134976 0.35484898 4294967295
1.1837285 -0.92257547 0.32483393 4294967295
1.1846279 -0.92351216 0.29447854 4294967295
1.1726251 -0.93058562 0.29199722 4294967295
1.184375 -0.9221921 0.26533103 4294967295
1.185282 -0.9227764 0.23514706 4294967295
1.1843481 -0.92030054 0.20498791 4294967295
1.1850256 -0.92492813 0.17437482 4294967295
1.1852641 -0.91596991 0.14620358 4294967295
1.191 -0.89957488 0.10190025 4294967295
1.1834105 -0.90655071 0.11429578 4294967295
1.1896471 -0.89903241 0.092799187 4294967295
1.1811315 -0.90233058 0.084702671 4294967295
1.1852615 -0.91354126 0.053709835 4294967295
1.1845517 -0.9075247 0.02479735 4294967295
1.198 1.0519513 -0.017298758 4294967295
1.1909736 1.0307206 -0.015733004 4294967295
1.1868179 1.0057442 -0.015360951 4294967295
1.1863455 0.97420788 -0.012690961 4294967295
1.1846452 0.94440913 -0.010751545 4294967295
1.1842382 0.91498399 -0.0091255307 4294967295
1.1848089 0.88489097 -0.0074297786 4294967295
1.1850345 0.85550874 -0.0095182061 4294967295
1.1837598 0.82546788 -0.010890543 4294967295
1.1853694 0.79468328 -0.010242224 4294967295
1.1837884 0.76441807 -0.010794997 4294967295
1.1834704 0.73506778 -0.010329127 4294967295
1.1843439 0.7032389 -0.013511181 4294967295
1.1886349 0.67411703 -0.015048623 4294967295
1.1841538 0.64473909 -0.013004422 4294967295
1.1834998 0.61546528 -0.012181878 4294967295
1.1838704 0.58492434 -0.010274351 4294967295
1.1841171 0.55481952 -0.010586381 4294967295
1.1851667 0.52476585 -0.011770248 4294967295
1.1851374 0.4947274 -0.010371506 4294967295
1.1843544 0.46576384 -0.0088635087 4294967295
1.1841303 0.43538317 -0.0097435713 4294967295
1.1843261 0.40374345 -0.010548055 4294967295
1.1853511 0.3756516 -0.010002851 4294967295
1.1847143 0.3445603 -0.0087921023 4294967295
1.1842918 0.31678149 -0.0087797642 4294967295
1.1838222 0.28530583 -0.0097623467 4294967295
1.1844041 0.25402009 -0.010809839 4294967295
1.1845151 0.22478408 -0.011052132 4294967295
1.184768 0.19495021 -0.0063297749 4294967295
1.1849126 0.16500919 -0.0073963404 4294967295
1.1852952 0.13434164 -0.0096330643 4294967295
1.1846852 0.10546321 -0.0088602304 4294967295
1.1837457 0.075413533 -0.0081330538 4294967295
1.1840979 0.045114949 -0.0078601837 4294967295
1.1857896 0.015250509 -0.0093355775 4294967295
1.1846864 -0.015552889 -0.0089851618 4294967295
1.1834002 -0.045416299 -0.0079788566 4294967295
1.1851538 -0.07541813 -0.0092906952 4294967295
1.1845373 -0.10459172 -0.011029005 4294967295
1.1857347 -0.13527693 -0.010540962 4294967295
1.1850728 -0.16479954 -0.010573566 4294967295
1.1831067 -0.19420318 -0.011529446 4294967295
1.1855 -0.22511341 -0.0092214942 4294967295
1.1850868 -0.2555196 -0.0076626539 4294967295
1.183481 -0.28509465 -0.0079635382 4294967295
1.1866482 -0.31509247 -0.0094796419 4294967295
1.1853833 -0.34494179 -0.0084504485 4294967295
1.184431 -0.37426117 -0.010473192 4294967295
1.1841154 -0.40412092 -0.01067847 4294967295
1.1855786 -0.43506464 -0.0092893839 4294967295
1.1848065 -0.46435454 -0.010152876 4294967295
1.1842456 -0.4952265 -0.010910153 4294967295
1.184893 -0.52439201 -0.011002421 4294967295
1.184268 -0.55522239 -0.011213124 4294967295
1.1838238 -0.58430141 -0.010433137 4294967295
1.1833142 -0.61564511 -0.0088050365 4294967295
1.1846225 -0.64533538 -0.0086797476 4294967295
1.18475 -0.67411941 -0.0086842775 4294967295
1.184898 -0.70468271 -0.012575507 4294967295
1.1848212 -0.73518813 -0.011560321 4294967295
1.1838113 -0.76553857 -0.0091000795 4294967295
1.1846803 -0.79450119 -0.0086054206 4294967295
1.1840394 -0.82431412 -0.010742307 4294967295
1.1841345 -0.85478032 -0.0091571212 4294967295
1.1858639 -0.88728195 -0.0054513216 4294967295
1.1839362 -0.90614378 0.0027237535 4294967295
1.1847501 1.0334461 -0.020974517 4294967295
1.17925 0.69073761 -0.021197975 4294967295
1.1819757 0.67501068 -0.025551319 4294967295
1.1750001 0.65670532 -0.022943497 4294967295
1.2248518 -0.92629361 1.1882389 4294967295
1.2155852 -0.93594146 1.1900705 4294967295
1.2191975 -0.92434907 1.1630018 4294967295
1.2092383 -0.93296814 1.1733913 4294967295
1.2164356 -0.92527127 1.1343005 4294967295
1.2171594 -0.92646098 1.1063299 4294967295
1.2142727 -0.93097758 1.095669 4294967295
1.2176975 -0.92475039 1.0739243 4294967295
1.2097058 -0.93085593 1.0851102 4294967295
1.2161237 -0.9220562 1.0438749 4294967295
1.2183545 -0.92393732 1.0159928 4294967295
1.2125334 -0.9302749 1.0133476 4294967295
1.2168204 -0.92765337 0.9851352 4294967295
1.2171602 -0.92819846 0.95932668 4294967295
1.217086 -0.93104225 0.95062101 4294967295
1.2176758 -0.92918873 0.92594093 4294967295
1.2146927 -0.93143535 0.92421317 4294967295
1.201 -0.92942017 0.9092685 4294967295
1.2173883 -0.93342578 0.89479202 4294967295
1.2207499 -0.92541289 0.8600477 4294967295
1.2122184 -0.93407786 0.86969864 4294967295
1.2170569 -0.92584431 0.83509904 4294967295
1.2161628 -0.92724228 0.80563271 4294967295
1.2172107 -0.9275347 0.77603638 4294967295
1.214125 -0.93094349 0.76756805 4294967295
1.2202835 -0.92716938 0.74558246 4294967295
1.2121282 -0.93066376 0.74284303 4294967295
1.2167972 -0.92732203 0.71489477 4294967295
1.2114167 -0.93067449 0.72549325 4294967295
1.2170742 -0.92605722 0.68304932 4294967295
1.2174211 -0.92676479 0.65531439 4294967295
1.215 -0.93038559 0.66080147 4294967295
1.2162657 -0.92743152 0.62712324 4294967295
1.2165834 -0.93088311 0.6146419 4294967295
1.2183089 -0.92531258 0.59189785 4294967295
1.2123214 -0.93152893 0.60373509 4294967295
1.2176849 -0.92484242 0.56337684 4294967295
1.2186086 -0.92673522 0.5368225 4294967295
1.2122693 -0.93249387 0.52661067 4294967295
1.2173465 -0.92224967 0.50358355 4294967295
1.2107141 -0.93263525 0.51553935 4294967295
1.2172 -0.9235853 0.47500718 4294967295
1.2093999 -0.93029851 0.46134672 4294967295
1.2224165 -0.92635077 0.44658661 4294967295
1.2117084 -0.93136448 0.44557741 4294967295
1.2152621 -0.92805588 0.40890393 4294967295
1.2182001 -0.93083441 0.42199481 4294967295
1.2177643 -0.92511237 0.38480765 4294967295
1.2169349 -0.92349082 0.35476398 4294967295
1.2176263 -0.92439193 0.32496703 4294967295
1.2162381 -0.92084473 0.29541582 4294967295
1.2168486 -0.92119038 0.26387498 4294967295
1.2169062 -0.91988844 0.23554602 4294967295
1.2168243 -0.9181999 0.20474741 4294967295
1.2168709 -0.92222619 0.17553237 4294967295
1.2167001 -0.91619623 0.1459282 4294967295
1.2178069 -0.91243041 0.1141077 4294967295
1.218116 -0.90637726 0.087364405 4294967295
1.2172394 -0.91517866 0.052891463 4294967295
1.2181498 -0.91187078 0.023819178 4294967295
1.2178388 1.0608804 -0.014510512 4294967295
1.2161355 1.0348638 -0.013110816 4294967295
1.2169523 1.0055357 -0.012274623 4294967295
1.2162455 0.9753378 -0.0087303519 4294967295
1.2154151 0.94413871 -0.0045413971 4294967295
1.2156826 0.91520697 -0.0043808222 4294967295
1.2165884 0.88480276 -0.0078492165 4294967295
1.2152001 0.85537028 -0.012212873 4294967295
1.2162828 0.82472771 -0.012037516 4294967295
1.2173651 0.79488879 -0.011997759 4294967295
1.2166157 0.76465696 -0.011400223 4294967295
1.2160627 0.73631221 -0.012208521 4294967295
1.2156979 0.70589387 -0.015112996 4294967295
1.2165473 0.6740396 -0.012055218 4294967295
1.2153817 0.64521611 -0.010913849 4294967295
1.2161819 0.61569601 -0.012733698 4294967295
1.2169069 0.5847885 -0.011767626 4294967295
1.2167554 0.55540913 -0.012768388 4294967295
1.2181636 0.52484924 -0.012302816 4294967295
1.2160832 0.49538583 -0.010750532 4294967295
1.217957 0.46478817 -0.012159824 4294967295
1.2179064 0.43653488 -0.014644861 4294967295
1.2169131 0.40411615 -0.012070298 4294967295
1.2179149 0.37451985 -0.01111722 4294967295
1.2175717 0.34532046 -0.010852754 4294967295
1.2170871 0.31529114 -0.012025893 4294967295
1.2167501 0.28424364 -0.011862695 4294967295
1.2164154 0.25528455 -0.01141727 4294967295
1.2162354 0.22481593 -0.0095697045 4294967295
1.2188333 0.19501266 -0.0082425475 4294967295
1.2155529 0.16427518 -0.0075688958 4294967295
1.2156253 0.13595796 -0.009079814 4294967295
1.2151364 0.10445393 -0.0092625022 4294967295
1.2178938 0.075478159 -0.010206878 4294967295
1.216433 0.045046374 -0.011442244 4294967295
1.2173262 0.014863055 -0.010104895 4294967295
1.2181603 -0.015264252 -0.011055648 4294967295
1.2180556 -0.044599511 -0.0086814761 4294967295
1.2177894 -0.074910417 -0.011881769 4294967295
1.2160174 -0.10615943 -0.010550618 4294967295
1.215889 -0.13483074 -0.0095291734 4294967295
1.2173456 -0.16523391 -0.010180712 4294967295
1.2177781 -0.19537333 -0.013687372 4294967295
1.2183272 -0.22428718 -0.012149453 4294967295
1.2174883 -0.25579903 -0.010448039 4294967295
1.2161852 -0.28504768 -0.0083952546 4294967295
1.2191001 -0.31591734 -0.0087277889 4294967295
1.2174724 -0.3437638 -0.0078763366 4294967295
1.2159631 -0.3753764 -0.0093924999 4294967295
1.2160928 -0.40586916 -0.011330187 4294967295
1.2174288 -0.43594801 -0.0088381767 4294967295
1.2171803 -0.46483716 -0.008045435 4294967295
1.2163693 -0.49412698 -0.0092204809 4294967295
1.2158545 -0.52517039 -0.010247648 4294967295
1.2166785 -0.55504388 -0.010877907 4294967295
1.2166544 -0.58507007 -0.011632681 4294967295
1.2168514 -0.6136167 -0.011852503 4294967295
1.2169487 -0.64614224 -0.011010885 4294967295
1.2180387 -0.67611563 -0.0096332431 4294967295
1.2175531 -0.70429605 -0.011489868 4294967295
1.2161916 -0.73515588 -0.014150679 4294967295
1.2165605 -0.7649076 -0.011541128 4294967295
1.2176744 -0.7944634 -0.010664225 4294967295
1.2170247 -0.82442254 -0.011963904 4294967295
1.2164133 -0.85498655 -0.01265353 4294967295
1.2174459 -0.88850993 -0.0073301196 4294967295
1.2161951 -0.90363872 0.004083693 4294967295
1.24975 -0.92654288 1.2135785 4294967295
1.2439829 -0.92506814 1.1940141 4294967295
1.2471097 -0.92365354 1.165105 4294967295
1.2464384 -0.92409295 1.1351113 4294967295
1.24604 -0.92568666 1.1049671 4294967295
1.2462175 -0.92451793 1.075053 4294967295
1.2461187 -0.92249018 1.0452328 4294967295
1.2461873 -0.92374277 1.0147339 4294967295
1.2517999 -0.9303897 1.0029895 4294967295
1.2460625 -0.92556208 0.98336983 4294967295
1.2498889 -0.93083519 0.99632376 4294967295
1.2571251 0.7645613 0.94617784 4294967295
1.253091 0.74298239 0.94359678 4294967295
1.2589999 0.71846968 0.94267297 4294967295
1.2589999 0.66540313 0.94364667 4294967295
1.257 0.63639212 0.94200152 4294967295
1.2589999 0.62937629 0.94267297 4294967295
1.2589999 0.5826388 0.94267297 4294967295
1.2453068 -0.92669433 0.95843732 4294967295
1.2484399 -0.93101156 0.94827437 4294967295
1.2568054 0.75982732 0.93205118 4294967295
1.2555715 0.73517585 0.93054116 4294967295
1.2588333 0.71813089 0.93336773 4294967295
1.2581035 0.66778386 0.93341321 4294967295
1.2560495 0.64490765 0.92992747 4294967295
1.2585999 0.62508678 0.93260932 4294967295
1.2580773 0.58275551 0.92754418 4294967295
1.2558396 0.55730426 0.9239068 4294967295
1.236353 -0.92940378 0.92917621 4294967295
1.2504237 -0.93346864 0.92439598 4294967295
1.2522501 -0.92775613 0.88605046 4294967295
1.246033 -0.93356192 0.89732373 4294967295
1.2451488 -0.92281681 0.86550474 4294967295
1.2459867 -0.92352521 0.83587062 4294967295
1.2420868 -0.92665058 0.80894941 4294967295
1.2528888 -0.93133974 0.79774868 4294967295
1.244393 -0.92758614 0.7728619 4294967295
1.252 -0.93087167 0.78369516 4294967295
1.2452649 -0.92671108 0.74430102 4294967295
1.2422999 -0.92788589 0.72168088 4294967295
1.2506511 -0.93333489 0.71130824 4294967295
1.2451167 -0.92542702 0.68252105 4294967295
1.2495384 -0.93193871 0.69752306 4294967295
1.2466668 -0.92575061 0.65522385 4294967295
1.255 -0.93044388 0.64141321 4294967295
1.2355714 -0.92830265 0.62836117 4294967295
1.2500836 -0.932154 0.62324566 4294967295
1.245111 -0.92595947 0.59472585 4294967295
1.25375 -0.9309603 0.6092943 4294967295
1.2453672 -0.92570639 0.56468844 4294967295
1.2462082 -0.92645127 0.5347029 4294967295
1.2467147 -0.92284334 0.50613034 4294967295
1.2478635 -0.92199904 0.4736765 4294967295
1.2465791 -0.92441398 0.44567409 4294967295
1.2494 -0.93092042 0.432735 4294967295
1.2465186 -0.9279325 0.40848258 4294967295
1.2497002 -0.9330551 0.41783088 4294967295
1.2457974 -0.92400569 0.38570148 4294967295
1.2464206 -0.92626375 0.35508811 4294967295
1.2452536 -0.92301339 0.32483077 4294967295
1.2476666 -0.92371035 0.29576924 4294967295
1.2472 -0.92233688 0.26543278 4294967295
1.246648 -0.91887039 0.2349028 4294967295
1.2469243 -0.92021012 0.20641997 4294967295
1.2467915 -0.92097688 0.17450136 4294967295
1.2488874 -0.92007464 0.1461409 4294967295
1.2461796 -0.91463763 0.11476722 4294967295
1.2459539 -0.90652794 0.085029989 4294967295
1.2498618 -0.91705507 0.05456081 4294967295
1.2480916 -0.91126835 0.025178164 4294967295
1.2538095 1.0887578 -0.013783097 4294967295
1.2464209 1.0652591 -0.014102638 4294967295
1.2456156 1.0350093 -0.011430383 4294967295
1.2474706 1.005515 -0.010433912 4294967295
1.2465758 0.97571647 -0.006893456 4294967295
1.2452569 0.94380265 -0.0038858056 4294967295
1.2470732 0.91439688 -0.0068992376 4294967295
1.247178 0.88519335 -0.011557341 4294967295
1.2473819 0.85473126 -0.012679338 4294967295
1.2472907 0.82442534 -0.011165798 4294967295
1.2462955 0.79516184 -0.011135399 4294967295
1.2448108 0.76453108 -0.012203336 4294967295
1.24455 0.73951721 -0.016071439 4294967295
1.2492273 0.69930083 -0.015873194 4294967295
1.2464166 0.67622644 -0.011436582 4294967295
1.2476389 0.64488536 -0.013814628 4294967295
1.2471249 0.61472124 -0.015148461 4294967295
1.2479687 0.58582741 -0.014174521 4294967295
1.2457141 0.55463892 -0.01277256 4294967295
1.2467498 0.52559751 -0.011729479 4294967295
1.2446134 0.49436557 -0.010745943 4294967295
1.2458572 0.46441972 -0.013344288 4294967295
1.2449213 0.43507606 -0.015035689 4294967295
1.2463588 0.40638113 -0.012490988 4294967295
1.2465003 0.37493461 -0.013097525 4294967295
1.2495666 0.34574509 -0.014317989 4294967295
1.2473249 0.31358314 -0.013857007 4294967295
1.2459998 0.28540415 -0.010272622 4294967295
1.2463256 0.25544143 -0.011512637 4294967295
1.2467427 0.22552407 -0.010873258 4294967295
1.2478124 0.19421887 -0.010127008 4294967295
1.2443246 0.16579652 -0.0085581541 4294967295
1.2465518 0.13456117 -0.012429476 4294967295
1.2464722 0.1047826 -0.011701584 4294967295
1.2478058 0.075157374 -0.012110472 4294967295
1.24593 0.045019884 -0.014096737 4294967295
1.2465714 0.013638869 -0.011625886 4294967295
1.2453337 -0.014557884 -0.0093627572 4294967295
1.2468984 -0.044658057 -0.0074353814 4294967295
1.2457401 -0.075268358 -0.012087643 4294967295
1.2461591 -0.10491686 -0.010027111 4294967295
1.2453411 -0.13420628 -0.0076394677 4294967295
1.2467207 -0.16529104 -0.0089888573 4294967295
1.2416034 -0.19508776 -0.0082009435 4294967295
1.2453933 -0.22320278 -0.0076806545 4294967295
1.2469717 -0.25490132 -0.01287359 4294967295
1.2452188 -0.28520784 -0.0096585751 4294967295
1.2450812 -0.31416565 -0.0068506002 4294967295
1.2459047 -0.34442517 -0.0066820383 4294967295
1.2462381 -0.37543747 -0.0088899136 4294967295
1.2456099 -0.40600297 -0.010996521 4294967295
1.2455883 -0.43410471 -0.0099782944 4294967295
1.2480303 -0.46606421 -0.0083051324 4294967295
1.2444209 -0.49577898 -0.007399261 4294967295
1.244875 -0.52532214 -0.0091222525 4294967295
1.2448407 -0.55607194 -0.0096585751 4294967295
1.2463467 -0.58501786 -0.0099768639 4294967295
1.2471334 -0.61482453 -0.011717916 4294967295
1.2461052 -0.64459592 -0.013821304 4294967295
1.2462974 -0.67589873 -0.01151228 4294967295
1.2444222 -0.70556265 -0.0078037977 4294967295
1.2464166 -0.73419398 -0.012800276 4294967295
1.2463263 -0.76481158 -0.012799561 4294967295
1.2470816 -0.79515386 -0.010760128 4294967295
1.2466977 -0.82461548 -0.011666059 4294967295
1.2468599 -0.85550302 -0.013608098 4294967295
1.246493 -0.88774645 -0.0088039637 4294967295
1.2483783 -0.90350062 0.003960073 4294967295
1.2529999 0.72865289 -0.022138536 4294967295
1.2508572 0.71443343 -0.021510303 4294967295
1.2756314 -0.92872667 1.2161554 4294967295
1.2804374 -0.9327603 1.2281959 4294967295
1.2717369 -0.92666733 1.1946698 4294967295
1.288 -0.93100268 1.2064211 4294967295
1.272038 -0.92511261 1.1643542 4294967295
1.2717969 -0.92261744 1.1344144 4294967295
1.2709119 -0.92420554 1.1052647 4294967295
1.2693542 -0.9254182 1.0751609 4294967295
1.2857499 -0.93161237 1.0694857 4294967295
1.2734001 -0.92341465 1.0449786 4294967295
1.2719481 -0.92557251 1.0140649 4294967295
1.2712325 -0.92237854 0.98509103 4294967295
1.2627499 0.78726584 0.94417477 4294967295
1.2606667 0.77775794 0.94550729 4294967295
1.261222 0.7016902 0.94244409 4294967295
1.260625 0.68539655 0.94285345 4294967295
1.2613809 0.61412352 0.9431951 4294967295
1.2606667 0.59608519 0.942258 4294967295
1.27095 0.54303724 0.94653714 4294967295
1.2823937 0.52624822 0.95124483 4294967295
1.288 0.50939637 0.94045538 4294967295
1.268 -0.92535055 0.95522189 4294967295
1.2833999 -0.93154448 0.94848782 4294967295
1.28675 0.81416631 0.92287803 4294967295
1.2737186 0.79266882 0.92559069 4294967295
1.2682649 0.76690334 0.92115831 4294967295
1.2692742 0.73455203 0.91687512 4294967295
1.2659559 0.70365494 0.9230119 4294967295
1.2695312 0.67763984 0.92144787 4294967295
1.2708979 0.64437073 0.91986519 4294967295
1.2662656 0.61463118 0.92419922 4294967295
1.2611001 0.5898543 0.9163596 4294967295
1.2661082 0.54319286 0.9272933 4294967295
1.2807728 0.52750659 0.92536956 4294967295
1.288 0.50939637 0.93746698 4294967295
1.2667942 -0.92888981 0.92747712 4294967295
1.274 -0.9320547 0.92136443 4294967295
1.2760476 0.61113769 0.90412366 4294967295
1.2633636 0.58439696 0.90149802 4294967295
1.2657568 0.55390507 0.90186828 4294967295
1.2799473 0.53526521 0.90608799 4294967295
1.2699608 -0.92619449 0.89456809 4294967295
1.2768571 -0.93176997 0.90758973 4294967295
1.2719787 -0.92384994 0.86531341 4294967295
1.2696199 -0.92381775 0.83529645 4294967295
1.28575 -0.93161231 0.82561898 4294967295
1.2662003 -0.92832839 0.80550677 4294967295
1.2820476 -0.93250096 0.8038131 4294967295
1.2665162 -0.92816037 0.773422 4294967295
1.2823334 -0.9321894 0.77627826 4294967295
1.2700337 -0.92677259 0.74478304 4294967295
1.2865 -0.93140912 0.75340426 4294967295
1.270322 -0.92813551 0.71598279 4294967295
1.2753999 -0.93147314 0.70808583 4294967295
1.2713569 -0.92599499 0.68438238 4294967295
1.2870001 -0.93127364 0.6952697 4294967295
1.2729205 -0.92578614 0.65504503 4294967295
1.268102 -0.92854965 0.62701178 4294967295
1.2754545 -0.93155247 0.62011415 4294967295
1.2690834 -0.92705756 0.59375703 4294967295
1.2848001 -0.93136275 0.60045862 4294967295
1.2705103 -0.92585391 0.5648219 4294967295
1.288 -0.93100268 0.56391954 4294967295
1.2717832 -0.92603189 0.53533143 4294967295
1.2709808 -0.92422783 0.50628966 4294967295
1.2709836 -0.92166871 0.47497469 4294967295
1.2710968 -0.92174345 0.44443884 4294967295
1.2696297 -0.92295086 0.41498899 4294967295
1.26 -0.93122739 0.41971743 4294967295
1.2711294 -0.92309797 0.38568255 4294967295
1.2710592 -0.92531037 0.35469556 4294967295
1.2716229 -0.92357916 0.32463688 4294967295
1.2705073 -0.92084277 0.29461876 4294967295
1.2710171 -0.92019242 0.26524961 4294967295
1.2725593 -0.91975838 0.23472437 4294967295
1.272 -0.92012483 0.20493144 4294967295
1.2718999 -0.91859001 0.17287818 4294967295
1.2704738 -0.91394675 0.14669785 4294967295
1.2720329 -0.9166739 0.11499026 4294967295
1.2727842 -0.9086265 0.085023969 4294967295
1.2704532 -0.90852773 0.054381758 4294967295
1.2706515 -0.90672749 0.025140375 4294967295
1.276 1.1115607 -0.013794541 4294967295
1.272577 1.0919467 -0.013708234 4294967295
1.2721391 1.0650932 -0.012563825 4294967295
1.2719734 1.0353123 -0.010766685 4294967295
1.271361 1.0052853 -0.0091236234 4294967295
1.2714484 0.97378522 -0.0060750246 4294967295
1.2692801 0.94522029 -0.0060248375 4294967295
1.2691932 0.91313356 -0.00760746 4294967295
1.2713335 0.88453716 -0.0085307956 4294967295
1.2700422 0.85668212 -0.0071398616 4294967295
1.2711176 0.82562196 -0.0087879896 4294967295
1.2712353 0.79498577 -0.011612952 4294967295
1.2705554 0.76655358 -0.014118254 4294967295
1.2738571 0.73210382 -0.017930508 4294967295
1.2721817 0.70452994 -0.01387012 4294967295
1.2702591 0.67394286 -0.013347447 4294967295
1.2719996 0.64442408 -0.015054762 4294967295
1.2714055 0.61633509 -0.014321029 4294967295
1.2737857 0.58424377 -0.013048887 4294967295
1.2716173 0.55549216 -0.010114789 4294967295
1.2720003 0.52534813 -0.010778785 4294967295
1.2715262 0.49641448 -0.011049211 4294967295
1.27025 0.46376234 -0.01348871 4294967295
1.2698246 0.43501312 -0.012517273 4294967295
1.2714571 0.40339071 -0.012718379 4294967295
1.270275 0.37489709 -0.013073504 4294967295
1.2743 0.34549287 -0.016515493 4294967295
1.2707001 0.31386364 -0.010889828 4294967295
1.2694093 0.28413662 -0.0067323446 4294967295
1.2713488 0.25605282 -0.01004076 4294967295
1.274 0.22684881 -0.012941599 4294967295
1.271 0.19598103 -0.011461973 4294967295
1.2716364 0.16455606 -0.012360811 4294967295
1.271138 0.13406515 -0.014592171 4294967295
1.2711542 0.10512317 -0.013110578 4294967295
1.271852 0.075135119 -0.013355494 4294967295
1.2707058 0.043831985 -0.014075875 4294967295
1.2705945 0.014976524 -0.011430979 4294967295
1.2695998 -0.014843091 -0.0081564188 4294967295
1.2739031 -0.044780441 -0.007463038 4294967295
1.2701252 -0.074800208 -0.010584116 4294967295
1.269875 -0.10489381 -0.0092817545 4294967295
1.2724166 -0.13459574 -0.0075966716 4294967295
1.2705333 -0.16421339 -0.0085440278 4294967295
1.2708751 -0.18329111 -0.0086799264 4294967295
1.2675385 -0.2316433 -0.0066204667 4294967295
1.2694726 -0.25521618 -0.012024641 4294967295
1.2717352 -0.284484 -0.012165546 4294967295
1.2712691 -0.3160491 -0.0093064904 4294967295
1.2718148 -0.34649834 -0.0072162151 4294967295
1.2728571 -0.37369353 -0.0096158385 4294967295
1.2694052 -0.40586886 -0.0099002123 4294967295
1.2704122 -0.43408141 -0.010656893 4294967295
1.2706523 -0.4640415 -0.010266244 4294967295
1.2696875 -0.49500033 -0.0081927776 4294967295
1.2700999 -0.52592152 -0.0090488791 4294967295
1.2698749 -0.55604571 -0.0098351836 4294967295
1.2704413 -0.58624744 -0.0078950524 4294967295
1.2712779 -0.61474591 -0.0092545748 4294967295
1.2701465 -0.64493048 -0.012399435 4294967295
1.2702368 -0.67429769 -0.012373984 4294967295
1.2718787 -0.70461738 -0.0095515251 4294967295
1.2694483 -0.73596489 -0.0077829957 4294967295
