# .PCD v0.7 - Point Cloud Data file format
VERSION 0.7
FIELDS x y z rgb
SIZE 4 4 4 4
TYPE F F F U
COUNT 1 1 1 1
WIDTH 1132
HEIGHT 1
VIEWPOINT 0 0 0 1 0 0 0
POINTS 1132
DATA ascii
2.2064669 0.49584365 0.71502316 4294967295
2.2055557 -0.91731924 0.71461576 4294967295
2.2065001 0.9673596 0.68098313 4294967295
2.2055001 0.95157146 0.67451459 4294967295
2.2062669 0.49853057 0.68429899 4294967295
2.2054138 -0.91849571 0.68483353 4294967295
2.2129998 0.94454235 0.66477507 4294967295
2.204 0.91769189 0.64117712 4294967295
2.2051542 0.50412863 0.65424192 4294967295
2.2065625 -0.91244453 0.65443933 4294967295
2.2126667 0.91360456 0.63138342 4294967295
2.2149999 0.89657611 0.62122518 4294967295
2.207 0.50415254 0.62341994 4294967295
2.2076926 -0.91430467 0.6212886 4294967295
2.2075 0.93708414 0.59784317 4294967295
2.211 0.92059726 0.58769345 4294967295
2.2050717 0.49933216 0.59592259 4294967295
2.2062609 -0.90835047 0.59567761 4294967295
2.207 0.91382039 0.57989466 4294967295
2.1973333 0.89452028 0.57453418 4294967295
2.2037504 0.49575469 0.56701154 4294967295
2.2048185 -0.91658026 0.56774294 4294967295
2.2071667 0.501212 0.53849787 4294967295
2.1985002 -0.9260214 0.54650182 4294967295
2.2086666 -0.93371809 0.53381956 4294967295
2.2054999 0.50510043 0.50310332 4294967295
2.2079999 -0.93941057 0.50136161 4294967295
2.205889 0.51812649 0.4701055 4294967295
2.2076666 0.50772935 0.48600927 4294967295
2.2050002 -0.9364239 0.47497293 4294967295
2.211 0.54612398 0.44149601 4294967295
2.2040834 -0.9334749 0.44429049 4294967295
2.21225 0.54771292 0.41194367 4294967295
2.2113335 0.53593338 0.40043879 4294967295
2.2136667 -0.89644778 0.40031263 4294967295
2.2070003 -0.91678655 0.41376117 4294967295
2.2036252 0.52000695 0.39446992 4294967295
2.2122502 0.49509442 0.39269787 4294967295
2.2085454 0.46493548 0.3926788 4294967295
2.2063334 0.43519223 0.39332405 4294967295
2.2021999 0.40190399 0.3866283 4294967295
2.2 0.36475387 0.38573843 4294967295
2.206167 0.34786031 0.3896316 4294967295
2.2071111 0.31813425 0.39327943 4294967295
2.2083333 0.28672418 0.39547729 4294967295
2.2074447 0.25330901 0.3938278 4294967295
2.2049999 0.22489233 0.3905493 4294967295
2.2093334 0.19543543 0.39201105 4294967295
2.2064002 0.16359816 0.38791561 4294967295
2.2075 0.13294291 0.38324153 4294967295
2.2063999 0.10729853 0.3827973 4294967295
2.2078998 0.074585259 0.38731295 4294967295
2.2061667 0.045845617 0.39049315 4294967295
2.2035 0.021940768 0.39405262 4294967295
2.207 -0.025812736 0.39555246 4294967295
2.2051427 -0.045161456 0.39493033 4294967295
2.2055714 -0.078789555 0.39490616 4294967295
2.2062223 -0.1051362 0.39048913 4294967295
2.2044547 -0.13341536 0.38501269 4294967295
2.2070003 -0.16508888 0.38327229 4294967295
2.2101667 -0.19507876 0.3825627 4294967295
2.2093749 -0.22575556 0.38325217 4294967295
2.207 -0.25624046 0.38531128 4294967295
2.2049999 -0.2866995 0.38543332 4294967295
2.2055998 -0.31748405 0.38745606 4294967295
2.2079003 -0.34342247 0.3883417 4294967295
2.2066667 -0.37310642 0.38761467 4294967295
2.207 -0.40601909 0.38275906 4294967295
2.2076666 -0.434165 0.38186455 4294967295
2.2061822 -0.46484572 0.38258016 4294967295
2.2078571 -0.49379241 0.38014495 4294967295
2.2068572 -0.52502626 0.38019967 4294967295
2.204 -0.55504102 0.38038069 4294967295
2.2051113 -0.58372086 0.38145441 4294967295
2.2068334 -0.61462975 0.38105929 4294967295
2.2056003 -0.64499587 0.37772965 4294967295
2.2030714 -0.67490786 0.37789163 4294967295
2.2059999 -0.70652986 0.380254 4294967295
2.2045712 -0.73785073 0.37888974 4294967295
2.2043002 -0.76224452 0.37832433 4294967295
2.2103078 -0.7964676 0.38235658 4294967295
2.204417 -0.82620037 0.3829208 4294967295
2.2082 -0.85836786 0.38678259 4294967295
2.207 -0.88349426 0.39299262 4294967295
2.2347856 -0.91720885 1.7598743 4294967295
2.233294 -0.91627687 1.7363997 4294967295
2.2316666 -0.91581595 1.7065583 4294967295
2.2449999 -0.89872831 1.6643528 4294967295
2.2310524 -0.91546023 1.6757563 4294967295
2.2334285 -0.89481986 1.6447508 4294967295
2.2246666 -0.90607011 1.6574281 4294967295
2.2285001 -0.89642227 1.6231903 4294967295
2.233 -0.90715563 1.6104506 4294967295
2.2314165 -0.91010308 1.5849322 4294967295
2.2219999 -0.89983171 1.544365 4294967295
2.2291999 -0.90481156 1.5611311 4294967295
2.2219999 -0.89983171 1.5314765 4294967295
2.2385001 -0.90651363 1.5181988 4294967295
2.2327499 -0.91194868 1.4940468 4294967295
2.2311666 -0.91301852 1.4657468 4294967295
2.2309167 -0.90602279 1.4345994 4294967295
2.2307498 0.49794701 1.4047763 4294967295
2.2332776 -0.90956557 1.4027379 4294967295
2.2249999 0.48762891 1.3818386 4294967295
2.2307498 0.47077319 1.3711333 4294967295
2.2318695 -0.91348904 1.3748693 4294967295
2.2323499 -0.9229179 1.3463416 4294967295
2.2259998 -0.93071204 1.3344471 4294967295
2.2259998 0.54465503 1.306046 4294967295
2.2281332 0.52589238 1.3059351 4294967295
2.223 0.50524837 1.3049901 4294967295
2.233294 -0.93548059 1.3160828 4294967295
2.2370431 0.51916385 1.2852273 4294967295
2.2277501 0.50245535 1.284695 4294967295
2.2336001 0.47189844 1.2781425 4294967295
2.2344 -0.92661417 1.2763526 4294967295
2.2298889 -0.93348181 1.2898915 4294967295
2.2404704 0.5173282 1.2547438 4294967295
2.2296786 0.4932763 1.2526489 4294967295
2.2259998 0.4775233 1.2595637 4294967295
2.2307143 -0.91924357 1.2544727 4294967295
2.2316 0.51600504 1.2319205 4294967295
2.2325001 0.5004862 1.2283514 4294967295
2.2336667 -0.89676481 1.2146018 4294967295
2.230875 -0.90664792 1.2294827 4294967295
2.2294998 0.50258058 1.1976111 4294967295
2.2321332 -0.8956356 1.1944462 4294967295
2.2260001 0.61180544 1.153692 4294967295
2.2314999 0.58227438 1.1578354 4294967295
2.2219999 0.56946266 1.1680195 4294967295
2.23475 0.50337261 1.1652501 4294967295
2.2219999 -0.89983171 1.1783303 4294967295
2.2308664 -0.90789509 1.1650825 4294967295
2.2219999 0.59523976 1.1473978 4294967295
2.2298 0.49073884 1.1402755 4294967295
2.2308333 -0.91116345 1.1343466 4294967295
2.2327645 -0.91392481 1.1038105 4294967295
2.2328889 0.48359403 1.0756383 4294967295
2.2413332 0.47734007 1.0627158 4294967295
2.2316499 -0.90889853 1.0755575 4294967295
2.2219999 0.48182061 1.057178 4294967295
2.2297499 0.47702789 1.0512961 4294967295
2.2319996 -0.91139585 1.0454636 4294967295
2.2342856 0.49114192 1.0123811 4294967295
2.2327499 -0.8976956 1.0040873 4294967295
2.2300665 -0.9079085 1.0189419 4294967295
2.23575 0.49906194 0.98788345 4294967295
2.2328887 -0.89099157 0.98640621 4294967295
2.2307501 -0.89495504 0.95900774 4294967295
2.2342856 -0.90849108 0.94647008 4294967295
2.2291818 0.50076401 0.92325461 4294967295
2.2328668 -0.91423333 0.92631233 4294967295
2.2342498 0.49526313 0.89511442 4294967295
2.2315834 -0.91233349 0.89423633 4294967295
2.234375 0.49097818 0.86704063 4294967295
2.2327647 -0.92307204 0.86428565 4294967295
2.2303751 0.49462414 0.83345282 4294967295
2.2316153 -0.9236275 0.83665597 4294967295
2.2302496 0.49653634 0.80562049 4294967295
2.2296362 -0.92078781 0.80671763 4294967295
2.2322497 0.49697936 0.774795 4294967295
2.2346365 -0.91813719 0.77390122 4294967295
2.2323332 0.49613857 0.74632615 4294967295
2.2318749 -0.9141807 0.74562955 4294967295
2.2312 0.49208558 0.71615708 4294967295
2.23 -0.91571075 0.71389359 4294967295
2.234 0.97510779 0.67738163 4294967295
2.2260001 0.49375382 0.68443018 4294967295
2.2320833 -0.91210139 0.68846136 4294967295
2.2335 0.95846784 0.6661098 4294967295
2.2305453 0.49966007 0.65535051 4294967295
2.232909 -0.91177541 0.65453529 4294967295
2.2414999 0.93591034 0.63544196 4294967295
2.23475 0.91754538 0.6234259 4294967295
2.2309999 0.49855831 0.62270153 4294967295
2.2336919 -0.90814656 0.62407839 4294967295
2.2363331 0.93981278 0.59626526 4294967295
2.2386665 0.91654932 0.58075404 4294967295
2.2219999 0.89683181 0.58030176 4294967295
2.2282002 0.49453574 0.60012323 4294967295
2.2219999 -0.89983171 0.5983457 4294967295
2.2345002 -0.90552485 0.59361655 4294967295
2.2357502 0.49517685 0.56251085 4294967295
2.23175 -0.91930968 0.56762385 4294967295
2.2352223 0.49908361 0.53629273 4294967295
2.2273333 -0.93471676 0.53910416 4294967295
2.2313333 0.50455272 0.50546426 4294967295
2.22875 -0.94263405 0.50032133 4294967295
2.2325714 0.51666057 0.46514922 4294967295
2.2296667 0.50761586 0.48223048 4294967295
2.2286665 -0.93872774 0.47449341 4294967295
2.23 0.54564923 0.44425833 4294967295
2.2260001 0.53433496 0.4564575 4294967295
2.2314546 -0.9351868 0.44359931 4294967295
2.23 0.54563689 0.40805283 4294967295
2.243 0.53581125 0.40393081 4294967295
2.2395 -0.89911819 0.40411192 4294967295
2.2312999 -0.91601568 0.41541088 4294967295
2.2249999 0.52118081 0.39969987 4294967295
2.234 0.49737778 0.39921328 4294967295
2.234 0.46628129 0.39921328 4294967295
2.2327499 0.43883815 0.39799201 4294967295
2.2321999 0.40532759 0.3910327 4294967295
2.2277498 0.37449506 0.39051354 4294967295
2.2285001 0.34103301 0.39520827 4294967295
2.2378001 0.31391463 0.39900783 4294967295
2.2319999 0.28591722 0.39932141 4294967295
2.24225 0.25989985 0.39876723 4294967295
2.2219999 0.22662735 0.39470667 4294967295
2.2219999 0.19311713 0.39470667 4294967295
2.2343333 0.16567373 0.393152 4294967295
2.2368333 0.1346948 0.3886804 4294967295
2.2358 0.10409621 0.38874108 4294967295
2.2344 0.074952453 0.39297637 4294967295
2.2305 0.046346787 0.39682326 4294967295
2.2244 0.016826635 0.39973232 4294967295
2.2253335 -0.015696986 0.39968187 4294967295
2.224 -0.04664639 0.39975396 4294967295
2.2244 -0.075047478 0.39973232 4294967295
2.2338333 -0.10385752 0.39663684 4294967295
2.2338333 -0.13496134 0.3905901 4294967295
2.2395 -0.16648062 0.38852388 4294967295
2.2406001 -0.19516727 0.38845927 4294967295
2.2386665 -0.2235577 0.38771355 4294967295
2.2308002 -0.25331143 0.38903463 4294967295
2.2293336 -0.28468865 0.3891207 4294967295
2.2219999 -0.30438077 0.38955125 4294967295
2.2413332 -0.35122606 0.3936165 4294967295
2.233 -0.37840301 0.39236793 4294967295
2.23475 -0.40596342 0.38880271 4294967295
2.2219999 -0.43240699 0.38439584 4294967295
2.2413332 -0.47083479 0.38841623 4294967295
2.2309999 -0.49193886 0.38558131 4294967295
2.2306666 -0.52292085 0.38386691 4294967295
2.2219999 -0.56472945 0.38439584 4294967295
2.2219999 -0.58878809 0.38439584 4294967295
2.2244 -0.61592758 0.38424936 4294967295
2.2414999 -0.64510316 0.38320577 4294967295
2.2314286 -0.67581087 0.38382041 4294967295
2.2219999 -0.70650345 0.38439584 4294967295
2.2227998 -0.73512661 0.38434702 4294967295
2.2259998 -0.76458549 0.3841517 4294967295
2.237 -0.79518652 0.38781142 4294967295
2.2322857 -0.82629192 0.38894743 4294967295
2.233 -0.85693067 0.39187694 4294967295
2.2298334 -0.88230956 0.39685619 4294967295
2.2693334 -0.9084549 1.7846887 4294967295
2.2650003 -0.91172278 1.7671247 4294967295
2.2639232 -0.91437757 1.735804 4294967295
2.2639234 -0.91719759 1.7038723 4294967295
2.263 -0.89805144 1.663013 4294967295
2.2628334 -0.90846181 1.6804074 4294967295
2.2650001 -0.89753133 1.6469647 4294967295
2.2705002 -0.9036687 1.637835 4294967295
2.2613335 -0.9110924 1.6172906 4294967295
2.2666667 -0.91440666 1.5886079 4294967295
2.2538002 -0.90748048 1.5537996 4294967295
2.263 -0.91293341 1.5273855 4294967295
2.2650001 -0.91855216 1.4919367 4294967295
2.2635 -0.91313171 1.4645916 4294967295
2.2690001 0.50254107 1.423892 4294967295
2.2610002 -0.91037953 1.4338152 4294967295
2.2627501 0.49064356 1.4016958 4294967295
2.2670002 -0.91279536 1.4046882 4294967295
2.253 0.48331535 1.3861542 4294967295
2.2665 0.47567201 1.3887038 4294967295
2.2647777 -0.91598052 1.3725759 4294967295
2.2602 -0.92473668 1.3501154 4294967295
2.2695 -0.93485349 1.338532 4294967295
2.265667 -0.93736452 1.3139186 4294967295
2.2583334 0.53161693 1.2729182 4294967295
2.2637501 0.47117841 1.2865613 4294967295
2.2647145 -0.9276247 1.2802963 4294967295
2.26175 -0.93296558 1.295047 4294967295
2.2690001 0.53412783 1.2659581 4294967295
2.2609999 0.48852572 1.2475902 4294967295
2.2642503 -0.91823965 1.2538742 4294967295
2.2595 0.49715483 1.225482 4294967295
2.253 -0.89670366 1.218879 4294967295
2.2678335 -0.90258223 1.2234362 4294967295
2.2623334 0.50543606 1.1928954 4294967295
2.2550001 -0.89749962 1.1959531 4294967295
2.2686 -0.90395659 1.1900399 4294967295
2.2690001 0.61835933 1.1659331 4294967295
2.2650001 0.59099329 1.1700497 4294967295
2.2608001 0.49967578 1.1636076 4294967295
2.2631001 -0.91226518 1.1652982 4294967295
2.2650001 0.49114481 1.1490288 4294967295
2.2636669 -0.91670537 1.1355097 4294967295
2.2661111 -0.91359621 1.1037651 4294967295
2.253 0.48331535 1.0881954 4294967295
2.253 0.47808802 1.0725133 4294967295
2.2614446 -0.90763587 1.0757428 4294967295
2.257 0.48417345 1.0316013 4294967295
2.2653751 -0.91213435 1.0433419 4294967295
2.26775 0.49568656 1.0116676 4294967295
2.257 -0.89829564 1.0054183 4294967295
2.2648001 -0.90453506 1.0165278 4294967295
2.2700002 0.50276256 0.9924053 4294967295
2.2663336 -0.89675212 0.98376334 4294967295
2.2690001 0.50254107 0.94482553 4294967295
2.253 -0.89670366 0.96273923 4294967295
2.2664001 -0.91044432 0.95065051 4294967295
2.264143 0.49920452 0.92513996 4294967295
2.2638574 -0.91752923 0.92660749 4294967295
2.2665715 0.49298438 0.89553952 4294967295
2.2659998 -0.91620523 0.89550984 4294967295
2.2676668 0.49172306 0.87091351 4294967295
2.2649999 -0.92488158 0.86618721 4294967295
2.2678001 0.49701363 0.83407903 4294967295
2.2640908 -0.92498732 0.83502495 4294967295
2.276 0.49881077 0.81411839 4294967295
2.2615557 -0.92458445 0.8046785 4294967295
2.2710001 -0.92494416 0.77660197 4294967295
2.2672 0.49688214 0.74461693 4294967295
2.2649 -0.91981941 0.74541783 4294967295
2.2540002 0.49398923 0.71583927 4294967295
2.2593751 -0.91889131 0.71499383 4294967295
2.266 0.98382169 0.67262518 4294967295
2.2576668 0.49479279 0.68340552 4294967295
2.2624288 -0.91469514 0.68263197 4294967295
2.2650001 0.97462195 0.66555166 4294967295
2.2648001 0.5005579 0.65501547 4294967295
2.2674003 -0.91821724 0.65517884 4294967295
2.267 0.94181693 0.62569857 4294967295
2.2697501 0.92400378 0.61582476 4294967295
2.2626002 0.50112361 0.62867057 4294967295
2.2644286 -0.91250539 0.62648439 4294967295
2.257 0.96070629 0.60743475 4294967295
2.263 0.95014083 0.59979832 4294967295
2.2615001 0.91712642 0.58750093 4294967295
2.2685001 -0.91206586 0.59738433 4294967295
2.257 -0.92447877 0.57077837 4294967295
2.2650001 -0.93301082 0.56044793 4294967295
2.2665 0.50198734 0.53154105 4294967295
2.2543335 -0.94430828 0.5341053 4294967295
2.266 0.50713408 0.50522798 4294967295
2.2648335 -0.95308125 0.50525665 4294967295
2.2620001 0.51279622 0.46854928 4294967295
2.253 0.50945204 0.4818235 4294967295
2.2576668 -0.94570452 0.47389412 4294967295
2.2646668 0.54886174 0.4448542 4294967295
2.2657144 0.52732527 0.45381507 4294967295
2.2670002 -0.94224715 0.44161993 4294967295
2.2662001 0.55028069 0.41325825 4294967295
2.2622223 0.52320212 0.40586159 4294967295
2.2629001 0.49750426 0.40448201 4294967295
2.2725 0.47431299 0.40240425 4294967295
2.276 0.2875824 0.40222314 4294967295
2.276 0.036748752 0.40222314 4294967295
2.2693336 0.01556816 0.40256813 4294967295
2.276 -0.022219159 0.40222314 4294967295
2.2700002 -0.050241616 0.40253362 4294967295
2.2583334 -0.07357832 0.40313736 4294967295
2.2690001 -0.092343718 0.40258539 4294967295
2.257 -0.89829564 0.40320635 4294967295
2.2637143 -0.91594732 0.41260129 4294967295
2.266 -0.93340498 0.42726791 4294967295
2.263 0.4355734 0.39764532 4294967295
2.263 0.40932068 0.39239478 4294967295
2.2667501 0.37846816 0.3921833 4294967295
2.2596667 0.34670231 0.39782554 4294967295
2.2590001 0.24611793 0.3978616 4294967295
2.2636669 0.22563271 0.39760926 4294967295
2.2609999 0.19385743 0.39775345 4294967295
2.2665 0.16547677 0.39483777 4294967295
2.2700002 0.14461251 0.39200005 4294967295
2.2623336 0.096903957 0.39243236 4294967295
2.2657502 0.070730083 0.39618978 4294967295
2.253 0.052059423 0.398186 4294967295
2.2676668 -0.11333805 0.39739299 4294967295
2.2665 -0.13695166 0.39219743 4294967295
2.253 -0.22237617 0.38773131 4294967295
2.27425 -0.2534931 0.39176041 4294967295
2.276 -0.2932955 0.39166173 4294967295
2.2632 -0.31576887 0.39238349 4294967295
2.253 -0.33737773 0.39295864 4294967295
2.253 -0.38965118 0.39295864 4294967295
2.266 -0.40242919 0.39222562 4294967295
2.253 -0.4366973 0.38773131 4294967295
2.2543335 -0.45787436 0.38765302 4294967295
2.2636669 -0.50179923 0.38710508 4294967295
2.2736666 -0.53037226 0.386518 4294967295
2.2583334 -0.55561697 0.38741821 4294967295
2.257 -0.58514541 0.38749647 4294967295
2.2610002 -0.6179179 0.38726163 4294967295
2.276 -0.6365416 0.38638103 4294967295
2.2645001 -0.67541093 0.38444248 4294967295
2.2576668 -0.70211947 0.38745734 4294967295
2.257 -0.73072362 0.38749647 4294967295
2.2658 -0.76511312 0.38697982 4294967295
2.2609999 -0.78446847 0.38726163 4294967295
2.2698572 -0.8243978 0.39200813 4294967295
2.26 -0.8496629 0.39256394 4294967295
2.2678001 -0.88152093 0.39738578 4294967295
2.2953334 -0.90288454 1.7925177 4294967295
2.293889 -0.90970975 1.7643449 4294967295
2.2939999 -0.91643178 1.7353044 4294967295
2.2933638 -0.91613358 1.7092961 4294967295
2.2911251 -0.90389436 1.6778872 4294967295
2.2981 -0.90931773 1.6460824 4294967295
2.2902002 -0.91841 1.6167053 4294967295
2.2911999 -0.91722339 1.5869101 4294967295
2.296375 -0.91929501 1.5546305 4294967295
2.2901666 -0.92123038 1.5235354 4294967295
2.2948749 -0.92201239 1.4940909 4294967295
2.2982223 -0.91765356 1.4645505 4294967295
2.2963333 0.52278268 1.4401085 4294967295
2.2985001 0.50106782 1.4302958 4294967295
2.2972999 -0.9169867 1.4351423 4294967295
2.2980001 0.4911668 1.4123156 4294967295
2.2927275 -0.9158892 1.4057742 4294967295
2.2958751 -0.92308354 1.3746653 4294967295
2.28 -0.92596465 1.3568592 4294967295
2.2958887 -0.93802482 1.3452389 4294967295
2.2820001 0.54248267 1.3099439 4294967295
2.2929168 -0.9374001 1.3145916 4294967295
2.29425 0.48550951 1.27824 4294967295
2.2957141 -0.92890984 1.2808084 4294967295
2.2944999 -0.93184131 1.2956359 4294967295
2.3050001 0.54260236 1.2670975 4294967295
2.2839999 0.53765887 1.2655901 4294967295
2.2866666 0.49053752 1.2505319 4294967295
2.2943749 -0.91847265 1.2556505 4294967295
2.29175 0.50026798 1.226223 4294967295
2.2940001 -0.90540367 1.226248 4294967295
2.309 0.60783124 1.1826775 4294967295
2.28 0.58961713 1.1849345 4294967295
2.2898571 0.50639522 1.1969173 4294967295
2.2968891 -0.90942889 1.1945835 4294967295
2.2893333 0.61328661 1.1717215 4294967295
2.2945712 0.49754879 1.1663666 4294967295
2.296375 -0.91995627 1.1623747 4294967295
2.2945454 -0.92145562 1.1349542 4294967295
2.2939 -0.91350055 1.1064901 4294967295
2.2903078 -0.90990645 1.075515 4294967295
2.2980001 0.49118304 1.0337806 4294967295
2.2941821 -0.91501504 1.046309 4294967295
2.2937999 0.49845341 1.0133139 4294967295
2.2947145 -0.9079653 1.0173078 4294967295
2.3033335 0.50480109 0.99399674 4294967295
2.2978001 -0.90387172 0.9853934 4294967295
2.2972 0.50344342 0.94902837 4294967295
2.2945454 -0.91468853 0.95394313 4294967295
2.2907779 0.4961341 0.92586935 4294967295
2.2948003 -0.92131495 0.92569566 4294967295
2.2922502 0.49172807 0.89730048 4294967295
2.297857 -0.91911125 0.89157915 4294967295
2.2922502 0.49705371 0.85607767 4294967295
2.2972667 -0.92709655 0.86553347 4294967295
2.309 0.50068575 0.84516925 4294967295
2.2968001 -0.92798209 0.83545351 4294967295
2.2813332 0.49997962 0.79892838 4294967295
2.2839999 -0.92890704 0.80853975 4294967295
2.3050001 -0.9334439 0.80182201 4294967295
2.2820003 0.50012565 0.77518636 4294967295
2.293 -0.92751282 0.76949698 4294967295
2.3050001 -0.93344384 0.78577805 4294967295
2.3041668 0.49963775 0.74559903 4294967295
2.2959998 -0.92447197 0.74478692 4294967295
2.2936001 0.49734646 0.715289 4294967295
2.2932 -0.92492491 0.71470207 4294967295
2.2839999 0.99869537 0.6773712 4294967295
2.2953331 0.49772236 0.68613654 4294967295
2.2903335 -0.91922849 0.68548036 4294967295
2.2922499 0.97436672 0.6486643 4294967295
2.2974999 0.50218332 0.65964311 4294967295
2.2952499 -0.9228307 0.65684921 4294967295
2.3015623 0.97333348 0.62285453 4294967295
2.2839999 0.94769686 0.61709082 4294967295
2.2969999 -0.91753507 0.62696594 4294967295
2.2820001 0.9634034 0.60840321 4294967295
2.2984211 0.94799799 0.60200924 4294967295
2.2911668 0.92296541 0.60033613 4294967295
2.309 0.50604302 0.60409188 4294967295
2.2964001 -0.92141873 0.59406602 4294967295
2.2976668 0.50355917 0.55571038 4294967295
2.2880001 -0.93983543 0.56084943 4294967295
2.2888331 0.50250489 0.53253227 4294967295
2.2853334 -0.95197898 0.53785068 4294967295
2.2985001 -0.96013504 0.52906382 4294967295
2.3070002 0.5109573 0.50499302 4294967295
2.29 0.50719213 0.51572531 4294967295
2.2839999 -0.95673513 0.49719602 4294967295
2.3026667 -0.96277022 0.50501424 4294967295
2.2833333 0.51189494 0.47335598 4294967295
2.2887142 -0.95263445 0.47364232 4294967295
2.2970002 0.54959375 0.44110179 4294967295
2.2969544 0.52349085 0.44279295 4294967295
2.2964547 -0.9469226 0.4437938 4294967295
2.2938752 0.55324644 0.41459826 4294967295
2.3006668 0.52480543 0.41952103 4294967295
2.2968748 0.49671844 0.40981168 4294967295
2.2809999 0.46021074 0.40196443 4294967295
2.3025 0.44851798 0.40085185 4294967295
2.2946 0.34319258 0.40126064 4294967295
2.2807999 0.3146444 0.40197477 4294967295
2.2813332 0.28295702 0.40194717 4294967295
2.30375 0.26167941 0.40078714 4294967295
2.309 0.21407162 0.4005155 4294967295
2.309 0.20335707 0.4005155 4294967295
2.3070002 0.06401477 0.40061897 4294967295
2.2893333 0.050255522 0.40153319 4294967295
2.28 -0.0099149002 0.40201616 4294967295
2.28 -0.03724651 0.40201616 4294967295
2.309 -0.075221181 0.40587276 4294967295
2.2936666 -0.10401034 0.40130895 4294967295
2.2985001 -0.89077502 0.40105882 4294967295
2.2943749 -0.91913015 0.41191405 4294967295
2.2985001 -0.93612999 0.42505229 4294967295
2.2896667 0.42741278 0.39620352 4294967295
2.28 0.39917758 0.39143616 4294967295
2.2950001 0.36987746 0.39591515 4294967295
2.2937999 0.16207455 0.39598006 4294967295
2.2893333 0.12991162 0.39090991 4294967295
2.2921999 0.10665883 0.3928833 4294967295
2.2893333 0.082125388 0.39622155 4294967295
2.29125 -0.13445316 0.39479309 4294967295
2.2893333 -0.16488309 0.39090991 4294967295
2.2831998 -0.19358549 0.39125574 4294967295
2.2926664 -0.22362627 0.39072192 4294967295
2.2820001 -0.25434735 0.39132339 4294967295
2.2815998 -0.28448403 0.39134598 4294967295
2.309 -0.32969168 0.3951582 4294967295
2.3048334 -0.34779385 0.39538348 4294967295
2.2839999 -0.37380618 0.39650989 4294967295
2.2964001 -0.40353805 0.39478147 4294967295
2.3006001 -0.43526426 0.39027458 4294967295
2.298857 -0.46688825 0.39037287 4294967295
2.3025 -0.50239241 0.39016747 4294967295
2.2896664 -0.51989669 0.38736445 4294967295
2.309 -0.56541175 0.38980094 4294967295
2.309 -0.5814836 0.38980094 4294967295
2.309 -0.6055913 0.38980094 4294967295
2.2853334 -0.64976585 0.38583308 4294967295
2.2963333 -0.67684567 0.3851873 4294967295
2.309 -0.71541542 0.38980094 4294967295
2.3083334 -0.73395473 0.38983852 4294967295
2.309 -0.76630956 0.38980094 4294967295
2.2971427 -0.79697084 0.39046955 4294967295
2.309 -0.83059686 0.3951582 4294967295
2.2981429 -0.85598135 0.39574522 4294967295
2.28 -0.8704198 0.39672616 4294967295
2.3329999 -0.89876801 1.8174639 4294967295
2.3169999 -0.9006725 1.8139461 4294967295
2.3321998 -0.89900118 1.8051169 4294967295
2.3227143 -0.90326846 1.7924844 4294967295
2.3271816 -0.90780586 1.7653816 4294967295
2.3265653 -0.91352171 1.7354844 4294967295
2.3270001 -0.90994287 1.7065251 4294967295
2.3256667 -0.90673023 1.6730756 4294967295
2.3280001 -0.9170894 1.6438637 4294967295
2.3279333 -0.9221946 1.6158851 4294967295
2.3267777 -0.92426115 1.5854638 4294967295
2.329 -0.92695194 1.5558674 4294967295
2.3258572 -0.92645717 1.5240066 4294967295
2.3267143 -0.92140055 1.4950742 4294967295
2.329 0.51042622 1.4531977 4294967295
2.3369999 0.50675726 1.4509809 4294967295
2.3278573 -0.91954029 1.4642971 4294967295
2.3150001 0.51809573 1.447588 4294967295
2.3313999 0.4979575 1.4325075 4294967295
2.3306003 -0.91947305 1.4349158 4294967295
2.329 0.48879302 1.4180645 4294967295
2.3210001 0.47636232 1.4069113 4294967295
2.3268461 -0.92068666 1.4037399 4294967295
2.3249998 -0.92670155 1.3814631 4294967295
2.3285 -0.93349832 1.3685765 4294967295
2.3274999 -0.94051409 1.3439074 4294967295
2.313 0.47472039 1.3072562 4294967295
2.3346 -0.92701185 1.3081069 4294967295
2.3244665 -0.93519938 1.3169074 4294967295
2.3309999 0.48923135 1.2890291 4294967295
2.3313334 -0.9265188 1.2851098 4294967295
2.319 -0.93103564 1.2904598 4294967295
2.3244998 0.49528092 1.2565498 4294967295
2.3286364 -0.9169755 1.2570745 4294967295
2.3290002 0.50255871 1.2247593 4294967295
2.3299232 -0.9090122 1.2252638 4294967295
2.3263333 0.63396859 1.1876521 4294967295
2.3263333 0.61602134 1.189441 4294967295
2.3253334 0.5042128 1.1954482 4294967295
2.3269999 -0.91589266 1.1932342 4294967295
2.3298001 0.49653906 1.1702597 4294967295
2.3271539 -0.92288536 1.1671085 4294967295
2.32675 -0.91963083 1.1337848 4294967295
2.3261766 -0.91025561 1.1047398 4294967295
2.326 -0.91225106 1.0742154 4294967295
2.3299999 0.49172097 1.0373365 4294967295
2.3276665 -0.91524625 1.0454544 4294967295
2.3278 0.49935502 1.0168526 4294967295
2.3269999 -0.91062498 1.0150627 4294967295
2.329 0.50502259 0.99388504 4294967295
2.329 -0.90857196 0.98577583 4294967295
2.3280001 0.49849296 0.95317185 4294967295
2.3276668 -0.91777289 0.95579857 4294967295
2.3183334 0.49374065 0.93255889 4294967295
2.3268461 -0.92234725 0.92326617 4294967295
2.325 0.49201441 0.89595813 4294967295
2.3282001 -0.91338527 0.89406067 4294967295
2.326143 0.49823144 0.86760914 4294967295
2.3260767 -0.92016226 0.86624992 4294967295
2.3301997 0.50202942 0.83463722 4294967295
2.3278573 -0.92571187 0.83933467 4294967295
2.326 -0.93114072 0.82326996 4294967295
2.3282728 0.50240022 0.80613613 4294967295
2.329 -0.93459797 0.80700171 4294967295
2.3253634 0.50128323 0.77587199 4294967295
2.3299999 -0.92734069 0.76298386 4294967295
2.3267777 -0.93385839 0.77870113 4294967295
2.3306 0.49725106 0.74546975 4294967295
2.3276665 -0.92640579 0.74518692 4294967295
2.3293333 0.4969801 0.71562636 4294967295
2.3281574 -0.92517972 0.71509886 4294967295
2.3253999 0.49614203 0.68561721 4294967295
2.329 -0.91909713 0.68452173 4294967295
2.3196666 0.9927628 0.64753652 4294967295
2.313 0.98454303 0.64448673 4294967295
2.326143 0.50439239 0.65716004 4294967295
2.327105 -0.923908 0.6553371 4294967295
2.319 0.99247748 0.63405102 4294967295
2.313 0.98588461 0.62972867 4294967295
2.3210001 0.50867295 0.62607497 4294967295
2.3278573 -0.92109072 0.6294719 4294967295
2.313 0.94697714 0.59887099 4294967295
2.3169999 0.50779629 0.60439253 4294967295
2.3369999 -0.92471373 0.6051116 4294967295
2.3303335 -0.93288016 0.5886578 4294967295
2.3257999 0.50647712 0.5615133 4294967295
2.3264999 -0.94956094 0.56087542 4294967295
2.3264544 0.50102508 0.5340628 4294967295
2.323 -0.95959038 0.5426265 4294967295
2.3307779 -0.96430087 0.52977931 4294967295
2.3210001 0.51135617 0.49413404 4294967295
2.3293335 0.5059846 0.50844055 4294967295
2.3369994 -0.91551954 0.50326782 4294967295
2.3353992 -0.94465971 0.50226212 4294967295
2.3280768 -0.96438533 0.5092274 4294967295
2.3210001 0.51135623 0.47528616 4294967295
2.3369999 0.50675726 0.47317049 4294967295
2.3305717 -0.95130122 0.47645664 4294967295
2.3187141 0.55352372 0.43536094 4294967295
2.3209996 0.51189655 0.44782948 4294967295
2.3329999 0.50648516 0.4413867 4294967295
2.3356667 -0.92599046 0.43345785 4294967295
2.3295162 -0.94300443 0.44618714 4294967295
2.3218572 0.55811405 0.42178789 4294967295
2.313 0.51228619 0.424458 4294967295
2.3264289 0.49790737 0.4169713 4294967295
2.3279998 0.46698815 0.40628922 4294967295
2.3169999 0.44328633 0.40010151 4294967295
2.3249998 0.3639009 0.40239865 4294967295
2.329 0.3429158 0.40623978 4294967295
2.3272221 0.31564966 0.40738198 4294967295
2.3255713 0.28690106 0.40582827 4294967295
2.3299999 0.25251195 0.403492 4294967295
2.3272221 0.2274463 0.40258387 4294967295
2.3285553 0.19337292 0.40311527 4294967295
2.3283331 0.071800776 0.40312678 4294967295
2.3242002 0.045625094 0.40512148 4294967295
2.3216665 0.015923202 0.40524668 4294967295
2.3296669 -0.016436204 0.40485126 4294967295
2.3243334 -0.047850419 0.40601858 4294967295
2.335 -0.076065868 0.41000527 4294967295
2.3249998 -0.10722057 0.4041875 4294967295
2.3269999 -0.12169939 0.40229514 4294967295
2.3369999 -0.86235797 0.4044888 4294967295
2.3296669 -0.88487375 0.40531164 4294967295
2.3287649 -0.91763586 0.41444322 4294967295
2.3226001 -0.93409419 0.4245981 4294967295
2.326 0.43152454 0.39829415 4294967295
2.3269999 0.40471065 0.39418501 4294967295
2.329 0.37803388 0.39813426 4294967295
2.3210001 0.18018091 0.39989451 4294967295
2.3274002 0.16446486 0.39956334 4294967295
2.326 0.13739067 0.39559463 4294967295
2.3276665 0.10508718 0.39685544 4294967295
2.3270001 0.08616586 0.39958403 4294967295
2.3276668 -0.13883971 0.39775294 4294967295
2.329 -0.1650334 0.39407688 4294967295
2.3286364 -0.19595595 0.39656118 4294967295
2.3290002 -0.22267108 0.39498055 4294967295
2.3267775 -0.25364462 0.39600444 4294967295
2.3236668 -0.28595671 0.39436522 4294967295
2.3223333 -0.31722897 0.39534104 4294967295
2.3369999 -0.34453413 0.39906657 4294967295
2.3290002 -0.37306258 0.39948052 4294967295
2.3283334 -0.40537244 0.39861906 4294967295
2.3296666 -0.43264312 0.39494452 4294967295
2.3329999 -0.465736 0.39386058 4294967295
2.3298001 -0.49483132 0.39403361 4294967295
2.3272221 -0.52486795 0.39178374 4294967295
2.3254442 -0.55384952 0.39128357 4294967295
2.3289998 -0.58650166 0.39228803 4294967295
2.3279998 -0.61730009 0.39211848 4294967295
2.325 -0.64079386 0.39093208 4294967295
2.3313999 -0.6736781 0.38853788 4294967295
2.3264999 -0.70463353 0.39016974 4294967295
2.3336666 -0.73659045 0.39382455 4294967295
2.3329999 -0.76615518 0.39386058 4294967295
2.3310001 -0.79523718 0.3939687 4294967295
2.3278573 -0.82311219 0.3972331 4294967295
2.3284287 -0.85647678 0.39951012 4294967295
2.3518574 -0.89784396 1.8224851 4294967295
2.3528891 -0.89823318 1.794549 4294967295
2.346 -0.90105927 1.7902253 4294967295
2.3540001 -0.89867032 1.7772615 4294967295
2.3515837 -0.90319234 1.7636851 4294967295
2.3556926 -0.90813369 1.7375764 4294967295
2.3552725 -0.90709668 1.7051526 4294967295
2.3536363 -0.90845186 1.6750388 4294967295
2.3544002 -0.91410714 1.6436315 4294967295
2.3535626 -0.91965163 1.6162659 4294967295
2.3539996 -0.92779094 1.5851836 4294967295
2.351846 -0.92595476 1.5546768 4294967295
2.3525717 -0.92267293 1.5261801 4294967295
2.3515625 -0.91477364 1.4942839 4294967295
2.3567998 0.52198708 1.4687085 4294967295
2.3499999 0.50412381 1.4507072 4294967295
2.3537691 -0.91663587 1.4660468 4294967295
2.3499999 0.49867147 1.4398024 4294967295
2.3490911 -0.91611356 1.4329987 4294967295
2.3499999 0.47686186 1.4179928 4294967295
2.3540833 -0.92190707 1.404525 4294967295
2.346 -0.92827487 1.3837993 4294967295
2.3570001 -0.93534642 1.3721379 4294967295
2.3578 -0.92855603 1.3356324 4294967295
2.3525834 -0.93541408 1.3489311 4294967295
2.3538823 -0.92173952 1.3150634 4294967295
2.342 -0.93212599 1.3279943 4294967295
2.346 0.49237955 1.2749369 4294967295
2.3543127 -0.92062342 1.2858062 4294967295
2.3536665 0.49762547 1.2528381 4294967295
2.3534443 -0.91301215 1.2567158 4294967295
2.3562856 0.49999702 1.2204566 4294967295
2.3530002 -0.90842259 1.2257208 4294967295
2.3505001 0.62149256 1.2000415 4294967295
2.3531539 0.49554601 1.1932409 4294967295
2.3526669 -0.91589528 1.1951919 4294967295
2.346 0.49237955 1.17153 4294967295
2.3521764 -0.9191463 1.164242 4294967295
2.3486152 -0.91253316 1.1366251 4294967295
2.3543334 -0.90789175 1.1028131 4294967295
2.354929 -0.90954494 1.0748742 4294967295
2.3516667 0.48992702 1.0375885 4294967295
2.3527501 -0.91183221 1.0451117 4294967295
2.3517501 0.49766985 1.0142057 4294967295
2.3518891 -0.91119403 1.0161223 4294967295
2.3528574 0.49809331 0.98430318 4294967295
2.3500001 -0.90882432 0.98336256 4294967295
2.3512728 0.49049968 0.95776081 4294967295
2.3508332 -0.91608822 0.95559847 4294967295
2.3530002 -0.91792858 0.92524719 4294967295
2.3551428 0.49273202 0.89381433 4294967295
2.3526669 -0.90679431 0.89452803 4294967295
2.3475997 0.49816221 0.86148953 4294967295
2.3525715 -0.91292959 0.86377501 4294967295
2.3560002 0.49994466 0.83538216 4294967295
2.3516667 -0.92323101 0.83526242 4294967295
2.3670001 -0.93109244 0.82038617 4294967295
2.3629999 0.50143003 0.80617517 4294967295
2.3499999 -0.92985761 0.81822872 4294967295
2.3569002 -0.93531311 0.80269265 4294967295
2.3494999 0.49765313 0.77274173 4294967295
2.355 -0.92636204 0.76968992 4294967295
2.3519998 -0.93391484 0.78138351 4294967295
2.3565001 0.49458325 0.74522769 4294967295
2.3534002 -0.92136127 0.74329877 4294967295
2.3578 0.49485615 0.71527308 4294967295
2.3536665 -0.9164263 0.71463609 4294967295
2.3536665 0.49489424 0.68490177 4294967295
2.3529999 -0.90871131 0.68521225 4294967295
2.3501999 0.50525159 0.6546737 4294967295
2.3513334 -0.91545659 0.65619171 4294967295
2.3588002 0.51148444 0.62231803 4294967295
2.3499999 0.5095762 0.63829947 4294967295
2.3494 -0.92198032 0.63064659 4294967295
2.3629999 0.51239514 0.60605854 4294967295
2.346 -0.92827487 0.59999627 4294967295
2.3565001 -0.93514365 0.59354579 4294967295
2.348 0.50642097 0.55921322 4294967295
2.35425 -0.95269954 0.55999076 4294967295
2.3536363 0.49396798 0.53174752 4294967295
2.3585 -0.89764696 0.52381283 4294967295
2.3543124 -0.91721243 0.52825528 4294967295
2.3537729 -0.94822562 0.53300583 4294967295
2.3476 -0.96158904 0.53469074 4294967295
2.3557999 0.49879661 0.50631577 4294967295
2.3530767 -0.89199674 0.50386113 4294967295
2.3439999 -0.90789944 0.50910777 4294967295
2.342 -0.94706905 0.51835227 4294967295
2.355417 0.50390393 0.47507748 4294967295
2.3561997 -0.89129436 0.47461209 4294967295
2.3466668 -0.91492194 0.47478858 4294967295
2.3434541 -0.93764555 0.47139144 4294967295
2.3538752 0.49845183 0.44221944 4294967295
2.3543713 -0.88536549 0.44358373 4294967295
2.3451772 -0.91354281 0.44553587 4294967295
2.3429999 -0.93659943 0.45719537 4294967295
2.3530002 0.48927951 0.42053699 4294967295
2.355 0.4655807 0.41111907 4294967295
2.3562856 0.44063479 0.40510467 4294967295
2.3629999 0.39452475 0.4032037 4294967295
2.3551819 0.37409011 0.409067 4294967295
2.3577502 0.34577209 0.4161287 4294967295
2.3587778 0.31568176 0.41437083 4294967295
2.3521667 0.28357232 0.4101119 4294967295
2.3614001 0.25453669 0.40876162 4294967295
2.3586667 0.22416274 0.40889037 4294967295
2.3570001 0.19390592 0.4089689 4294967295
2.3541 0.16581185 0.40583754 4294967295
2.3630002 0.13957469 0.4032037 4294967295
2.3586664 0.10011017 0.40524694 4294967295
2.3512857 0.077319562 0.40768424 4294967295
2.3452001 0.046029817 0.40952477 4294967295
2.3544002 0.013967437 0.41128626 4294967295
2.3570001 -0.013895508 0.4089689 4294967295
2.3537142 -0.045093372 0.41069144 4294967295
2.3534 -0.073930971 0.41459876 4294967295
2.355 -0.10267434 0.41111907 4294967295
2.3544002 -0.13405758 0.40472528 4294967295
2.3636668 -0.16475014 0.40317073 4294967295
2.3560002 -0.19427826 0.40354967 4294967295
2.3610001 -0.22482608 0.40330255 4294967295
2.3645999 -0.25533828 0.4031246 4294967295
2.3670001 -0.27481705 0.40300599 4294967295
2.3629999 -0.34561822 0.4032037 4294967295
2.3501666 -0.37645069 0.40383801 4294967295
2.3499999 -0.40643269 0.40384623 4294967295
2.365 -0.42822886 0.40310484 4294967295
2.365 -0.80684131 0.40310484 4294967295
2.3555715 -0.82664585 0.40435541 4294967295
2.3565629 -0.85727066 0.41002968 4294967295
2.3531363 -0.88343513 0.41883761 4294967295
2.346308 -0.91080475 0.42119765 4294967295
2.346 0.4243359 0.39860085 4294967295
2.3516002 0.40626633 0.39831105 4294967295
2.346 0.38896024 0.39860082 4294967295
2.3449998 0.13035294 0.39865258 4294967295
2.3439999 0.11398774 0.39870432 4294967295
2.342 -0.14965306 0.39880782 4294967295
2.346 -0.16623801 0.39860082 4294967295
2.342 -0.1822561 0.39880782 4294967295
2.342 -0.22844376 0.39880782 4294967295
2.342 -0.25651857 0.39880782 4294967295
2.3443999 -0.28579161 0.39868364 4294967295
2.3435998 -0.31288001 0.39872503 4294967295
2.348 -0.43605548 0.39849734 4294967295
2.3540001 -0.4644666 0.39818686 4294967295
2.3483999 -0.49332014 0.39847663 4294967295
2.3578 -0.52267283 0.39799023 4294967295
2.36025 -0.55264002 0.39650497 4294967295
2.3645999 -0.58451295 0.39763832 4294967295
2.3636665 -0.61444873 0.39768663 4294967295
2.3586669 -0.64594615 0.39613253 4294967295
2.3510001 -0.67389721 0.39288738 4294967295
2.3501999 -0.70089692 0.39293063 4294967295
2.3563335 -0.73280311 0.3980661 4294967295
2.358 -0.76342791 0.39797986 4294967295
2.3519998 -0.79420006 0.39829037 4294967295
2.3439999 -0.81599241 0.39870432 4294967295
2.3930001 1.1171489 1.8549986 4294967295
2.3943334 1.1061934 1.8534259 4294967295
2.3917501 0.87517291 1.8515245 4294967295
2.3833332 0.85411572 1.8426735 4294967295
2.3856668 0.83464438 1.8479775 4294967295
2.3759999 -0.90155631 1.8413824 4294967295
2.3710001 -0.89965916 1.818431 4294967295
2.3927999 -0.90348184 1.8296018 4294967295
2.3710001 -0.89965916 1.7927591 4294967295
2.3896 -0.90227503 1.7990557 4294967295
2.3836253 -0.90720916 1.7654302 4294967295
2.3889999 -0.91203201 1.7349831 4294967295
2.3908334 -0.91273189 1.7026173 4294967295
2.3787498 -0.91224766 1.673207 4294967295
2.3848181 -0.91394812 1.6460758 4294967295
2.3804445 -0.92225814 1.6161759 4294967295
2.3970001 -0.93177044 1.6083575 4294967295
2.3824999 -0.92889029 1.5810181 4294967295
2.3872499 -0.93212891 1.5900722 4294967295
2.3796666 -0.92686629 1.5590581 4294967295
2.3827777 -0.91946894 1.5250958 4294967295
2.3878 -0.91544551 1.495023 4294967295
2.3759999 0.54277772 1.4775426 4294967295
2.3840001 0.51141757 1.4697042 4294967295
2.3710001 0.50312763 1.4535232 4294967295
2.3805714 -0.91906649 1.4627812 4294967295
2.3759999 0.49040687 1.436197 4294967295
2.3842857 -0.92050165 1.4350226 4294967295
2.3786666 -0.92647755 1.4068753 4294967295
2.3900001 -0.93459463 1.3944514 4294967295
2.3842854 -0.93788338 1.3725984 4294967295
2.3818002 -0.92474955 1.3384044 4294967295
2.3856666 -0.9328838 1.3541136 4294967295
2.3840001 0.49482375 1.3037655 4294967295
2.3848751 -0.91943842 1.3151151 4294967295
2.3905001 0.49617288 1.2920289 4294967295
2.3865001 -0.92122483 1.2852035 4294967295
2.38975 0.50156176 1.2571156 4294967295
2.3854287 -0.91381973 1.2512422 4294967295
2.3817999 0.49878472 1.2256817 4294967295
2.381 -0.91370779 1.2246253 4294967295
2.3734999 0.63858074 1.2066958 4294967295
2.3813334 0.49242261 1.203433 4294967295
2.3828571 -0.91994971 1.1967584 4294967295
2.3848333 -0.91873527 1.165707 4294967295
2.3845 -0.91306579 1.1351781 4294967295
2.386143 -0.91251296 1.109102 4294967295
2.3835716 -0.91074556 1.072932 4294967295
2.3803332 0.49037746 1.0374665 4294967295
2.3810003 -0.91370767 1.0470712 4294967295
2.3843334 0.49764732 1.0134454 4294967295
2.388 -0.91719079 1.0169663 4294967295
2.3798001 0.49283969 0.98654681 4294967295
2.381 -0.91311187 0.98374736 4294967295
2.3786666 0.48267889 0.95983338 4294967295
2.381 -0.92001754 0.95336378 4294967295
2.385 -0.91761625 0.92544377 4294967295
2.3864999 0.49534258 0.89759922 4294967295
2.3782001 -0.90790886 0.89352584 4294967295
2.3805001 0.49962041 0.86350596 4294967295
2.3852501 -0.9161256 0.86421144 4294967295
2.3917501 0.50198156 0.83738661 4294967295
2.3821666 -0.92507243 0.83797324 4294967295
2.3889999 -0.93420351 0.82317805 4294967295
2.3970001 0.50308341 0.79082459 4294967295
2.3848333 -0.93718052 0.80326271 4294967295
2.3769999 0.49888584 0.77754486 4294967295
2.3826668 -0.9252637 0.76800811 4294967295
2.3852501 -0.93410486 0.78395534 4294967295
2.3970001 0.497522 0.75745595 4294967295
2.3842857 -0.92286795 0.74749875 4294967295
2.385 -0.91095281 0.71383995 4294967295
2.3889999 0.50140435 0.67352009 4294967295
2.382273 -0.9039216 0.68564689 4294967295
2.3889999 0.51249009 0.64580566 4294967295
2.3800001 0.50779384 0.656385 4294967295
2.3808 -0.91662586 0.65642989 4294967295
2.3734999 -0.92538601 0.63398135 4294967295
2.3796666 -0.94158626 0.59195566 4294967295
2.3710001 0.50312763 0.55133867 4294967295
2.3821666 -0.95547515 0.56069964 4294967295
2.3835001 0.49011788 0.53308904 4294967295
2.3889999 0.47923282 0.52386212 4294967295
2.3775001 -0.89384371 0.52384353 4294967295
2.3848751 -0.91322058 0.5349282 4294967295
2.3809998 -0.94487125 0.54318696 4294967295
2.3856664 0.4914678 0.50502872 4294967295
2.3889999 0.47923282 0.51831925 4294967295
2.3970001 0.3390207 0.49328709 4294967295
2.395 0.32484117 0.49192134 4294967295
2.3824444 -0.88679528 0.50481218 4294967295
2.3886666 0.50040746 0.47213453 4294967295
2.3915713 0.34473544 0.47260973 4294967295
2.3921304 0.31986156 0.47391421 4294967295
2.3827777 -0.88445848 0.47102305 4294967295
2.3826108 0.49021906 0.44493145 4294967295
2.3911998 0.475225 0.43510756 4294967295
2.3886666 0.36987293 0.44167057 4294967295
2.380533 0.34498215 0.44378623 4294967295
2.3881814 0.32113343 0.44403374 4294967295
2.3970001 0.16383505 0.44045332 4294967295
2.3957691 0.016235724 0.44177902 4294967295
2.3827999 -0.86653113 0.43540442 4294967295
2.3822727 -0.87477785 0.44798481 4294967295
2.3710001 0.48112321 0.42481276 4294967295
2.3838999 0.46326181 0.42154086 4294967295
2.3865333 0.4344492 0.41202837 4294967295
2.3859441 0.40418863 0.41254878 4294967295
2.3775334 0.37691641 0.42235297 4294967295
2.3710001 0.34359506 0.42481276 4294967295
2.3835387 0.31263274 0.42388999 4294967295
2.3856666 0.28666249 0.41408056 4294967295
2.3970001 0.26394111 0.41264606 4294967295
2.3916667 0.21896744 0.41288495 4294967295
2.3889165 0.19516306 0.41717204 4294967295
2.3856843 0.16655357 0.4181205 4294967295
2.3885 0.13486011 0.40680349 4294967295
2.3885558 0.10474961 0.40995753 4294967295
2.3906999 0.07466232 0.41570711 4294967295
2.3851111 0.042504657 0.4190402 4294967295
2.3870001 0.014299403 0.42349035 4294967295
2.3820002 -0.010580619 0.41609627 4294967295
2.3747499 -0.038790014 0.41364259 4294967295
2.391 -0.077885561 0.41846234 4294967295
2.3876665 -0.10825306 0.41676551 4294967295
2.3871112 -0.13469225 0.41125268 4294967295
2.3938003 -0.16406 0.40723538 4294967295
2.3909163 -0.19438145 0.4101519 4294967295
2.3896997 -0.22477791 0.41020924 4294967295
2.3913751 -0.25059664 0.40943515 4294967295
2.3743334 -0.28944448 0.40264353 4294967295
2.3718336 -0.31390056 0.40276709 4294967295
2.3916667 -0.38033265 0.40733588 4294967295
2.3773329 -0.40287289 0.40801108 4294967295
2.3799999 -0.43368384 0.405132 4294967295
2.3856666 -0.46517566 0.40208334 4294967295
2.3761666 -0.49638477 0.4025529 4294967295
2.3792 -0.52741146 0.40240297 4294967295
2.391 -0.55498224 0.40181974 4294967295
2.3903334 -0.58254737 0.4018527 4294967295
2.3970001 -0.60364497 0.40152317 4294967295
2.3970001 -0.74824262 0.40152317 4294967295
2.3970001 -0.75936556 0.40152317 4294967295
2.3900001 -0.79779696 0.40279609 4294967295
2.3877273 -0.82843065 0.41055053 4294967295
2.383105 -0.85475987 0.42113537 4294967295
2.3710001 -0.65760964 0.39730716 4294967295
2.3852501 -0.67540175 0.39656976 4294967295
2.3878336 -0.70747733 0.3964361 4294967295
2.4200003 1.9902214 1.8714674 4294967295
2.4260001 1.94074 1.8729393 4294967295
2.4290001 1.6721616 1.8750844 4294967295
2.4289999 1.293161 1.8708577 4294967295
2.4290001 1.2762541 1.8736756 4294967295
2.4267499 1.1652802 1.8724189 4294967295
2.4245 1.0882561 1.8711625 4294967295
2.4200001 0.90094763 1.8714674 4294967295
2.4245 0.82667679 1.8739803 4294967295
2.4259999 0.7943638 1.8729393 4294967295
2.4232502 1.983045 1.8634251 4294967295
2.4175003 1.9623388 1.8571423 4294967295
2.4099233 1.9427741 1.8602395 4294967295
2.4289999 1.2818897 1.8652219 4294967295
2.4205003 1.1494417 1.8580903 4294967295
2.4117389 1.1246119 1.850289 4294967295
2.41605 1.1001469 1.8566318 4294967295
2.4200001 0.90094763 1.8658526 4294967295
2.4156873 0.88568383 1.8518779 4294967295
2.4140909 0.84986269 1.8432056 4294967295
2.417357 0.83265126 1.8543491 4294967295
2.4244003 0.78614879 1.8604083 4294967295
2.4158821 0.76818192 1.8595856 4294967295
2.4155002 -0.90812564 1.8521203 4294967295
2.4290001 2.2331948 1.8156278 4294967295
2.4290001 2.2117794 1.8163793 4294967295
2.4269235 1.5471787 1.82336 4294967295
2.4260001 1.5298425 1.8166521 4294967295
2.402 0.86080801 1.8391229 4294967295
2.4170001 -0.90589786 1.824936 4294967295
2.4260001 2.2290556 1.8053924 4294967295
2.4277143 2.2130208 1.8057646 4294967295
2.4221251 1.54028 1.8066154 4294967295
2.4200003 1.5298067 1.8097044 4294967295
2.4153752 -0.90949053 1.7918072 4294967295
2.4136 -0.9158234 1.7614729 4294967295
2.4170001 -0.91711354 1.7352011 4294967295
2.4277141 -0.92117894 1.7067851 4294967295
2.4115 -0.9171086 1.67296 4294967295
2.4149003 -0.91799158 1.6444949 4294967295
2.411 -0.92602473 1.6258882 4294967295
2.4167142 -0.93381774 1.6124991 4294967295
2.4200001 -0.92948151 1.5738822 4294967295
2.4127142 -0.93306822 1.5882754 4294967295
2.4131999 -0.92797393 1.5557801 4294967295
2.4130001 -0.91978192 1.5260262 4294967295
2.4154999 0.52096146 1.4906435 4294967295
2.418875 -0.92132902 1.4934047 4294967295
2.411 0.51161563 1.474866 4294967295
2.4180002 -0.925587 1.4670165 4294967295
2.4154 -0.92658752 1.4407318 4294967295
2.4130001 -0.93239146 1.4224694 4294967295
2.4171247 -0.93959087 1.4022596 4294967295
2.4182498 -0.94001514 1.3753284 4294967295
2.4134445 -0.92508632 1.3426893 4294967295
2.4064999 -0.93266636 1.3586171 4294967295
2.4184444 -0.92513502 1.3113368 4294967295
2.4153333 0.50132716 1.2860258 4294967295
2.4159999 -0.92373019 1.284848 4294967295
2.411 0.5032143 1.2482805 4294967295
2.4212856 -0.92033494 1.2582176 4294967295
2.402 0.65460515 1.2149413 4294967295
2.4176667 0.49712557 1.2260083 4294967295
2.4153333 -0.92208505 1.221559 4294967295
2.402 0.49298671 1.2093682 4294967295
2.4170001 -0.92582679 1.1956066 4294967295
2.414 -0.91988438 1.1657612 4294967295
2.418 -0.91749293 1.1354177 4294967295
2.417625 -0.91523993 1.1030604 4294967295
2.4128001 -0.9132697 1.0753016 4294967295
2.4290001 2.2568648 1.0311393 4294967295
2.42225 0.49573392 1.0381463 4294967295
2.4136252 -0.91932613 1.0467952 4294967295
2.4290001 2.2568648 1.0226858 4294967295
2.4231002 2.2406933 1.007413 4294967295
2.4117999 0.49834609 1.0107121 4294967295
2.4166667 -0.92165476 1.014515 4294967295
2.4213889 2.2288678 0.98803383 4294967295
2.4206667 2.2163439 0.97509718 4294967295
2.4142499 0.49129269 0.99022877 4294967295
2.413125 -0.91773313 0.98578763 4294967295
2.4245 2.2224338 0.95423841 4294967295
2.415875 2.2166307 0.96042073 4294967295
2.4163001 -0.92469049 0.95500016 4294967295
2.4289999 2.2343221 0.9315753 4294967295
2.415 2.2158411 0.93854183 4294967295
2.4154286 -0.92051286 0.92660892 4294967295
2.4123333 0.50070453 0.88769257 4294967295
2.4115715 -0.91424859 0.89718157 4294967295
2.4254 0.50341666 0.86720133 4294967295
2.4161668 -0.92239976 0.86398852 4294967295
2.4191668 0.50398904 0.83543402 4294967295
2.4175 -0.92852128 0.84642351 4294967295
2.4145999 -0.93637025 0.82977486 4294967295
2.4170001 0.50615388 0.80428886 4294967295
2.4132001 -0.9408564 0.80665231 4294967295
2.4289999 2.251229 0.78316867 4294967295
2.424412 2.2393546 0.77142215 4294967295
2.4099998 0.50022024 0.77554131 4294967295
2.4200001 -0.92948151 0.76534921 4294967295
2.4200001 -0.93508792 0.78106642 4294967295
2.4267499 2.2449172 0.75194955 4294967295
2.4056001 0.49930701 0.74155951 4294967295
2.4147143 -0.92584872 0.74401498 4294967295
2.4171999 0.50171465 0.71455705 4294967295
2.4128885 -0.91056544 0.71548575 4294967295
2.4205835 2.2317133 0.68210161 4294967295
2.4289999 0.50698167 0.68454409 4294967295
2.4145999 -0.90723997 0.68636143 4294967295
2.4230001 2.2550335 0.65321094 4294967295
2.4193125 2.2387307 0.6607278 4294967295
2.411 0.51441258 0.64976114 4294967295
2.4099998 -0.92228019 0.65809703 4294967295
2.4200001 -0.93509632 0.64182329 4294967295
2.4213333 0.51942635 0.63064378 4294967295
2.4085 -0.93904239 0.62444985 4294967295
2.4200001 -0.95193022 0.59551674 4294967295
2.4289999 -0.96111667 0.5802837 4294967295
2.4289999 0.50979954 0.55210525 4294967295
2.4165001 -0.95334226 0.55194002 4294967295
2.4154 -0.96245408 0.56426048 4294967295
2.4142499 0.4926964 0.53650957 4294967295
