# .PCD v0.7 - Point Cloud Data file format
VERSION 0.7
FIELDS x y z rgb
SIZE 4 4 4 4
TYPE F F F U
COUNT 1 1 1 1
WIDTH 1151
HEIGHT 1
VIEWPOINT 0 0 0 1 0 0 0
POINTS 1151
DATA ascii
2.6296251 -0.373182 0.54485077 4294967295
2.628 -0.40572733 0.54254073 4294967295
2.6289999 -0.43501583 0.54594678 4294967295
2.618 -0.4618797 0.54852915 4294967295
2.6129999 -0.62772793 0.54847467 4294967295
2.6273999 -0.64947343 0.54741675 4294967295
2.6292002 -0.67431319 0.54377562 4294967295
2.6270001 -0.70879459 0.54406285 4294967295
2.6292002 -0.73531741 0.54865122 4294967295
2.6292 -0.7658295 0.54865122 4294967295
2.62725 -0.79572654 0.54559427 4294967295
2.628 -0.82169449 0.54593974 4294967295
2.62325 -0.84623593 0.54858637 4294967295
2.6288457 2.2335002 0.50548023 4294967295
2.6255455 2.2528377 0.46886584 4294967295
2.6327498 2.2449558 0.47996035 4294967295
2.6251667 2.2543564 0.4474352 4294967295
2.6359165 2.2452481 0.43966711 4294967295
2.6294837 2.2392197 0.41404206 4294967295
2.6292 2.2354364 0.38394535 4294967295
2.6389999 2.2172706 0.37833643 4294967295
2.630765 2.2396395 0.35406339 4294967295
2.6389999 2.2193115 0.36200863 4294967295
2.6340001 0.84616894 0.3409183 4294967295
2.6235714 2.2515388 0.32511353 4294967295
2.6333079 2.2445931 0.32029676 4294967295
2.6281874 2.2311528 0.29824823 4294967295
2.6245 2.2162259 0.28371769 4294967295
2.6276667 2.2133207 0.26565528 4294967295
2.62975 2.2229533 0.22986865 4294967295
2.6277144 2.2167642 0.24206558 4294967295
2.6281333 2.2345421 0.20514497 4294967295
2.6272726 2.245719 0.17458299 4294967295
2.6284192 2.2357657 0.14556924 4294967295
2.6373332 2.2158689 0.1346845 4294967295
2.6226666 2.2268548 0.11603227 4294967295
2.6342223 2.2166457 0.1181542 4294967295
2.622071 2.2224336 0.088387847 4294967295
2.6302855 2.2176211 0.082243264 4294967295
2.6233497 2.2259133 0.052521616 4294967295
2.6343751 2.2142599 0.055137813 4294967295
2.6270001 2.2518764 0.013783813 4294967295
2.6305995 2.2378457 0.026206285 4294967295
2.6389999 2.2162502 0.034431845 4294967295
2.6272774 2.2554934 -0.007093966 4294967295
2.6389999 2.2402585 -0.0029502511 4294967295
2.6262002 2.2828755 -0.044861674 4294967295
2.6325452 2.2671671 -0.032683015 4294967295
2.6389999 2.2424426 -0.025436759 4294967295
2.6291814 2.2881131 -0.064960778 4294967295
2.6278946 2.2843971 -0.091871977 4294967295
2.6312666 2.2705722 -0.10454679 4294967295
2.6389999 2.2438033 -0.10639554 4294967295
2.6238 2.2570355 -0.11434329 4294967295
2.6259522 2.2321081 -0.11836308 4294967295
2.6294284 2.2135584 -0.12822092 4294967295
2.6273663 2.2113223 -0.15422088 4294967295
2.6295936 2.2096493 -0.18537277 4294967295
2.629333 2.2076979 -0.21500015 4294967295
2.6389999 2.1818087 -0.22502732 4294967295
2.6129999 2.2216969 -0.2578519 4294967295
2.6317177 2.2095482 -0.24541867 4294967295
2.6389999 2.1810431 -0.24161029 4294967295
2.6248178 2.2253575 -0.27631736 4294967295
2.6368334 2.2123847 -0.271577 4294967295
2.6260414 2.228442 -0.30412185 4294967295
2.6389999 2.2193115 -0.29314488 4294967295
2.6291249 2.2262499 -0.33280444 4294967295
2.655 0.73587418 1.9965447 4294967295
2.6596665 -0.89399207 1.9981006 4294967295
2.655 0.73587412 1.9749846 4294967295
2.6561251 -0.89383149 1.9755892 4294967295
2.6569998 0.7364285 1.9452479 4294967295
2.6538749 -0.89461374 1.9497303 4294967295
2.6544287 0.74010718 1.91704 4294967295
2.6533334 -0.898022 1.9217522 4294967295
2.6553333 -0.90075147 1.9104909 4294967295
2.6570001 0.74532557 1.8853153 4294967295
2.6607499 -0.8953917 1.8762747 4294967295
2.6520002 -0.90303767 1.8841234 4294967295
2.6470001 0.75208127 1.8477638 4294967295
2.655 0.74819422 1.8548636 4294967295
2.658222 -0.89488268 1.855109 4294967295
2.6477273 -0.90357465 1.8528756 4294967295
2.6542351 0.79143757 1.8160667 4294967295
2.6558802 0.76421344 1.8234876 4294967295
2.661 0.74988508 1.8362713 4294967295
2.661 -0.89856601 1.8393583 4294967295
2.6539166 -0.90591055 1.8255793 4294967295
2.6530001 0.84672183 1.7879864 4294967295
2.6567223 0.82504129 1.7992086 4294967295
2.6585999 0.8059513 1.8073189 4294967295
2.658 -0.89755297 1.7854548 4294967295
2.6528335 -0.90451437 1.7978628 4294967295
2.6476004 2.194597 1.7553136 4294967295
2.6510837 2.1748815 1.7598501 4294967295
2.6470003 2.1482496 1.7566696 4294967295
2.6440001 1.0518209 1.7511806 4294967295
2.6537368 0.84892666 1.7654287 4294967295
2.6643331 0.83530647 1.756529 4294967295
2.6552002 -0.89536369 1.7619425 4294967295
2.6500001 -0.90100002 1.7724199 4294967295
2.6485004 2.19734 1.7356088 4294967295
2.6559999 2.1766019 1.7326273 4294967295
2.6513815 2.1468267 1.732929 4294967295
2.6464002 2.1150157 1.7228246 4294967295
2.6517503 2.0500402 1.7224818 4294967295
2.6535001 2.0256283 1.7305834 4294967295
2.6537335 1.9940275 1.7335335 4294967295
2.652308 1.9649403 1.7280545 4294967295
2.6490002 1.9347519 1.7238008 4294967295
2.6485002 1.904695 1.7225511 4294967295
2.6440003 1.88305 1.720508 4294967295
2.6440003 1.8002338 1.720508 4294967295
2.6552005 1.7823811 1.7280481 4294967295
2.6551878 1.7554736 1.7386636 4294967295
2.6557505 1.7259567 1.7353684 4294967295
2.6509287 1.6981931 1.7302334 4294967295
2.6455004 1.672357 1.7242563 4294967295
2.6511502 1.5129091 1.729894 4294967295
2.6543601 1.4872792 1.7323344 4294967295
2.64975 1.4560252 1.7288718 4294967295
2.6481998 1.4221483 1.7254852 4294967295
2.6499999 1.3923727 1.7263066 4294967295
2.6445005 1.3639187 1.7268695 4294967295
2.6440001 1.3360542 1.7215303 4294967295
2.647625 1.1177583 1.7267566 4294967295
2.6557617 1.097571 1.73405 4294967295
2.6543126 1.0666978 1.7428846 4294967295
2.6536665 1.0354795 1.7395856 4294967295
2.6532354 1.006971 1.7293912 4294967295
2.6494544 0.97351974 1.7268947 4294967295
2.6472728 0.94647098 1.7264568 4294967295
2.6503334 0.91495335 1.7249131 4294967295
2.6519334 0.88474047 1.7286135 4294967295
2.6557894 0.85607558 1.7384976 4294967295
2.6647499 0.83440644 1.7453847 4294967295
2.6547778 -0.89372122 1.7363446 4294967295
2.6552863 2.1960306 1.7044975 4294967295
2.6578336 2.1878657 1.7154824 4294967295
2.6606002 2.1399424 1.718163 4294967295
2.6569002 2.1141534 1.7152619 4294967295
2.6553338 2.0851791 1.7133236 4294967295
2.6570005 2.058742 1.715615 4294967295
2.6632502 1.957002 1.7184299 4294967295
2.6605003 1.9349115 1.718734 4294967295
2.6587784 1.9048795 1.7183024 4294967295
2.6569233 1.8725607 1.7121335 4294967295
2.6528952 1.8441808 1.7093019 4294967295
2.65575 1.8156103 1.7125826 4294967295
2.6550002 1.7954032 1.7193424 4294967295
2.6660001 1.7125324 1.7119403 4294967295
2.6587501 1.6921451 1.7049819 4294967295
2.651834 1.6648279 1.7037994 4294967295
2.6477506 1.6353835 1.7007033 4294967295
2.6467278 1.6066986 1.6949457 4294967295
2.6520834 1.5703579 1.693401 4294967295
2.6544003 1.5415587 1.7015028 4294967295
2.6581335 1.5199785 1.7133491 4294967295
2.6659999 1.4750063 1.7181258 4294967295
2.6612 1.451975 1.7165796 4294967295
2.6595497 1.4220668 1.7093501 4294967295
2.6544163 1.3939263 1.7067562 4294967295
2.6515222 1.3634806 1.7046627 4294967295
2.653857 1.3343596 1.7045206 4294967295
2.6543105 1.3048067 1.7035066 4294967295
2.6518571 1.2746822 1.6985655 4294967295
2.6535628 1.2453154 1.6948225 4294967295
2.6540003 1.21492 1.6968334 4294967295
2.6512728 1.1878067 1.6947201 4294967295
2.6500001 1.1525831 1.69249 4294967295
2.65604 1.1236436 1.7057493 4294967295
2.6605 0.99356395 1.718734 4294967295
2.6605 0.9750455 1.7187341 4294967295
2.6605 0.94418144 1.718734 4294967295
2.6577499 0.91700286 1.7190382 4294967295
2.6571667 -0.89727151 1.7048932 4294967295
2.6533895 2.2036974 1.6755103 4294967295
2.6615002 1.6608611 1.6872813 4294967295
2.6589234 1.6338583 1.6845666 4294967295
2.6586366 1.6049474 1.6867743 4294967295
2.6550002 1.5798013 1.6885421 4294967295
2.664 1.4120904 1.6739628 4294967295
2.6534445 1.3921363 1.6748605 4294967295
2.6483636 1.3641407 1.6800395 4294967295
2.6550384 1.3371874 1.6755264 4294967295
2.6659999 1.3141813 1.6871979 4294967295
2.6605 1.1756619 1.68787 4294967295
2.6589999 1.1534081 1.6872134 4294967295
2.655 1.1362776 1.6885421 4294967295
2.6534002 -0.89721638 1.6742691 4294967295
2.6500001 -0.90100002 1.6740446 4294967295
2.6549447 2.208405 1.643335 4294967295
2.6558888 1.389992 1.650582 4294967295
2.6530001 1.3652202 1.646098 4294967295
2.652 1.3450661 1.6546906 4294967295
2.6534615 -0.89600754 1.6466529 4294967295
2.6500001 -0.90100002 1.6340797 4294967295
2.6528003 2.2007377 1.6149406 4294967295
2.6620002 2.1861444 1.6036085 4294967295
2.661 0.54614389 1.6109213 4294967295
2.6600912 -0.89488709 1.6150303 4294967295
2.6500001 -0.90099996 1.6125602 4294967295
2.6460004 2.1934757 1.5894239 4294967295
2.6550002 2.1765597 1.5833285 4294967295
2.65275 0.54906207 1.584444 4294967295
2.6563752 -0.89622462 1.5859121 4294967295
2.6500001 -0.90100002 1.5838674 4294967295
2.6464002 2.1923749 1.5484452 4294967295
2.6530008 2.181087 1.5571537 4294967295
2.655 0.54491246 1.5653411 4294967295
2.6586001 -0.89775556 1.55443 4294967295
2.6482856 -0.90216988 1.5556767 4294967295
2.6480002 2.2872915 1.5175288 4294967295
2.6478827 2.2650857 1.5209742 4294967295
2.6472003 2.2348025 1.5196809 4294967295
2.6522768 2.2011695 1.5243664 4294967295
2.6580002 2.1890337 1.5356872 4294967295
2.6552856 -0.89134884 1.5258456 4294967295
2.6500001 -0.90100002 1.5387787 4294967295
2.6477501 2.2873304 1.5018229 4294967295
2.6521938 2.2649353 1.4963517 4294967295
2.6534784 2.2325571 1.4962111 4294967295
2.6562226 2.2045634 1.4982512 4294967295
2.6518571 -0.88492584 1.4964234 4294967295
2.6484447 2.2579699 1.4733226 4294967295
2.6528668 2.2321856 1.465816 4294967295
2.6592503 2.2147448 1.4775457 4294967295
2.6546001 -0.89085549 1.4666326 4294967295
2.6533334 2.2221165 1.4405198 4294967295
2.6525004 2.2173104 1.4258701 4294967295
2.6533334 -0.898022 1.4456594 4294967295
2.6569998 -0.90131813 1.4335837 4294967295
2.6532145 2.2132275 1.4037033 4294967295
2.6589999 0.52722543 1.4003563 4294967295
2.6536002 -0.90960652 1.4059348 4294967295
2.6527226 2.2277575 1.3681693 4294967295
2.6557782 2.2156045 1.3821552 4294967295
2.6541667 0.51805139 1.3730893 4294967295
2.6542001 -0.91474444 1.3741095 4294967295
2.6533875 2.231981 1.3454616 4294967295
2.6626668 2.2186191 1.3356597 4294967295
2.6530001 0.51248783 1.3454256 4294967295
2.658 0.50852615 1.3352628 4294967295
2.6553998 -0.91823089 1.3467722 4294967295
2.6495225 2.2324252 1.3167586 4294967295
2.6571877 2.2118633 1.3122787 4294967295
2.6565001 0.50669271 1.3132169 4294967295
2.6551669 -0.91609061 1.3148743 4294967295
2.6473339 2.2287023 1.2876277 4294967295
2.6563127 2.2138281 1.2862048 4294967295
2.655 0.50179207 1.2942988 4294967295
2.6538749 -0.91154736 1.2878153 4294967295
2.6470001 2.2229652 1.2551168 4294967295
2.6559999 2.21434 1.2545271 4294967295
2.6537499 -0.90611577 1.2546864 4294967295
2.6493754 2.2249491 1.2208068 4294967295
2.6579287 2.214515 1.2281893 4294967295
2.655143 -0.89745724 1.2195381 4294967295
2.6516669 -0.90156674 1.2318074 4294967295
2.6469452 2.2624886 1.1875441 4294967295
2.6548147 2.2376122 1.197051 4294967295
2.655 -0.89653146 1.1988221 4294967295
2.6532001 -0.90085095 1.1928055 4294967295
2.6490631 2.2584946 1.1684903 4294967295
2.6576819 2.2406149 1.1641936 4294967295
2.6543331 -0.90554315 1.1652901 4294967295
2.6440003 2.2541893 1.1499965 4294967295
2.6541929 2.2349062 1.1356063 4294967295
2.6540668 -0.90852678 1.135968 4294967295
2.6525004 2.2244914 1.1127846 4294967295
2.6563003 2.2135041 1.0986891 4294967295
2.6544287 -0.910411 1.1062882 4294967295
2.6552613 2.1989436 1.0749931 4294967295
2.6550002 2.1896467 1.0663768 4294967295
2.6535714 -0.91539574 1.0770663 4294967295
2.649667 2.2221258 1.0345409 4294967295
2.6546004 2.2077775 1.0468855 4294967295
2.6500001 0.51314402 1.0591993 4294967295
2.6552501 -0.92357087 1.044855 4294967295
2.6455004 2.2554646 1.0045754 4294967295
2.6509287 2.231746 1.0150136 4294967295
2.6628997 2.2165458 1.0142429 4294967295
2.6543334 -0.92196512 1.0190169 4294967295
2.6440003 2.2848618 0.98743153 4294967295
2.6478407 2.2645805 0.98700333 4294967295
2.6526668 2.2338741 0.98588562 4294967295
2.6612632 2.209749 0.98544335 4294967295
2.6557 -0.90477347 0.98641276 4294967295
2.6470001 2.2536728 0.96646667 4294967295
2.6529665 2.2330909 0.95557094 4294967295
2.6627271 2.215673 0.95956719 4294967295
2.6575999 0.49857682 0.94852889 4294967295
2.6567998 -0.90391916 0.95579112 4294967295
2.6559088 2.2290325 0.92567307 4294967295
2.6569998 0.49908084 0.92499459 4294967295
2.6508751 -0.90974849 0.92176634 4294967295
2.654778 2.2325552 0.89181149 4294967295
2.652 0.50122511 0.89347744 4294967295
2.6515002 -0.91226846 0.89186227 4294967295
2.6500626 2.2263007 0.86630315 4294967295
2.6575997 2.2060816 0.86096978 4294967295
2.6510003 0.50103611 0.8625735 4294967295
2.6538751 -0.9200086 0.86371547 4294967295
2.6440001 2.2235165 0.84940451 4294967295
2.6541874 2.2047253 0.8337326 4294967295
2.6627998 2.187422 0.84185719 4294967295
2.6589999 0.50665557 0.834831 4294967295
2.6545293 -0.91484159 0.83368844 4294967295
2.6521111 2.2251904 0.80254745 4294967295
2.6585386 2.2115359 0.81277466 4294967295
2.6500001 0.51314402 0.80403864 4294967295
2.6509171 -0.90437585 0.80875236 4294967295
2.6534514 2.2354107 0.7757107 4294967295
2.651 0.51333767 0.77645159 4294967295
2.6533334 -0.91444337 0.77566254 4294967295
2.6464 2.2562325 0.73672235 4294967295
2.654784 2.2362146 0.7463659 4294967295
2.6659999 0.5224278 0.74699062 4294967295
2.6605 -0.93851405 0.7434423 4294967295
2.6477499 2.2543123 0.71779311 4294967295
2.656786 2.2397509 0.71560663 4294967295
2.6659999 0.53479892 0.71606272 4294967295
2.6539998 -0.94546419 0.71517563 4294967295
2.6537895 2.2408075 0.68599838 4294967295
2.6659999 0.53479892 0.67276371 4294967295
2.6548333 -0.94215566 0.68085176 4294967295
2.6552143 2.2324927 0.65409756 4294967295
2.6659999 0.54098451 0.64492863 4294967295
2.6552 0.5363211 0.66105354 4294967295
2.6565716 -0.9478308 0.65607673 4294967295
2.6470001 -0.96343976 0.65017629 4294967295
2.6516669 2.2217584 0.63297904 4294967295
2.6535838 2.2074375 0.61946982 4294967295
2.655 2.1896467 0.61053288 4294967295
2.6486001 0.54359895 0.62259209 4294967295
2.6564 -0.95555896 0.62291467 4294967295
2.6460001 -0.96103173 0.62864816 4294967295
2.6490004 2.20312 0.5935607 4294967295
2.6575716 2.1891212 0.59652853 4294967295
2.6516669 0.54832268 0.59403342 4294967295
2.6561666 -0.94519448 0.59413791 4294967295
2.648 2.2227812 0.55704939 4294967295
2.6540372 2.2091281 0.5699001 4294967295
2.6500001 0.5438863 0.57962012 4294967295
2.6539998 0.52624148 0.57602149 4294967295
2.6543334 0.49652773 0.56945628 4294967295
2.6551664 0.46691704 0.56228596 4294967295
2.6529999 0.43371153 0.56122136 4294967295
2.6484001 0.40468267 0.56238705 4294967295
2.6464 0.37735641 0.56111884 4294967295
2.6500001 0.34713581 0.56117475 4294967295
2.6554 0.31702065 0.5637306 4294967295
2.6620002 0.28694943 0.56753755 4294967295
2.6586001 0.25574973 0.56624991 4294967295
2.6528001 0.22437301 0.56369251 4294967295
2.6542001 0.1937436 0.56739825 4294967295
2.6500001 0.16268225 0.56732321 4294967295
2.655 0.13526896 0.5674125 4294967295
2.6559999 0.10552929 0.5684613 4294967295
2.6568332 0.078863308 0.5684762 4294967295
2.655 0.045948189 0.5674125 4294967295
2.6576667 0.013791142 0.57020926 4294967295
2.6537502 -0.013342785 0.56354797 4294967295
2.6533334 -0.04437203 0.55610132 4294967295
2.6517999 -0.077147238 0.55505013 4294967295
2.6564999 -0.1050185 0.56127578 4294967295
2.6533334 -0.13397895 0.56397313 4294967295
2.6529999 -0.16337161 0.56430954 4294967295
2.6544287 -0.19161701 0.56564957 4294967295
2.655143 -0.22598098 0.56478399 4294967295
2.6530001 -0.25569654 0.55753279 4294967295
2.6605 -0.27803573 0.55516511 4294967295
2.6659999 -0.3559238 0.55523777 4294967295
2.6598001 -0.37360966 0.55515587 4294967295
2.664 -0.40509963 0.55521137 4294967295
2.6585999 -0.4351168 0.55514002 4294967295
2.6570001 -0.46362647 0.56025881 4294967295
2.6510003 -0.4953844 0.56119031 4294967295
2.6525002 -0.52337563 0.56276 4294967295
2.6586666 -0.55233014 0.56543314 4294967295
2.6522498 -0.58638126 0.56352931 4294967295
2.6532001 -0.61274695 0.56246161 4294967295
2.6552 -0.64401931 0.55879617 4294967295
2.6592498 -0.67278451 0.5551486 4294967295
2.6559999 -0.73487562 0.55598927 4294967295
2.6551111 -0.76309186 0.55784303 4294967295
2.6537499 -0.79452914 0.55507588 4294967295
2.655143 -0.82706255 0.55597794 4294967295
2.6552222 -0.85690761 0.56194735 4294967295
2.6564 -0.88467306 0.56743753 4294967295
2.6564443 -0.91688681 0.57429314 4294967295
2.6470001 -0.93375474 0.57955265 4294967295
2.6510835 2.2217782 0.5381214 4294967295
2.6589999 2.2158556 0.53928429 4294967295
2.648 -0.29208726 0.54885608 4294967295
2.6500001 -0.31689703 0.54887789 4294967295
2.6440001 -0.34071764 0.54881251 4294967295
2.6440001 -0.38672665 0.54881251 4294967295
2.6470001 -0.40558645 0.54884517 4294967295
2.6440001 -0.42046657 0.54881251 4294967295
2.648 -0.67914748 0.54885608 4294967295
2.6500001 -0.70117533 0.54887789 4294967295
2.6526499 2.2252359 0.50521111 4294967295
2.661 2.219291 0.50372195 4294967295
2.6512415 2.2323508 0.47401541 4294967295
2.6628749 2.2185352 0.47255871 4294967295
2.6500664 2.2320859 0.44558057 4294967295
2.6629999 2.2178674 0.44398427 4294967295
2.6497371 2.2260668 0.41556653 4294967295
2.659143 2.2133272 0.41104835 4294967295
2.6470001 2.222965 0.39530787 4294967295
2.6527085 2.2092798 0.38273329 4294967295
2.6503749 2.2265596 0.3474946 4294967295
2.6537147 2.2114351 0.35936552 4294967295
2.6440001 0.84324688 0.34330571 4294967295
2.6542609 2.2369432 0.32776159 4294967295
2.6555624 2.2320683 0.29747617 4294967295
2.6541665 2.2207749 0.26769924 4294967295
2.6440001 2.217382 0.26457921 4294967295
2.6527274 2.2230165 0.23221567 4294967295
2.6440001 2.217382 0.24822044 4294967295
2.6557779 2.2357993 0.20490426 4294967295
2.6548824 2.2449734 0.17246491 4294967295
2.6543846 2.2289178 0.1514672 4294967295
2.6545627 2.2115967 0.14013353 4294967295
2.6516666 2.2217584 0.10387951 4294967295
2.6543846 2.2142291 0.11829877 4294967295
2.6530001 2.2212338 0.092180312 4294967295
2.6575832 2.2159133 0.081887722 4294967295
2.65363 2.2030883 0.056828648 4294967295
2.6606667 2.1881385 0.042791665 4294967295
2.6464 2.2230754 0.019560397 4294967295
2.6529658 2.2049284 0.025486618 4294967295
2.6606665 2.1881385 0.033531815 4294967295
2.6476004 2.2265394 -0.0040097237 4294967295
2.6559999 2.2109988 -0.0041985512 4294967295
2.6470001 2.2598143 -0.044834673 4294967295
2.6486804 2.2318661 -0.037164807 4294967295
2.6585333 2.2143421 -0.032488465 4294967295
2.6486001 2.2839139 -0.069962382 4294967295
2.6550372 2.2663181 -0.065266907 4294967295
2.6585002 2.2344642 -0.063540876 4294967295
2.6634998 2.2182832 -0.053500116 4294967295
2.6470001 2.2843802 -0.083728492 4294967295
2.6548622 2.2640634 -0.091455281 4294967295
2.6569312 2.234375 -0.096385777 4294967295
2.6595001 2.2180307 -0.10508454 4294967295
2.653682 2.2081323 -0.12414521 4294967295
2.6533334 2.2029617 -0.15527475 4294967295
2.6543686 2.1994827 -0.18556017 4294967295
2.658 2.1890337 -0.19724363 4294967295
2.648 2.1930871 -0.20683056 4294967295
2.6539547 2.1781342 -0.21573466 4294967295
2.6513915 2.1689961 -0.24547273 4294967295
2.655 2.1588464 -0.23955441 4294967295
2.6495004 2.2014983 -0.2769177 4294967295
2.655643 2.1813662 -0.27142972 4294967295
2.6535001 2.2265713 -0.30992502 4294967295
2.6596873 2.208147 -0.29836446 4294967295
2.653182 2.2329051 -0.33360422 4294967295
2.6659999 2.2420175 -0.3540417 4294967295
2.6989999 -0.89887351 2.027277 4294967295
2.6800001 0.7365852 2.0042233 4294967295
2.688 -0.89521015 2.0055423 4294967295
2.6855998 0.73812431 1.9761763 4294967295
2.6889999 -0.89554316 1.9780041 4294967295
2.6924 0.73999327 1.9486139 4294967295
2.674 -0.8967517 1.9481686 4294967295
2.6953335 -0.90390611 1.9439236 4294967295
2.6799998 0.74280322 1.9109411 4294967295
2.6784999 -0.90239227 1.9112071 4294967295
2.6851666 0.74526817 1.8824908 4294967295
2.6822498 -0.89250749 1.8872341 4294967295
2.6838179 0.74724442 1.8557364 4294967295
2.6808331 -0.89229834 1.8553909 4294967295
2.671 0.78368902 1.8133305 4294967295
2.6801 0.75649399 1.8183516 4294967295
2.6819999 0.74958026 1.8342136 4294967295
2.6819999 -0.89943451 1.8248795 4294967295
2.671 -0.90194285 1.8226264 4294967295
2.6801 0.8223961 1.7897377 4294967295
2.6817827 0.79441988 1.8006735 4294967295
2.683857 0.76832092 1.8039681 4294967295
2.6850998 -0.89547354 1.7921089 4294967295
2.678333 0.82606453 1.7674596 4294967295
2.6864283 -0.89200306 1.766479 4294967295
2.6766002 2.1776364 1.7203847 4294967295
2.6710002 2.159462 1.7203729 4294967295
2.6879091 2.0495234 1.7239858 4294967295
2.6856921 2.0251176 1.7303158 4294967295
2.6812 1.9953685 1.7249284 4294967295
2.689667 1.9602033 1.7204124 4294967295
2.6990004 1.9378761 1.720432 4294967295
2.6850002 1.8000674 1.7204025 4294967295
2.6835883 1.7843269 1.7252866 4294967295
2.6782665 1.7564542 1.7302572 4294967295
2.6710005 1.7297913 1.7224387 4294967295
2.671 1.5025615 1.7203729 4294967295
2.6710002 1.490167 1.7203729 4294967295
2.6989999 1.1112735 1.720432 4294967295
2.6855001 1.0963596 1.7299892 4294967295
2.6833336 1.064963 1.7371025 4294967295
2.6827497 1.0350715 1.7292665 4294967295
2.6812 1.0118822 1.7212048 4294967295
2.6822498 0.91065782 1.7207385 4294967295
2.6816924 0.88637787 1.7261167 4294967295
2.6829412 0.85272938 1.7304747 4294967295
2.6849604 0.82888639 1.7333429 4294967295
2.6822855 -0.89507967 1.7352151 4294967295
2.6856 2.2015765 1.7065651 4294967295
2.6863637 2.1741195 1.7164996 4294967295
2.6842728 2.1458282 1.7144312 4294967295
2.687125 2.1159551 1.7077142 4294967295
2.6809411 2.084059 1.7061636 4294967295
2.6830003 2.0625494 1.7140822 4294967295
2.6820002 1.9847858 1.7190937 4294967295
2.6831112 1.9651999 1.7161255 4294967295
2.6800001 1.9366634 1.7181995 4294967295
2.6862943 1.9030708 1.7088825 4294967295
2.6863687 1.8746599 1.699371 4294967295
2.6832356 1.8430343 1.7005872 4294967295
2.688364 1.8128296 1.7100114 4294967295
2.6955628 1.7856977 1.7056024 4294967295
2.6836956 1.7541709 1.7035997 4294967295
2.6744711 1.7257138 1.7007558 4294967295
2.6786671 1.7057399 1.6927303 4294967295
2.6864285 1.5753486 1.6925707 4294967295
2.6838179 1.5454174 1.6983876 4294967295
2.6816669 1.5151114 1.7089021 4294967295
2.6835294 1.4850492 1.7113295 4294967295
2.6834004 1.4553629 1.7050612 4294967295
2.6745999 1.4326019 1.700887 4294967295
2.688 1.2720149 1.6905931 4294967295
2.6892219 1.24242 1.6931957 4294967295
2.6848886 1.2134321 1.6926901 4294967295
2.677 1.1953819 1.6920139 4294967295
2.6836874 1.118969 1.7030994 4294967295
2.6824286 1.0004256 1.7166123 4294967295
2.6865833 0.97368956 1.7154142 4294967295
2.6855998 0.94539356 1.7140348 4294967295
2.6847138 0.92208028 1.7167361 4294967295
2.6989999 0.82947719 1.7141699 4294967295
2.6831665 -0.89878213 1.7040335 4294967295
2.6851335 2.2123997 1.6752052 4294967295
2.6990001 2.1727064 1.6640728 4294967295
2.6989999 2.1466141 1.6692913 4294967295
2.6990001 2.1257403 1.6703349 4294967295
2.6990001 1.8971722 1.6891214 4294967295
2.6990004 1.7813226 1.6891214 4294967295
2.6990001 1.756274 1.6891214 4294967295
2.6892858 1.723194 1.6884693 4294967295
2.6843998 1.6931915 1.6877561 4294967295
2.6822858 1.6640291 1.6809708 4294967295
2.6841335 1.6344858 1.6789285 4294967295
2.6845 1.6066701 1.6859443 4294967295
2.6737502 1.5847547 1.6890354 4294967295
2.691 1.4469221 1.6802939 4294967295
2.6788461 1.4280901 1.6731956 4294967295
2.6989999 1.355497 1.6640728 4294967295
2.6823633 1.332993 1.6751125 4294967295
2.680923 1.3067032 1.6879749 4294967295
2.6728334 1.2751769 1.6891526 4294967295
2.671 1.2515757 1.6893871 4294967295
2.6863635 1.1825545 1.6858965 4294967295
2.6865234 1.1536177 1.6780477 4294967295
2.6867335 1.1315494 1.6833671 4294967295
2.6831665 -0.89566851 1.677073 4294967295
2.6869478 2.2087436 1.6458151 4294967295
2.6989999 2.1695752 1.6505048 4294967295
2.6899474 2.1435702 1.647084 4294967295
2.6891541 2.1222939 1.6512575 4294967295
2.6907496 1.4200202 1.6558793 4294967295
2.683444 1.3946999 1.6477855 4294967295
2.6788001 1.3602616 1.6517791 4294967295
2.6989999 0.54768085 1.6327621 4294967295
2.6815002 -0.89200175 1.6452515 4294967295
2.68225 2.1965349 1.6235161 4294967295
2.6863637 2.1820636 1.6111263 4294967295
2.684 0.60690194 1.6203589 4294967295
2.6824999 0.5505566 1.6041695 4294967295
2.6819999 -0.8932119 1.6133078 4294967295
2.6990001 2.1946239 1.5701407 4294967295
2.684375 2.1764922 1.5885723 4294967295
2.6849999 0.55106968 1.5927305 4294967295
2.683625 -0.89607877 1.5820386 4294967295
2.6860001 2.195467 1.5495069 4294967295
2.6752503 2.1815128 1.5624557 4294967295
2.671 0.54199916 1.5654435 4294967295
2.6807141 -0.89632899 1.5559139 4294967295
2.6803637 2.196986 1.5250057 4294967295
2.6823332 -0.88916743 1.5273546 4294967295
2.6990001 2.2321966 1.4824708 4294967295
2.6833127 2.2055852 1.4959402 4294967295
2.6812 -0.88672465 1.4947734 4294967295
2.6802731 2.229135 1.465042 4294967295
2.6710002 2.2152367 1.4786831 4294967295
2.6831429 -0.89447778 1.4652455 4294967295
2.683625 2.2303569 1.4372697 4294967295
2.6845999 -0.90404058 1.4337374 4294967295
2.6935 2.2245085 1.4086139 4294967295
2.6757145 2.2164798 1.4014404 4294967295
2.6819999 0.65001708 1.4017361 4294967295
2.68925 0.52697104 1.4103434 4294967295
2.6822855 -0.91286242 1.4035842 4294967295
2.6851432 2.2229302 1.3729522 4294967295
2.6792502 2.217412 1.380621 4294967295
2.6855998 0.51629323 1.3779904 4294967295
2.6797998 -0.91734958 1.3761322 4294967295
2.6776669 2.221777 1.3516456 4294967295
2.6836665 2.2169018 1.341563 4294967295
2.688 0.51113456 1.3537903 4294967295
2.6849999 0.50746208 1.3373145 4294967295
2.6854446 -0.91650426 1.3454103 4294967295
2.6813848 2.2137835 1.3163458 4294967295
2.6843331 0.50524867 1.3173461 4294967295
2.6801665 -0.9122895 1.3161409 4294967295
2.6990001 2.2259345 1.2852132 4294967295
2.6784444 2.2165692 1.2838759 4294967295
2.678 -0.91051996 1.2854838 4294967295
2.6990004 2.2259345 1.2632959 4294967295
2.6777999 2.2158949 1.2543375 4294967295
2.6849997 -0.90665948 1.2573595 4294967295
2.6862857 2.2252247 1.2152677 4294967295
2.6816251 2.2162628 1.2289531 4294967295
2.6829998 -0.89664847 1.2246444 4294967295
2.6826115 2.2355652 1.1944588 4294967295
2.684571 -0.8976168 1.1952504 4294967295
2.6831005 2.2345853 1.1639768 4294967295
2.6859088 -0.90356624 1.1644955 4294967295
2.6840835 2.2328186 1.13463 4294967295
2.6867776 -0.90448743 1.1338627 4294967295
2.6855717 2.2264049 1.1144974 4294967295
2.6847143 2.2105689 1.0974004 4294967295
2.6989999 0.51010799 1.1004801 4294967295
2.685333 -0.90676844 1.1051571 4294967295
2.6830001 2.1961179 1.0762808 4294967295
2.6775 0.5122568 1.0740883 4294967295
2.6842222 -0.91401136 1.0751522 4294967295
2.6846318 2.2114403 1.0452592 4294967295
2.6838572 -0.92495608 1.0474033 4294967295
2.675 2.2206199 1.0229113 4294967295
2.6849597 2.2076001 1.0132437 4294967295
2.6862855 -0.91777527 1.0140436 4294967295
2.678524 2.1983626 0.98361403 4294967295
2.6782501 2.1886241 0.99037957 4294967295
2.6819999 -0.89943457 0.97859275 4294967295
2.6803334 -0.90301561 0.99281967 4294967295
2.688 2.2230823 0.94219899 4294967295
2.6816249 2.2127485 0.95753002 4294967295
2.6837499 0.49477234 0.95088291 4294967295
2.6819999 -0.89943457 0.9661473 4294967295
2.6841667 -0.90430582 0.95300865 4294967295
2.6825557 2.227566 0.92439187 4294967295
2.6868 0.49533463 0.92328572 4294967295
2.6805997 -0.9082846 0.92548358 4294967295
2.6819999 2.2265286 0.89733469 4294967295
2.6900001 2.214752 0.88634169 4294967295
2.671 0.49861893 0.89614856 4294967295
2.6804442 -0.90857649 0.89608383 4294967295
2.6825883 2.2002866 0.86665332 4294967295
2.677 2.1891575 0.85351586 4294967295
2.6852498 0.50127906 0.87009692 4294967295
2.6804996 -0.91322267 0.86389709 4294967295
2.6730001 2.1941538 0.82407415 4294967295
2.6853502 2.1866157 0.83586264 4294967295
2.677 0.5121612 0.82246035 4294967295
2.6795001 0.50642258 0.83827519 4294967295
2.6989999 -0.89887351 0.83120811 4294967295
2.6845 -0.90710682 0.83825123 4294967295
2.6847141 2.2239141 0.79485416 4294967295
2.6843808 2.204654 0.80904937 4294967295
2.6935 2.1870205 0.81807518 4294967295
2.6933334 0.51528603 0.81179464 4294967295
2.6829998 -0.9050948 0.80357623 4294967295
2.6831582 2.2279158 0.77400541 4294967295
2.677 0.5183723 0.76034939 4294967295
2.671 -0.91433716 0.77840221 4294967295
2.6904998 -0.93036616 0.76469254 4294967295
2.6831582 2.2236512 0.7438556 4294967295
2.688 2.2168627 0.74886376 4294967295
2.6837502 -0.94517142 0.74070263 4294967295
2.6831598 2.2287731 0.71607536 4294967295
2.6947498 -0.95372862 0.71506572 4294967295
2.6843808 2.241137 0.68686604 4294967295
2.6795001 0.53438872 0.67663586 4294967295
2.6879997 -0.92637622 0.67402434 4294967295
2.6791427 -0.93843079 0.6850636 4294967295
2.6823335 2.2370677 0.65503198 4294967295
2.682857 0.52511573 0.6523928 4294967295
2.6935 0.50593746 0.64309257 4294967295
2.6990001 -0.89678609 0.65795559 4294967295
2.6863914 -0.91660124 0.65766293 4294967295
2.6804163 -0.93775642 0.64818317 4294967295
2.6823332 2.222527 0.6363588 4294967295
2.6818333 2.2050228 0.62285399 4294967295
2.6790001 0.54362249 0.62376463 4294967295
2.6822801 0.52561563 0.62389803 4294967295
2.6938233 0.50139856 0.62398416 4294967295
2.6990001 0.24292338 0.63499439 4294967295
2.6989999 0.23206903 0.63207209 4294967295
2.6989996 0.041016806 0.62057251 4294967295
2.6989996 0.025835862 0.62142646 4294967295
2.6855998 -0.95005298 0.6248734 4294967295
2.6826921 2.1961899 0.59232861 4294967295
2.6908884 0.54671478 0.59510559 4294967295
2.6926157 0.52331054 0.59380317 4294967295
2.69625 0.50489169 0.59161943 4294967295
2.6989999 0.19386995 0.58072251 4294967295
2.6989999 0.16569032 0.58072251 4294967295
2.6942856 0.13057747 0.58330023 4294967295
2.6926663 0.10449867 0.58808953 4294967295
2.6919088 0.078947842 0.58625352 4294967295
2.6921248 0.047373448 0.58761275 4294967295
2.6888332 0.013785088 0.58674955 4294967295
2.6933999 -0.0083850389 0.58310139 4294967295
2.6989999 -0.16933417 0.58072251 4294967295
2.6911998 -0.19692212 0.58054703 4294967295
2.6933329 -0.22469771 0.58633536 4294967295
2.6953332 -0.24519144 0.58481479 4294967295
2.6916666 -0.88809025 0.58055753 4294967295
2.6883333 -0.91609818 0.5856871 4294967295
2.6833997 -0.94035852 0.59905732 4294967295
2.688 2.2230737 0.55552858 4294967295
2.6815715 2.2097771 0.56611109 4294967295
2.6795001 0.49086413 0.57406694 4294967295
2.6862855 0.46674946 0.56976038 4294967295
2.6801999 0.43692473 0.56911498 4294967295
2.671 0.40566128 0.56769824 4294967295
2.6722 0.37483817 0.5677197 4294967295
2.671 0.34368953 0.56769824 4294967295
2.6894283 0.31752071 0.57249665 4294967295
2.6989999 0.28467098 0.57446039 4294967295
2.6919999 0.25271943 0.57276988 4294967295
2.6849997 0.22813867 0.57107931 4294967295
2.6768 0.19539085 0.57401246 4294967295
2.6722 0.16405065 0.57391965 4294967295
2.677 0.13328427 0.57401651 4294967295
2.6710002 0.10819685 0.57389539 4294967295
2.671 0.074112378 0.57389539 4294967295
2.671 0.04622509 0.57389539 4294967295
2.671 0.027633561 0.57389539 4294967295
2.6782856 -0.018469751 0.57226819 4294967295
2.6850002 -0.04593806 0.56380171 4294967295
2.6852498 -0.07500837 0.56172246 4294967295
2.6856 -0.10306513 0.56671953 4294967295
2.6849997 -0.13211152 0.57314503 4294967295
2.6799998 -0.16503543 0.57407701 4294967295
2.6819999 -0.19626975 0.57411736 4294967295
2.6801665 -0.22929353 0.57304752 4294967295
2.6855714 -0.25438622 0.56797135 4294967295
2.6795001 -0.28310773 0.55853105 4294967295
2.6819999 -0.31450099 0.55544931 4294967295
2.6823332 -0.34462842 0.55754107 4294967295
2.6885715 -0.37585586 0.56266868 4294967295
2.6886666 -0.4015649 0.56386292 4294967295
2.6868 -0.43350115 0.56174654 4294967295
2.688 -0.46488857 0.56675959 4294967295
2.6789999 -0.49438748 0.56784111 4294967295
2.6754999 -0.52168876 0.56777859 4294967295
2.671 -0.5610981 0.56769824 4294967295
2.671 -0.58278829 0.56769824 4294967295
2.6730001 -0.61733925 0.56773394 4294967295
2.6855998 -0.64516371 0.56671953 4294967295
2.6837499 -0.67275614 0.56169915 4294967295
2.6843846 -0.70618975 0.56028891 4294967295
2.6878886 -0.73439795 0.56523961 4294967295
2.6888332 -0.76758939 0.56698382 4294967295
2.681 -0.79647398 0.56165642 4294967295
2.6837499 -0.82763594 0.5640443 4294967295
2.6864996 -0.85418558 0.57110292 4294967295
2.6823332 -0.88397074 0.5741241 4294967295
2.671 -0.9050414 0.57389539 4294967295
2.6832497 2.2248602 0.53627396 4294967295
2.682909 2.2273662 0.50452936 4294967295
2.6839998 2.2235031 0.47887391 4294967295
2.6810002 2.2173021 0.46586403 4294967295
2.6813533 2.2161169 0.4430922 4294967295
2.6990001 2.2259345 0.41790688 4294967295
2.6787498 2.2162189 0.41400206 4294967295
2.6861997 2.2147403 0.38597783 4294967295
2.6859999 2.2245395 0.34777689 4294967295
2.6812 2.2124836 0.36384505 4294967295
2.6829407 2.2368395 0.32403851 4294967295
2.6866844 2.2354343 0.29337135 4294967295
2.6811814 2.2315803 0.26589888 4294967295
2.6817496 2.2319129 0.23397377 4294967295
2.6825216 2.2290945 0.20448619 4294967295
2.677 2.2512684 0.17650628 4294967295
2.682375 2.234761 0.17699271 4294967295
2.6896663 2.2175314 0.16934201 4294967295
2.6710002 2.2276311 0.15868464 4294967295
2.6828749 2.2145588 0.14657936 4294967295
2.6822855 2.2245836 0.10737309 4294967295
2.6833999 2.2142985 0.12464038 4294967295
2.6867998 2.2252004 0.0898498 4294967295
2.6784999 2.2141986 0.075847745 4294967295
2.6850715 2.201529 0.054889679 4294967295
2.6872997 2.1944296 0.021822542 4294967295
2.6791427 2.1873498 0.02970922 4294967295
2.6819997 2.2060375 -0.0031282902 4294967295
2.6907501 2.2237954 -0.042178333 4294967295
2.6822858 2.2165787 -0.030412853 4294967295
2.6814666 2.2255552 -0.067941308 4294967295
2.6815336 2.2251945 -0.092839241 4294967295
2.671 2.2152367 -0.10779393 4294967295
2.6935 2.2245169 -0.11621338 4294967295
2.6813333 2.2144697 -0.12577438 4294967295
2.6838181 2.210572 -0.15607238 4294967295
2.6828179 2.2040873 -0.1858319 4294967295
2.68225 2.1918817 -0.20534647 4294967295
2.6813333 2.1823158 -0.21909595 4294967295
2.6866665 2.1762745 -0.246535 4294967295
2.6849999 2.1925361 -0.2886135 4294967295
2.6804442 2.1822844 -0.2765404 4294967295
2.671 2.2276311 -0.3184979 4294967295
2.6827145 2.2040322 -0.30705398 4294967295
2.6850455 2.2342131 -0.3356477 4294967295
2.6911998 2.2157419 -0.32483917 4294967295
2.6989999 2.2572453 -0.36486065 4294967295
2.6865001 2.2467687 -0.35451955 4294967295
2.721 -0.89988732 2.0332499 4294967295
2.7140002 -0.89576834 2.0032713 4294967295
2.7185001 -0.89906049 1.9845512 4294967295
2.7125001 -0.90336961 1.968725 4294967295
2.704 0.74318147 1.9359632 4294967295
2.704 -0.90681249 1.9359632 4294967295
2.7178571 0.74699008 1.9179758 4294967295
2.7125001 -0.89391953 1.9057903 4294967295
2.7096665 -0.90451723 1.922161 4294967295
2.721 0.74785388 1.8848901 4294967295
2.7170002 -0.89226049 1.886031 4294967295
2.7153332 0.74838763 1.8579195 4294967295
2.71 -0.89624935 1.8605025 4294967295
2.704 -0.90053874 1.8418571 4294967295
2.7164288 0.75559837 1.8218174 4294967295
2.704 0.74945521 1.8355833 4294967295
2.721 -0.89988726 1.8186016 4294967295
2.704 -0.90053874 1.8261727 4294967295
2.7131999 0.8124308 1.7859052 4294967295
2.7125456 0.79645258 1.793959 4294967295
2.714 0.77021587 1.8008591 4294967295
2.7173331 -0.8944658 1.7947706 4294967295
2.7098572 0.81753701 1.7674782 4294967295
2.7112501 -0.89508444 1.760483 4294967295
2.7127502 2.0508046 1.725755 4294967295
2.7117782 2.0246358 1.7261034 4294967295
2.7160003 2.0067964 1.7216916 4294967295
2.7160003 1.9595345 1.7216916 4294967295
2.7160001 1.1119715 1.7216916 4294967295
2.7140834 1.0954382 1.7302809 4294967295
2.7117779 1.0633901 1.7330953 4294967295
2.7116668 1.0336382 1.7250071 4294967295
2.7160001 1.0174477 1.7216916 4294967295
2.7148333 0.91097808 1.7232713 4294967295
2.7160835 0.88461882 1.7264454 4294967295
2.7106252 0.86135167 1.7263784 4294967295
2.7116668 0.81762898 1.7333993 4294967295
2.721 -0.89988726 1.7491566 4294967295
2.7119999 -0.90320307 1.7262048 4294967295
2.7160006 2.2210503 1.6964853 4294967295
2.7142506 2.2043076 1.7033657 4294967295
2.7172921 2.1769147 1.705444 4294967295
2.7123077 2.1488144 1.702142 4294967295
2.7102108 2.116677 1.6952897 4294967295
2.712625 2.0861056 1.7056381 4294967295
2.7096667 2.0649726 1.7167851 4294967295
2.7210002 2.0136473 1.7175907 4294967295
2.7153335 1.992645 1.7171879 4294967295
2.7108004 1.9740083 1.7168655 4294967295
2.7155719 1.9362745 1.7066363 4294967295
2.7072227 1.9060656 1.6954639 4294967295
2.7132859 1.8761725 1.6944077 4294967295
2.7133338 1.8453296 1.6953177 4294967295
2.7062502 1.8159287 1.6981381 4294967295
2.7142503 1.7803342 1.6909982 4294967295
2.7136004 1.7531713 1.6904044 4294967295
2.7140005 1.7264409 1.6911145 4294967295
2.7140002 1.6014163 1.6920147 4294967295
2.7147148 1.5721341 1.6977208 4294967295
2.7137003 1.5454539 1.7024087 4294967295
2.7136667 1.5139598 1.7070082 4294967295
2.7141333 1.4852655 1.7011224 4294967295
2.704 1.4646617 1.6912873 4294967295
2.7185001 1.3242896 1.6912608 4294967295
2.7124999 1.3056358 1.6918125 4294967295
2.7060001 1.2742428 1.6921536 4294967295
2.7160001 1.2443047 1.6964853 4294967295
2.7121997 1.2136149 1.6923163 4294967295
2.7143574 1.1166862 1.703864 4294967295
2.721 1.1077054 1.7091731 4294967295
2.7130001 1.0019341 1.7167583 4294967295
2.7130003 0.97339875 1.7117689 4294967295
2.7134001 0.94343942 1.7098311 4294967295
2.7154999 0.92431962 1.7167385 4294967295
2.7156668 0.85140646 1.712085 4294967295
2.7129087 0.82314736 1.7080055 4294967295
2.721 0.80467254 1.7049643 4294967295
2.7185001 -0.89906049 1.6944175 4294967295
2.71 -0.90253705 1.7096124 4294967295
2.7072001 2.2054703 1.6755103 4294967295
2.7052007 2.1751893 1.6761172 4294967295
2.7040002 2.1434808 1.6799946 4294967295
2.7138238 2.1244326 1.6762713 4294967295
2.7176254 1.9323328 1.6814219 4294967295
2.7085559 1.9056252 1.6841773 4294967295
2.7210002 1.8337215 1.6860247 4294967295
2.7187779 1.8147002 1.681565 4294967295
2.7117779 1.7897472 1.6841596 4294967295
2.7130001 1.6943395 1.6825852 4294967295
2.7131112 1.6675222 1.6763407 4294967295
2.7148752 1.6358948 1.6826074 4294967295
2.7040002 1.6152315 1.6850135 4294967295
2.721 1.4759744 1.6839203 4294967295
2.712286 1.4520521 1.6687874 4294967295
2.7176666 1.360667 1.6719855 4294967295
2.7080002 1.334885 1.6825451 4294967295
2.7193334 1.203771 1.6832062 4294967295
2.7146666 1.1843723 1.677521 4294967295
2.7130003 1.1547959 1.6688533 4294967295
2.7159288 1.1281389 1.6779917 4294967295
2.7039998 -0.89426506 1.672466 4294967295
2.7086666 2.2028282 1.6514095 4294967295
2.7083752 2.1755204 1.6397541 4294967295
2.7133753 2.1425455 1.6434158 4294967295
2.7100003 2.1281025 1.6498866 4294967295
2.7142498 1.429268 1.6563568 4294967295
2.7088001 1.3968511 1.6506326 4294967295
2.7160001 0.62044799 1.6334695 4294967295
2.7160001 0.58578926 1.6460726 4294967295
2.721 0.54583192 1.6481456 4294967295
2.704 -0.89426506 1.6442342 4294967295
2.7142506 2.1865478 1.6206704 4294967295
2.7096665 0.54984534 1.6245729 4294967295
2.704 -0.89426506 1.6160023 4294967295
2.7142503 2.2007265 1.5792181 4294967295
2.7040002 2.186142 1.5909073 4294967295
2.721 0.55214512 1.591327 4294967295
2.7165999 -0.89843214 1.5870513 4294967295
2.704 -0.90053874 1.5783598 4294967295
2.7172501 2.2141898 1.5551802 4294967295
2.7136669 -0.89746201 1.5569719 4294967295
2.707 2.2074096 1.5261586 4294967295
2.7172499 -0.89234257 1.5236578 4294967295
2.7136669 2.2275248 1.4929495 4294967295
2.7136672 2.2128458 1.5065763 4294967295
2.7176666 -0.89247942 1.5017344 4294967295
2.7172501 2.2520168 1.4669175 4294967295
2.7040002 2.2363319 1.4779801 4294967295
2.7125001 -0.89707619 1.4778349 4294967295
2.7136667 -0.90375817 1.456207 4294967295
2.7210002 2.2503917 1.4461238 4294967295
2.7132003 2.2401474 1.4321122 4294967295
2.7112501 -0.91081226 1.433368 4294967295
2.7130001 2.2284806 1.4011389 4294967295
2.721 0.65946925 1.3956182 4294967295
2.7112498 0.52342898 1.4050648 4294967295
2.7165999 -0.91859573 1.4068195 4294967295
2.7174447 2.2313342 1.3769596 4294967295
2.7160001 0.65825748 1.3877077 4294967295
2.7160001 0.51332104 1.368803 4294967295
2.7136667 -0.9205423 1.3733184 4294967295
2.7133753 2.2275519 1.3475103 4294967295
2.704 0.51105303 1.358779 4294967295
2.7185001 0.50748616 1.3412039 4294967295
2.7146001 -0.91540307 1.3444357 4294967295
2.7130001 2.2275803 1.3130143 4294967295
2.7039998 0.50477928 1.316954 4294967295
2.7088001 -0.91470706 1.3162571 4294967295
2.72 2.2369428 1.2880073 4294967295
2.7130003 -0.91612542 1.289193 4294967295
2.7136669 2.2296319 1.2536989 4294967295
2.7136669 -0.9079538 1.2589421 4294967295
2.7127004 2.2303042 1.2261481 4294967295
2.7169998 -0.8985644 1.2241304 4294967295
2.704 -0.90053874 1.2395779 4294967295
2.7140837 2.2430866 1.1950209 4294967295
2.721 -0.89988726 1.2030661 4294967295
2.71 -0.90253705 1.1877224 4294967295
2.7140005 2.2427986 1.1675737 4294967295
2.7193334 -0.90564537 1.1742519 4294967295
2.7150002 2.2445235 1.135412 4294967295
2.721 -0.90620035 1.1367776 4294967295
2.7130001 2.22646 1.1097858 4294967295
2.7155001 2.2158995 1.0992968 4294967295
2.7136669 0.51288003 1.0994467 4294967295
2.7165999 -0.90977544 1.1042576 4294967295
2.7132859 2.2080367 1.0693722 4294967295
2.7185001 0.51379353 1.0825953 4294967295
2.7119999 -0.91788822 1.0759971 4294967295
2.7160006 2.2210503 1.0411205 4294967295
2.7125003 2.2173841 1.0435958 4294967295
2.7160001 -0.92974162 1.0442713 4294967295
2.7160003 2.2210503 1.0285175 4294967295
2.7157497 2.2074533 1.0158707 4294967295
2.7141998 -0.91778535 1.0155857 4294967295
2.7165 2.2088516 0.98553944 4294967295
2.7160001 0.50071788 0.97180319 4294967295
2.7112498 -0.90295333 0.98675776 4294967295
2.714 2.2275043 0.95168173 4294967295
2.704 2.211237 0.96980703 4294967295
2.7176666 0.49471971 0.95316797 4294967295
2.7128334 -0.90662867 0.95552671 4294967295
2.7103002 2.2333572 0.92431796 4294967295
2.7125001 0.49377915 0.93659711 4294967295
2.7142501 -0.91025001 0.92429543 4294967295
2.714 2.2274985 0.90039802 4294967295
2.7096665 2.215858 0.88482445 4294967295
2.7136667 0.50028771 0.90214407 4294967295
2.7096665 -0.90975845 0.89319599 4294967295
2.7150002 2.2048295 0.865951 4294967295
2.7160001 0.50701946 0.85837471 4294967295
2.7140002 -0.9125188 0.86677802 4294967295
2.7193334 2.19433 0.83144832 4294967295
2.7039998 2.186142 0.83178473 4294967295
2.7160001 0.51332104 0.83316839 4294967295
2.7122002 -0.90452451 0.8352499 4294967295
2.71 2.2224174 0.79475057 4294967295
2.7136667 2.2056904 0.8039369 4294967295
2.704 0.51732677 0.79727912 4294967295
2.7160001 -0.91083688 0.80796206 4294967295
2.7142353 2.2307057 0.7774002 4294967295
2.7185001 0.52010089 0.78614831 4294967295
2.71 -0.92453688 0.77903831 4294967295
2.7117 2.2269652 0.74459791 4294967295
2.7185001 0.52956492 0.75145483 4294967295
2.7160001 -0.94864637 0.75124776 4294967295
2.7125385 2.2303128 0.71076626 4294967295
2.7125001 -0.95371729 0.70375866 4294967295
2.7193334 2.2511139 0.67792416 4294967295
2.7143998 2.2423973 0.68939316 4294967295
2.7160001 0.53537661 0.67877954 4294967295
2.7185001 -0.92113346 0.67577201 4294967295
2.7142501 -0.93858796 0.68655217 4294967295
2.7179999 2.2516916 0.66439354 4294967295
2.7108333 2.2419658 0.65016311 4294967295
2.7087998 0.51698482 0.66390675 4294967295
2.7150002 0.49983025 0.65108156 4294967295
2.7193334 0.39828283 0.64848006 4294967295
2.7178419 0.37560365 0.65317029 4294967295
2.721 0.35391119 0.64939988 4294967295
2.7198892 0.28126633 0.64920884 4294967295
2.7125263 0.25530225 0.6529209 4294967295
2.7155559 0.22900634 0.64900821 4294967295
2.7193334 0.045662493 0.64707905 4294967295
2.7131429 0.014577771 0.64984834 4294967295
2.7197502 -0.013672428 0.64665818 4294967295
2.721 -0.35221851 0.64592767 4294967295
2.7210004 -0.37395042 0.65066254 4294967295
2.721 -0.52740937 0.64434934 4294967295
2.721 -0.54319233 0.64434934 4294967295
2.721 -0.8683213 0.65066254 4294967295
2.7137618 -0.88518757 0.65481091 4294967295
2.7074287 -0.90795428 0.65181124 4294967295
2.7153332 2.2267919 0.63568592 4294967295
2.7098 2.2134571 0.62246084 4294967295
2.7108462 0.48621169 0.62550724 4294967295
2.7195716 0.4734312 0.62085003 4294967295
2.7193334 0.39617842 0.63585949 4294967295
2.7177856 0.37403232 0.63203782 4294967295
2.7199998 0.35378018 0.63294226 4294967295
2.7196367 0.27881786 0.62822133 4294967295
2.7113636 0.25595728 0.62358868 4294967295
2.7108498 0.22049297 0.62313282 4294967295
2.7202857 0.20216057 0.62087601 4294967295
2.721 0.12789916 0.6153087 4294967295
2.7184999 0.10302589 0.61506563 4294967295
2.7168124 0.074204959 0.62249702 4294967295
2.705714 0.051315065 0.62795848 4294967295
2.7039995 0.01212552 0.62574184 4294967295
2.7183685 -0.012379476 0.62596995 4294967295
2.72 -0.2280785 0.61716855 4294967295
2.7180834 -0.2530424 0.61794204 4294967295
2.7210002 -0.34613079 0.6353305 4294967295
2.721 -0.37589294 0.63803613 4294967295
2.7172382 -0.52757144 0.62736195 4294967295
2.7192142 -0.5504989 0.62443626 4294967295
2.7204447 -0.88848144 0.63520622 4294967295
2.7185001 -0.91640288 0.63556027 4294967295
2.7125294 -0.94001555 0.62470633 4294967295
2.7140002 2.2091734 0.5928697 4294967295
2.7078178 0.49120075 0.59319967 4294967295
2.7183077 0.46912476 0.59086329 4294967295
2.721 0.444821 0.58121753 4294967295
2.721 0.36906278 0.58121753 4294967295
2.721 0.34696665 0.58121753 4294967295
2.721 0.31540072 0.58121753 4294967295
2.72 0.25028569 0.60517579 4294967295
2.7168331 0.22404531 0.59425354 4294967295
2.7130589 0.19580038 0.5958643 4294967295
2.7158003 0.16672693 0.59371406 4294967295
2.7117774 0.1364225 0.59745216 4294967295
2.7066669 0.10197063 0.60322642 4294967295
2.7040002 0.071891166 0.59965622 4294967295
2.7039998 0.046427153 0.5959658 4294967295
2.704 0.016875278 0.59917367 4294967295
2.7156923 -0.013587713 0.59516281 4294967295
2.721 -0.11705239 0.58121753 4294967295
2.7134001 -0.13812555 0.58483094 4294967295
2.7153077 -0.16672172 0.5912739 4294967295
2.7127502 -0.19497497 0.59638894 4294967295
2.711417 -0.22200894 0.60145575 4294967295
2.7129998 -0.25785422 0.59628046 4294967295
2.721 -0.27488199 0.58437407 4294967295
2.721 -0.49268687 0.58121753 4294967295
2.719125 -0.73917598 0.58433044 4294967295
2.7185001 -0.76282448 0.58557814 4294967295
2.7178004 -0.85972393 0.58430213 4294967295
2.7159286 -0.88605088 0.59056622 4294967295
2.7156 -0.91448325 0.59622538 4294967295
2.7096665 -0.93595171 0.60401881 4294967295
2.7142501 2.2274821 0.56217599 4294967295
2.7080002 2.2144988 0.57255077 4294967295
2.7039998 0.46086311 0.5745613 4294967295
2.704 0.43263128 0.5745613 4294967295
2.704 0.40439942 0.5745613 4294967295
2.7088001 0.3736985 0.57465816 4294967295
2.704 0.34479889 0.5745613 4294967295
2.704 0.25069278 0.5745613 4294967295
2.704 0.2287347 0.5745613 4294967295
2.71 -0.044278037 0.57153851 4294967295
2.7199998 -0.072828688 0.5685733 4294967295
2.7122002 -0.10408597 0.57347202 4294967295
2.7080002 -0.26519442 0.57255077 4294967295
2.7155001 -0.28455484 0.56771505 4294967295
2.7172499 -0.31547794 0.56221968 4294967295
2.7148333 -0.34354669 0.56533486 4294967295
2.7142224 -0.37355372 0.57197613 4294967295
2.7122858 -0.40704393 0.57203972 4294967295
2.7160001 -0.43506733 0.56850183 4294967295
2.7156665 -0.46231994 0.5727008 4294967295
2.7136002 -0.49448386 0.57475501 4294967295
2.7112 -0.52549309 0.57470655 4294967295
2.704 -0.55548298 0.5745613 4294967295
2.7088001 -0.58789897 0.57465816 4294967295
2.71 -0.61646229 0.57468235 4294967295
2.721 -0.63789004 0.57490432 4294967295
2.7088001 -0.67588729 0.56837326 4294967295
2.7129998 -0.70390856 0.57205415 4294967295
2.7060003 -0.73481613 0.57460165 4294967295
2.7070003 -0.76651329 0.5746218 4294967295
2.7125001 -0.79637092 0.57159591 4294967295
2.7133751 -0.82181531 0.57239783 4294967295
2.71 -0.84279722 0.57468235 4294967295
2.7147143 2.238889 0.53698421 4294967295
2.7088337 2.2382269 0.50446284 4294967295
2.7144001 2.2317011 0.4740096 4294967295
2.7108572 2.2258229 0.44531369 4294967295
2.7156668 2.2312751 0.41832787 4294967295
2.7154999 2.2300856 0.38576499 4294967295
2.7121997 2.2330432 0.35069662 4294967295
