# .PCD v0.7 - Point Cloud Data file format
VERSION 0.7
FIELDS x y z rgb
SIZE 4 4 4 4
TYPE F F F U
COUNT 1 1 1 1
WIDTH 1154
HEIGHT 1
VIEWPOINT 0 0 0 1 0 0 0
POINTS 1154
DATA ascii
2.8668001 0.50191325 1.4026215 4294967295
2.8623333 -0.88463628 1.4001325 4294967295
2.8654549 2.2272074 1.3725889 4294967295
2.8660002 0.5117349 1.3658071 4294967295
2.8627501 0.50617754 1.3814479 4294967295
2.8656001 -0.87722898 1.373008 4294967295
2.8632944 2.2242494 1.3417575 4294967295
2.8770003 2.2178726 1.3403521 4294967295
2.8642001 0.51341391 1.3473383 4294967295
2.8692501 -0.86903059 1.3467987 4294967295
2.8603334 -0.87074137 1.3386644 4294967295
2.8594446 2.2277625 1.3166966 4294967295
2.8701005 2.2145376 1.3124235 4294967295
2.8594999 0.51390427 1.3174541 4294967295
2.8633335 -0.87609512 1.3140759 4294967295
2.8661432 2.2288632 1.2808073 4294967295
2.8588753 2.2176478 1.2899179 4294967295
2.8629999 -0.89216328 1.2859688 4294967295
2.8770003 2.2525833 1.2522404 4294967295
2.8598576 2.2391527 1.2573607 4294967295
2.8660002 0.50508875 1.2527521 4294967295
2.8635716 -0.89387602 1.255456 4294967295
2.8740003 2.2535648 1.2247971 4294967295
2.8642504 2.2475808 1.2207472 4294967295
2.8630002 0.501248 1.2220972 4294967295
2.8663001 -0.88541639 1.2262355 4294967295
2.8632729 2.2321525 1.1937813 4294967295
2.8645 0.50481915 1.1959188 4294967295
2.8612499 -0.88319689 1.1951232 4294967295
2.8644001 2.2094622 1.1666148 4294967295
2.8645 0.51146531 1.156013 4294967295
2.8612499 0.50758016 1.1718698 4294967295
2.8643334 -0.87639523 1.1681627 4294967295
2.8620002 2.2059579 1.1338754 4294967295
2.8623333 0.51661921 1.1444602 4294967295
2.8680003 -0.87530631 1.1368122 4294967295
2.870667 2.2231977 1.0952133 4294967295
2.8643851 2.2145665 1.1079315 4294967295
2.866143 -0.88138115 1.1041253 4294967295
2.8650005 2.2265615 1.076352 4294967295
2.8615 0.53418118 1.0657291 4294967295
2.8666251 -0.88568556 1.0741673 4294967295
2.8696003 2.2254744 1.0492771 4294967295
2.8612504 2.2186525 1.0390944 4294967295
2.855 0.53296781 1.0379786 4294967295
2.8663332 -0.88698584 1.0455786 4294967295
2.8627272 2.2136197 1.0149298 4294967295
2.862 0.53160733 1.0133406 4294967295
2.863111 -0.89077926 1.0147141 4294967295
2.8686669 2.2249737 0.98056197 4294967295
2.8591664 2.2175922 0.9912051 4294967295
2.8627501 0.52111596 0.9862318 4294967295
2.8685558 -0.89173406 0.98534316 4294967295
2.8604286 2.226794 0.95505309 4294967295
2.8568001 0.51341903 0.9554472 4294967295
2.8664446 -0.89181674 0.95544225 4294967295
2.8655455 2.2284877 0.92656118 4294967295
2.8708 0.51593512 0.92427373 4294967295
2.8651428 -0.89247 0.92634392 4294967295
2.8610768 2.2268252 0.89431983 4294967295
2.8610001 0.52081186 0.88639319 4294967295
2.8740001 -0.89714199 0.8947227 4294967295
2.8644373 2.2273593 0.86398494 4294967295
2.8686666 0.52663827 0.86631286 4294967295
2.8675001 -0.8984285 0.86730289 4294967295
2.8710001 -0.90286672 0.8510406 4294967295
2.8644283 2.2275276 0.83603853 4294967295
2.8559999 0.53315449 0.82942253 4294967295
2.8660002 -0.91294271 0.83382034 4294967295
2.8654168 2.2268763 0.80718189 4294967295
2.8705001 2.2175162 0.79104257 4294967295
2.8770001 0.54374987 0.79165626 4294967295
2.8666668 0.53735143 0.80844301 4294967295
2.8770001 -0.93479168 0.81501925 4294967295
2.8618665 2.2075157 0.77561706 4294967295
2.8645 0.54803354 0.78049231 4294967295
2.858 -0.95182687 0.78986222 4294967295
2.858 -0.96839756 0.76666051 4294967295
2.8621051 2.2076979 0.74376369 4294967295
2.8770001 0.5637753 0.75160551 4294967295
2.8682501 -0.97685903 0.74008507 4294967295
2.8632727 2.2285354 0.71607292 4294967295
2.8645 2.2194912 0.72732329 4294967295
2.8660002 0.55164355 0.71913725 4294967295
2.8659999 0.52507061 0.71415991 4294967295
2.8696001 0.49573907 0.71106201 4294967295
2.8710001 0.466012 0.71115524 4294967295
2.8628001 0.43479675 0.71060926 4294967295
2.852 0.40337381 0.70989019 4294967295
2.852 0.37028816 0.70989019 4294967295
2.8610001 0.34489769 0.71048939 4294967295
2.8640001 0.31536397 0.71068919 4294967295
2.8640001 0.2854616 0.71068919 4294967295
2.8654001 0.25567764 0.71078241 4294967295
2.8740001 0.22643784 0.71135497 4294967295
2.8620002 0.18897286 0.70391566 4294967295
2.8710001 0.17624934 0.704494 4294967295
2.8710001 0.096314818 0.704494 4294967295
2.8642001 0.076153181 0.70804727 4294967295
2.8658001 0.046920266 0.71481133 4294967295
2.8668001 0.016346589 0.71752703 4294967295
2.8695998 -0.015579226 0.71639657 4294967295
2.8642001 -0.043476216 0.71070248 4294967295
2.8658001 -0.074066892 0.70815939 4294967295
2.8740001 -0.09363088 0.70468682 4294967295
2.8770001 -0.23390289 0.70487958 4294967295
2.8770001 -0.25726584 0.70487958 4294967295
2.8658001 -0.28284279 0.70415986 4294967295
2.858 -0.30198416 0.70365858 4294967295
2.852 -0.34767008 0.70327306 4294967295
2.8604002 -0.37525448 0.70381284 4294967295
2.8707502 -0.40658244 0.70447797 4294967295
2.8724999 -0.43347251 0.70459044 4294967295
2.8770001 -0.46419492 0.70487958 4294967295
2.8770001 -0.49423304 0.70487958 4294967295
2.8734002 -0.52361506 0.70464826 4294967295
2.8740001 -0.55373466 0.70468682 4294967295
2.8770001 -0.570997 0.70487958 4294967295
2.875 -0.71067572 0.70475107 4294967295
2.8604 -0.73361498 0.70381284 4294967295
2.8591669 -0.76757586 0.70484614 4294967295
2.8644001 -0.79445678 0.70540488 4294967295
2.8770001 -0.82465202 0.70487958 4294967295
2.8755002 -0.86091095 0.7047832 4294967295
2.8611667 -0.88760078 0.70497465 4294967295
2.8601665 -0.91602349 0.71043396 4294967295
2.8660002 -0.944493 0.71747196 4294967295
2.8623333 -0.96653754 0.72386038 4294967295
2.8675001 2.2351573 0.68431121 4294967295
2.852 0.15523155 0.69665593 4294967295
2.858 0.13566498 0.69702756 4294967295
2.8559999 0.10906906 0.69690371 4294967295
2.8645 -0.11159854 0.69577587 4294967295
2.8675001 -0.13333476 0.68763983 4294967295
2.8644288 -0.16594039 0.68034863 4294967295
2.8606 -0.19605447 0.68789631 4294967295
2.8594003 -0.22249733 0.69711429 4294967295
2.8540001 -0.24858272 0.69677979 4294967295
2.852 -0.41384134 0.69665593 4294967295
2.855 -0.58319783 0.69684172 4294967295
2.8628001 -0.61467957 0.69732487 4294967295
2.8675001 -0.64561391 0.69761604 4294967295
2.8642001 -0.67477143 0.6974116 4294967295
2.855 -0.69579691 0.69684172 4294967295
2.852 -0.83733743 0.69665593 4294967295
2.852 -0.84395456 0.69665593 4294967295
2.8670001 2.2327673 0.65301245 4294967295
2.8660002 2.2273228 0.6376766 4294967295
2.862643 2.2147541 0.620933 4294967295
2.8639231 2.2065475 0.59414721 4294967295
2.8636003 2.1960013 0.56625712 4294967295
2.858 2.1879673 0.55114454 4294967295
2.8603334 2.1930401 0.53350496 4294967295
2.8630714 2.1856623 0.53221351 4294967295
2.8560913 2.2015629 0.50322843 4294967295
2.8633475 2.1763184 0.50614923 4294967295
2.8635883 2.1494415 0.49962133 4294967295
2.8576665 2.1980875 0.47510749 4294967295
2.8683527 2.1796441 0.4768717 4294967295
2.8706 2.1516552 0.48334396 4294967295
2.8651111 2.1985679 0.44523442 4294967295
2.8675001 2.2284975 0.40654537 4294967295
2.8621249 2.2118545 0.41921699 4294967295
2.8675001 2.2517762 0.37161463 4294967295
2.8634999 2.2434187 0.38700914 4294967295
2.8636 2.2593458 0.35542598 4294967295
2.863909 2.2713199 0.32649279 4294967295
2.8649168 2.2696917 0.29530871 4294967295
2.8635333 2.2685966 0.26552147 4294967295
2.8631999 2.2610283 0.23964238 4294967295
2.8634999 2.2430916 0.22455496 4294967295
2.8634615 2.2291944 0.20624608 4294967295
2.86075 2.2249057 0.1778219 4294967295
2.8633335 2.2163851 0.16478133 4294967295
2.852 2.226392 0.13420016 4294967295
2.8594139 2.2030966 0.14555773 4294967295
2.867667 2.1853828 0.14538783 4294967295
2.8550003 2.254123 0.10729796 4294967295
2.8625 2.2342346 0.11450353 4294967295
2.8682306 2.2103758 0.12073645 4294967295
2.8619442 2.2555242 0.084904552 4294967295
2.8719003 2.2465787 0.087536782 4294967295
2.8623333 2.2521377 0.066391289 4294967295
2.8640001 2.2468119 0.051957726 4294967295
2.8643999 2.2333968 0.030184656 4294967295
2.8683124 2.207895 0.015952349 4294967295
2.8540001 2.2279487 -0.018370986 4294967295
2.8622913 2.2028458 -0.0033278465 4294967295
2.8770001 2.185832 0.003990829 4294967295
2.8770001 2.2525833 -0.049410224 4294967295
2.8643887 2.2400961 -0.033619225 4294967295
2.8706667 2.2143121 -0.021514952 4294967295
2.8770001 2.2525833 -0.062760472 4294967295
2.8591669 2.244144 -0.066880584 4294967295
2.8660004 2.2420633 -0.096635282 4294967295
2.8618753 2.2415609 -0.12525898 4294967295
2.8651252 2.2391188 -0.15923637 4294967295
2.86675 2.2279122 -0.18207735 4294967295
2.8568001 2.2182004 -0.19256586 4294967295
2.8613 2.2276516 -0.22222203 4294967295
2.8643751 2.2185781 -0.20806766 4294967295
2.8647332 2.2434015 -0.24504471 4294967295
2.8631999 2.2530532 -0.27851313 4294967295
2.8675001 2.2484674 -0.26375133 4294967295
2.8633335 2.2557065 -0.30578685 4294967295
2.872 2.2539883 -0.32828891 4294967295
2.8617141 2.2424929 -0.33853644 4294967295
2.8643999 2.2314098 -0.36524904 4294967295
2.8657501 2.2238278 -0.3896026 4294967295
2.8540001 2.2169154 -0.39802206 4294967295
2.8770001 2.2258828 -0.41654247 4294967295
2.8930001 -0.89300108 2.1221795 4294967295
2.8963335 0.77364832 2.09266 4294967295
2.8995001 -0.88490891 2.0955091 4294967295
2.9000001 -0.87295663 2.0655019 4294967295
2.9000001 0.78359419 2.0385759 4294967295
2.8983333 -0.88007903 2.0377221 4294967295
2.8983333 0.78314382 2.0041184 4294967295
2.8920002 -0.89381576 2.014276 4294967295
2.9089999 -0.90131807 2.0095656 4294967295
2.9024999 0.77753538 1.9692061 4294967295
2.8959999 -0.89729017 1.9693128 4294967295
2.9089999 -0.90131807 1.982568 4294967295
2.9024999 0.77080113 1.9422688 4294967295
2.9026668 -0.89485621 1.9456664 4294967295
2.8959999 0.76907492 1.9289975 4294967295
2.9089999 -0.89456868 1.9150742 4294967295
2.9089999 0.76577789 1.8779527 4294967295
2.9026668 -0.89485621 1.885113 4294967295
2.9089999 0.76577789 1.8644539 4294967295
2.8940001 -0.89667058 1.8608741 4294967295
2.9042501 -0.9015227 1.8470891 4294967295
2.89625 0.76914132 1.8316638 4294967295
2.8977499 -0.89277792 1.8189019 4294967295
2.8900001 -0.9021365 1.8355569 4294967295
2.9089999 0.77252728 1.7868361 4294967295
2.9089999 -0.86757118 1.7868361 4294967295
2.8920002 -0.87591636 1.7928481 4294967295
2.89625 0.76745403 1.7644728 4294967295
2.9024999 -0.85889834 1.7604353 4294967295
2.9000001 0.75936508 1.7358085 4294967295
2.9089999 0.69490939 1.7294664 4294967295
2.8900001 0.68031275 1.7316248 4294967295
2.8959999 0.55406004 1.7207018 4294967295
2.8959999 -0.86369413 1.7341403 4294967295
2.9089999 -0.87432057 1.7260917 4294967295
2.901 0.75356644 1.7126803 4294967295
2.901 0.74683565 1.6992188 4294967295
2.8959999 0.69516355 1.7139826 4294967295
2.8900001 0.68701804 1.7182143 4294967295
2.8959999 0.54062164 1.7139826 4294967295
2.9025002 -0.88415575 1.7014914 4294967295
2.8961999 0.74224055 1.6818106 4294967295
2.8930001 0.54341429 1.6724792 4294967295
2.8940001 -0.88324142 1.6728753 4294967295
2.9042504 1.7769572 1.6314617 4294967295
2.8995004 1.7555369 1.631323 4294967295
2.8993752 1.7243402 1.6321186 4294967295
2.8947504 1.7006234 1.6311842 4294967295
2.8900003 1.6794015 1.6310455 4294967295
2.9026668 1.1794112 1.6314155 4294967295
2.8971252 1.1541775 1.6312536 4294967295
2.8947501 1.1280493 1.6311842 4294967295
2.8900001 0.56632274 1.644456 4294967295
2.8900001 -0.88202059 1.6578666 4294967295
2.8915 2.2320664 1.6120523 4294967295
2.8900001 2.2083745 1.6094396 4294967295
2.8983335 2.1123679 1.609588 4294967295
2.8983335 2.0843344 1.61968 4294967295
2.8983335 2.0529537 1.6174179 4294967295
2.8945003 2.0312378 1.609272 4294967295
2.8990002 1.9334874 1.6085587 4294967295
2.9026 1.9076042 1.6210705 4294967295
2.8930004 1.872437 1.6254865 4294967295
2.8973336 1.8449813 1.6237727 4294967295
2.8962224 1.8136654 1.6229782 4294967295
2.9000003 1.7915158 1.6254616 4294967295
2.9038005 1.6887646 1.6255637 4294967295
2.896889 1.6639824 1.6135153 4294967295
2.8930004 1.6475835 1.6087024 4294967295
2.8900001 1.531885 1.6042243 4294967295
2.8962002 1.5150094 1.6092352 4294967295
2.9000001 1.4873924 1.6160455 4294967295
2.9015 1.4560597 1.6085262 4294967295
2.8994999 1.4258645 1.6044136 4294967295
2.9042501 1.3945692 1.6045083 4294967295
2.8962858 1.3643254 1.6046541 4294967295
2.8900001 1.3374316 1.6042243 4294967295
2.8994999 1.2308158 1.6044136 4294967295
2.899375 1.2164686 1.6153066 4294967295
2.8940001 1.1915573 1.6258686 4294967295
2.8959999 1.1117548 1.6266328 4294967295
2.9017143 1.0937425 1.6211091 4294967295
2.8946249 1.0684109 1.6093084 4294967295
2.9089999 -0.86757118 1.6046029 4294967295
2.8961999 -0.8785314 1.6172991 4294967295
2.8900003 2.2314706 1.5975189 4294967295
2.8947501 2.2043302 1.5833099 4294967295
2.8956003 2.1764338 1.5754158 4294967295
2.8998573 2.1464672 1.5858201 4294967295
2.8900003 2.1253033 1.5941663 4294967295
2.9007146 2.0211706 1.5928489 4294967295
2.8970006 1.9948851 1.5844344 4294967295
2.8983335 1.9666637 1.590539 4294967295
2.8930004 1.9462752 1.5986375 4294967295
2.9090002 1.6566955 1.5944788 4294967295
2.9000001 1.6372131 1.5841818 4294967295
2.9004166 1.6080498 1.5767161 4294967295
2.9006999 1.5765742 1.5873733 4294967295
2.8973999 1.5465618 1.5989281 4294967295
2.8959999 1.4241983 1.599756 4294967295
2.9089997 1.3529736 1.5911041 4294967295
2.8978665 1.3343484 1.5869873 4294967295
2.895 1.3081727 1.5805647 4294967295
2.8943 1.2729332 1.5829996 4294967295
2.8993888 1.2453443 1.5894181 4294967295
2.9046667 1.0589174 1.5984876 4294967295
2.894778 1.0374024 1.5925759 4294967295
2.8988001 -0.86182666 1.5832785 4294967295
2.9090002 2.2236431 1.5438585 4294967295
2.8962224 2.2093861 1.5565339 4294967295
2.9090002 1.7241893 1.5492581 4294967295
2.9089999 1.6938171 1.5472332 4294967295
2.9071429 1.6267291 1.5605432 4294967295
2.8959999 1.6156958 1.5661598 4294967295
2.9090002 1.2373905 1.5548263 4294967295
2.9089999 1.2196734 1.5522952 4294967295
2.9089999 1.1977379 1.5438585 4294967295
2.8959999 -0.86369413 1.5527215 4294967295
2.8959999 -0.8704133 1.5460023 4294967295
2.9002502 2.226198 1.5205841 4294967295
2.8900003 2.2158248 1.5371714 4294967295
2.8960001 1.7198436 1.539283 4294967295
2.8959999 1.6996861 1.539283 4294967295
2.9003334 1.2367951 1.5363187 4294967295
2.8936 1.212882 1.5370975 4294967295
2.8930001 1.1978624 1.5348746 4294967295
2.8994999 0.57153696 1.5270603 4294967295
2.8900001 0.55626482 1.5137029 4294967295
2.8959999 -0.88721132 1.5292041 4294967295
2.8900001 -0.9021365 1.5103502 4294967295
2.9010003 2.2276146 1.4939179 4294967295
2.8959999 0.54062164 1.505687 4294967295
2.8940001 0.52009994 1.496052 4294967295
2.8959999 0.50702554 1.4855294 4294967295
2.89925 -0.90502393 1.4967067 4294967295
2.8975003 2.2282887 1.4631634 4294967295
2.8959999 0.72204041 1.4586525 4294967295
2.9026668 0.50369316 1.4652689 4294967295
2.8930001 -0.8963607 1.4610398 4294967295
2.9089999 -0.90131807 1.4763649 4294967295
2.9064002 2.256716 1.4310064 4294967295
2.8951669 2.2455204 1.4404753 4294967295
2.8983333 0.72934681 1.4325249 4294967295
2.9089999 0.50255215 1.4358685 4294967295
2.9057498 -0.89356923 1.4382277 4294967295
2.9025002 2.2557054 1.4102445 4294967295
2.8940003 2.2457452 1.3975685 4294967295
2.9089999 0.50255215 1.4122458 4294967295
2.89625 -0.88728076 1.4049573 4294967295
2.8997779 2.2337666 1.373147 4294967295
2.8994999 0.50763834 1.3824116 4294967295
2.8983333 -0.87558943 1.3719785 4294967295
2.8915002 2.2220039 1.3515334 4294967295
2.8967505 2.2114632 1.3429608 4294967295
2.8930001 0.51321262 1.346921 4294967295
2.9003334 -0.87171578 1.3523786 4294967295
2.9017146 2.2257578 1.309504 4294967295
2.893167 2.2137678 1.3245989 4294967295
2.8950002 0.51356739 1.3172532 4294967295
2.8976002 -0.88030809 1.3179719 4294967295
2.8960001 2.2540209 1.2705145 4294967295
2.8977501 2.2402527 1.2877748 4294967295
2.8900001 0.51268041 1.2756649 4294967295
2.89625 -0.89400047 1.2873895 4294967295
2.8947504 2.2631171 1.2534053 4294967295
2.9089999 0.50930154 1.2671342 4294967295
2.8989999 -0.89148092 1.257827 4294967295
2.8986003 2.2641137 1.2241116 4294967295
2.8959999 -0.88385177 1.22348 4294967295
2.9090002 2.2506404 1.2063898 4294967295
2.8961668 2.2339895 1.1932847 4294967295
2.9024999 0.50816351 1.2014813 4294967295
2.8975999 -0.88164037 1.1929274 4294967295
2.9025002 2.222034 1.1745441 4294967295
2.8940003 2.2144122 1.1625583 4294967295
2.8994999 0.51436567 1.1536822 4294967295
2.8915002 -0.87576962 1.1653676 4294967295
2.9046669 2.2225702 1.1312448 4294967295
2.8930004 2.2147653 1.1388551 4294967295
2.9089999 0.52280033 1.1456454 4294967295
2.8977499 -0.8776626 1.1398476 4294967295
2.8998573 2.2301085 1.1033014 4294967295
2.9025998 -0.88586605 1.1038381 4294967295
2.8948002 2.2396541 1.0754215 4294967295
2.8959999 0.54062164 1.0823765 4294967295
2.8959999 0.53390241 1.0622189 4294967295
2.8994999 -0.88827258 1.0864089 4294967295
2.9000003 2.2369399 1.0481582 4294967295
2.8959999 0.53390241 1.0454209 4294967295
2.8915002 -0.88918716 1.0445993 4294967295
2.8924003 2.2243757 1.0145688 4294967295
2.8915002 0.52971667 1.0144114 4294967295
2.9064 -0.89376915 1.0169506 4294967295
2.8973334 2.2371271 0.98291337 4294967295
2.8983333 0.51863348 0.98642504 4294967295
2.9089999 -0.89456868 0.98028564 4294967295
2.8936 2.2387259 0.95434284 4294967295
2.9003334 0.51451349 0.96208113 4294967295
2.9089999 -0.89456868 0.96003759 4294967295
2.8959999 2.2405825 0.92447495 4294967295
2.8930001 -0.8963607 0.92405254 4294967295
2.9089999 -0.90131807 0.9161666 4294967295
2.8986249 2.2400825 0.89205194 4294967295
2.9024999 0.52163213 0.90517241 4294967295
2.8940001 2.2345557 0.86376452 4294967295
2.9057498 2.1402566 0.85842216 4294967295
2.9024999 2.1210196 0.85692251 4294967295
2.8994999 0.53117293 0.86445093 4294967295
2.8940001 -0.90338504 0.86711717 4294967295
2.901 2.2385528 0.83514524 4294967295
2.9089999 2.1392756 0.84867287 4294967295
2.9089999 2.1291516 0.84867287 4294967295
2.9046667 0.53550017 0.84143388 4294967295
2.901 -0.91735548 0.83765996 4294967295
2.8971426 2.2347367 0.80699801 4294967295
2.8959999 0.54062164 0.8068887 4294967295
2.8900001 -0.94907355 0.80629438 4294967295
2.9046667 2.2270598 0.78527951 4294967295
2.901 2.2158294 0.77034426 4294967295
2.8900001 0.55961746 0.76606262 4294967295
2.8940001 -0.97053087 0.7775926 4294967295
2.9026668 2.2255218 0.73571748 4294967295
2.8930001 2.213089 0.74953741 4294967295
2.9089999 0.57004595 0.74068284 4294967295
2.8930001 0.56691056 0.73947597 4294967295
2.8987999 -0.97616661 0.73990905 4294967295
2.9089999 2.2506404 0.71368527 4294967295
2.8962002 2.239382 0.71687341 4294967295
2.8994999 0.55808228 0.72650743 4294967295
2.8983333 0.5208686 0.71969974 4294967295
2.9057498 0.43795463 0.72021073 4294967295
2.8912003 0.40556958 0.71920824 4294967295
2.8915002 0.37541839 0.71922892 4294967295
2.9024999 0.34989253 0.7199868 4294967295
2.9089999 0.30344561 0.72043467 4294967295
2.9089997 0.28207257 0.72043467 4294967295
2.8900001 0.21094222 0.71242028 4294967295
2.8959999 0.20130132 0.71281976 4294967295
2.89625 0.16098167 0.70611662 4294967295
2.9024999 0.13442525 0.70651823 4294967295
2.8977501 0.10560021 0.70790035 4294967295
2.8983333 0.072563723 0.71746463 4294967295
2.9024999 0.043467034 0.72336149 4294967295
2.9089999 0.023346478 0.72718406 4294967295
2.8977499 -0.040631447 0.71965957 4294967295
2.8959999 -0.084265277 0.71281976 4294967295
2.9024999 -0.097907916 0.70989293 4294967295
2.9089999 -0.19938295 0.70018655 4294967295
2.8983333 -0.21881104 0.70625049 4294967295
2.8900001 -0.24501774 0.705715 4294967295
2.9089999 -0.29049951 0.71368527 4294967295
2.895 -0.31259015 0.71275318 4294967295
2.8912001 -0.34574619 0.71250015 4294967295
2.89925 -0.37698495 0.71303612 4294967295
2.9089999 -0.39848953 0.71368527 4294967295
2.9089997 -0.44236049 0.71368527 4294967295
2.8920002 -0.58739853 0.70584351 4294967295
2.9057498 -0.61379439 0.70672709 4294967295
2.9089999 -0.64821643 0.70693594 4294967295
2.9038002 -0.67735755 0.70660174 4294967295
2.8930001 -0.69834572 0.70590776 4294967295
2.8961999 -0.73606509 0.71283305 4294967295
2.8900001 -0.764678 0.71242028 4294967295
2.8940001 -0.80267107 0.7126866 4294967295
2.9089999 -0.82032555 0.71368527 4294967295
2.8900001 -0.84514147 0.705715 4294967295
2.89625 -0.88726974 0.71283638 4294967295
2.8983333 -0.92489696 0.71969974 4294967295
2.8983333 -0.94957972 0.72418928 4294967295
2.8900001 -0.96248412 0.72583085 4294967295
2.9089999 2.2573898 0.67993844 4294967295
2.8959999 2.2473018 0.68762267 4294967295
2.8959999 -0.13129976 0.69602174 4294967295
2.8900001 -0.16120157 0.68559909 4294967295
2.8920002 -0.19373828 0.69465876 4294967295
2.9089999 2.2506404 0.65969026 4294967295
2.8930001 2.2416143 0.65555888 4294967295
2.8997777 2.2277994 0.62710738 4294967295
2.9024999 2.222034 0.6021291 4294967295
2.8940001 2.2144122 0.59181964 4294967295
2.8980002 2.2065847 0.56695253 4294967295
2.8974001 2.1959434 0.53677905 4294967295
2.8983333 2.1818516 0.5246855 4294967295
2.901 2.1687171 0.51290798 4294967295
2.8920002 2.1524985 0.50007993 4294967295
2.8970001 2.1800134 0.46922752 4294967295
2.8959999 2.1565924 0.48100686 4294967295
2.8983333 2.2042751 0.44622484 4294967295
2.8989999 2.2304008 0.41130152 4294967295
2.8959999 2.2137058 0.42389354 4294967295
2.8961999 2.254159 0.38090158 4294967295
2.8920002 2.246433 0.39271173 4294967295
2.8994 2.2667441 0.35449809 4294967295
2.8976667 2.2836909 0.32375172 4294967295
2.8900001 2.2761724 0.33692384 4294967295
2.9015715 2.2823932 0.29290539 4294967295
2.8900001 2.2761724 0.29669207 4294967295
2.9037998 2.2829914 0.2659708 4294967295
2.8900001 2.2761724 0.25981298 4294967295
2.9089999 2.2843874 0.24797836 4294967295
2.8985453 2.2651522 0.23427856 4294967295
2.8900001 2.242646 0.22293386 4294967295
2.8978748 2.2403405 0.20530984 4294967295
2.8987999 2.2326469 0.1762948 4294967295
2.8983333 2.2154746 0.16155565 4294967295
2.9026 2.1971884 0.14621231 4294967295
2.8900001 2.1890035 0.14582297 4294967295
2.8977499 2.225112 0.10448548 4294967295
2.9005003 2.2070391 0.12091202 4294967295
2.9089999 2.2506404 0.072494566 4294967295
2.8978124 2.2423828 0.085983455 4294967295
2.901 2.2528396 0.060254335 4294967295
2.8937497 2.2480702 0.052184105 4294967295
2.9089999 2.2506404 0.038747668 4294967295
2.8983333 2.2322862 0.03099525 4294967295
2.8990908 2.2056582 0.022663414 4294967295
2.9000769 2.1785033 0.017974913 4294967295
2.8944285 2.2019432 -0.010652423 4294967295
2.8987334 2.1807988 0.0014367104 4294967295
2.9024999 2.2557054 -0.047722757 4294967295
2.8993332 2.2364199 -0.037011862 4294967295
2.8983333 2.2132249 -0.024484158 4294967295
2.8961666 2.2597454 -0.064393044 4294967295
2.8994999 2.260098 -0.097602069 4294967295
2.8995001 2.260098 -0.12784201 4294967295
2.8987999 2.2588825 -0.15730697 4294967295
2.9089999 2.254015 -0.18060702 4294967295
2.8930001 2.2365818 -0.1901781 4294967295
2.8973999 2.2295618 -0.21476918 4294967295
2.9026668 2.2546954 -0.2587657 4294967295
2.8980999 2.2408442 -0.24117827 4294967295
2.8968887 2.259181 -0.2736457 4294967295
2.9025714 2.2716341 -0.30460221 4294967295
2.9012001 2.2661495 -0.33690143 4294967295
2.9089997 2.2528901 -0.37071449 4294967295
2.8915002 2.2454863 -0.3642363 4294967295
2.9089999 2.2506404 -0.38646305 4294967295
2.8915002 2.2371011 -0.39777666 4294967295
2.8994999 2.2399158 -0.42051417 4294967295
2.915 -0.8964138 2.1445222 4294967295
2.928 0.77757299 2.114403 4294967295
2.92325 -0.89555007 2.1287556 4294967295
2.9349999 0.78624165 2.0977857 4294967295
2.9255998 -0.87794185 2.0927205 4294967295
2.9264998 -0.87617952 2.0626671 4294967295
2.915 0.78764725 2.0261645 4294967295
2.9193332 -0.89096296 2.035187 4294967295
2.928 -0.90041155 2.0260882 4294967295
2.9315 0.78530401 1.9972854 4294967295
2.915 -0.90317708 1.9991113 4294967295
2.9349999 0.77943194 1.975211 4294967295
2.915 -0.8964138 1.9652948 4294967295
2.9315 -0.90148789 1.9836822 4294967295
2.915 0.77412063 1.9585315 4294967295
2.915 -0.8964138 1.9551499 4294967295
2.9315 0.77170086 1.9156704 4294967295
2.915 0.76735735 1.8908986 4294967295
2.915 -0.8964138 1.8807535 4294967295
2.928 -0.90041155 1.876632 4294967295
2.9264998 0.77038473 1.8521546 4294967295
2.9294 -0.90084213 1.8568904 4294967295
2.9216664 0.77362114 1.8262616 4294967295
2.9259999 -0.89299226 1.828168 4294967295
2.9215999 0.77315277 1.79636 4294967295
2.925 -0.86555654 1.7904223 4294967295
2.9259999 -0.87941462 1.8078016 4294967295
2.9282501 0.7640397 1.7629282 4294967295
2.9349999 0.69771552 1.7573006 4294967295
2.9315 -0.86407512 1.7660397 4294967295
2.9241998 0.75484192 1.7364517 4294967295
2.9349999 0.74538344 1.7232521 4294967295
2.9295998 0.70595896 1.7346206 4294967295
2.928 0.55338883 1.7339693 4294967295
2.928 0.5398019 1.7271758 4294967295
2.915 -0.86936063 1.7353426 4294967295
2.9315 -0.88447982 1.7252221 4294967295
2.9287694 0.73437124 1.7055322 4294967295
2.9308 0.71304089 1.7065684 4294967295
2.9216664 0.53185546 1.7109916 4294967295
2.915 0.73354083 1.6879996 4294967295
2.9229999 0.55380577 1.6708503 4294967295
2.9349999 -0.88894475 1.6721793 4294967295
2.9280002 1.8917004 1.6320673 4294967295
2.9280002 1.8849069 1.6320673 4294967295
2.9280002 1.7762116 1.6320673 4294967295
2.9258337 1.7534047 1.6323717 4294967295
2.9247501 1.7301203 1.6325239 4294967295
2.9268003 1.1806247 1.6329643 4294967295
2.9268 1.1575168 1.6329643 4294967295
2.9215 1.1350933 1.6329803 4294967295
2.9242001 -0.88431174 1.6441929 4294967295
2.9282501 2.1381378 1.6049862 4294967295
2.9228001 2.1188898 1.6151769 4294967295
2.9269001 2.085866 1.6194124 4294967295
2.9197145 2.0586059 1.6105235 4294967295
2.9322002 1.9610807 1.6050878 4294967295
2.9216001 1.9377151 1.6120121 4294967295
2.9254289 1.9074874 1.6262355 4294967295
2.9232502 1.8682766 1.6268625 4294967295
2.929143 1.8458365 1.6218164 4294967295
2.9258182 1.8143594 1.6219754 4294967295
2.9264283 1.7830009 1.6275793 4294967295
2.9350002 1.7634337 1.6279163 4294967295
2.9332502 1.7215505 1.6255534 4294967295
2.9256928 1.6959652 1.6149861 4294967295
2.9150002 1.6713847 1.6023312 4294967295
2.9349999 1.5693573 1.6006775 4294967295
2.9226665 1.5424143 1.606304 4294967295
2.9268 1.5160764 1.6166682 4294967295
2.9273746 1.4837778 1.613992 4294967295
2.9291427 1.4565016 1.6033646 4294967295
2.926625 1.4273558 1.6026816 4294967295
2.9282498 1.391647 1.6049746 4294967295
2.9193332 1.3713263 1.6039368 4294967295
2.9236667 1.2331649 1.6055524 4294967295
2.9295998 1.2170994 1.6190653 4294967295
2.915 1.1934451 1.6271299 4294967295
2.9282856 1.1192962 1.6263413 4294967295
2.9259996 1.0961163 1.6109258 4294967295
2.915 1.0762146 1.6023312 4294967295
2.9315 -0.86747998 1.6095953 4294967295
2.9215 -0.87468082 1.6194235 4294967295
2.9268003 2.2005785 1.5745655 4294967295
2.9296005 2.1754947 1.582371 4294967295
2.923667 2.1534431 1.5919856 4294967295
2.9315002 2.0520961 1.5925832 4294967295
2.9245558 2.0274265 1.5839968 4294967295
2.9244287 1.9940602 1.5861241 4294967295
2.9215002 1.972223 1.5957067 4294967295
2.9315002 1.7477317 1.5721824 4294967295
2.932308 1.7233483 1.5808522 4294967295
2.9287007 1.692719 1.5823908 4294967295
2.9175999 1.6636283 1.5800467 4294967295
2.915 1.6465861 1.5797868 4294967295
2.924875 1.5995594 1.5765849 4294967295
2.9282501 1.581031 1.5913941 4294967295
2.9349999 1.3854953 1.5734386 4294967295
2.9270833 1.3698843 1.5836085 4294967295
2.9182501 1.3344082 1.5733446 4294967295
2.9266925 1.3042551 1.5761889 4294967295
2.9215 1.2746211 1.5764911 4294967295
2.9182501 1.2393384 1.5821031 4294967295
2.9298747 1.2241689 1.5784011 4294967295
2.9326668 1.0918149 1.5930086 4294967295
2.9215 1.0639505 1.5957067 4294967295
2.925 -0.86215168 1.5935906 4294967295
2.9282501 2.2298613 1.5523248 4294967295
2.9193335 2.2134764 1.5632967 4294967295
2.9350002 1.7770531 1.5564145 4294967295
2.9261 1.7553697 1.5573531 4294967295
2.9193335 1.7235507 1.5610422 4294967295
2.9189003 1.6907728 1.5575061 4294967295
2.9159286 1.6611202 1.5540266 4294967295
2.9203637 1.6378907 1.5533875 4294967295
2.9257503 1.6140319 1.5590726 4294967295
2.9323747 1.3910637 1.5503874 4294967295
2.9273336 1.3637649 1.5540797 4294967295
2.9260628 1.3384097 1.5608836 4294967295
2.9314997 1.270486 1.5574445 4294967295
2.9224286 1.2555789 1.5582554 4294967295
2.9234281 1.2143197 1.561532 4294967295
2.9303334 1.1974528 1.5536315 4294967295
2.915 -0.86259735 1.5662602 4294967295
2.9282498 -0.87670547 1.5506299 4294967295
2.9254 2.2361791 1.5292563 4294967295
2.9294 1.3882898 1.5347278 4294967295
2.9303334 1.3696892 1.5377694 4294967295
2.9256001 0.55564326 1.5279816 4294967295
2.925 0.52734345 1.5138551 4294967295
2.9215 -0.88825268 1.538083 4294967295
2.9282498 -0.90558404 1.5200487 4294967295
2.9264998 2.2336192 1.4957039 4294967295
2.915 0.51373369 1.5020089 4294967295
2.9349999 0.5070439 1.4917223 4294967295
2.9303334 -0.90792799 1.4969816 4294967295
2.9350002 2.253732 1.4542689 4294967295
2.9215558 2.2332284 1.4661789 4294967295
2.9215 0.73179489 1.4567425 4294967295
2.915 0.50358874 1.4749558 4294967295
2.915 -0.8964138 1.4580475 4294967295
2.9315 -0.90148789 1.4735637 4294967295
2.9272857 2.2638083 1.4328928 4294967295
2.9150002 2.2485192 1.444521 4294967295
2.9349999 0.74538344 1.4338398 4294967295
2.9303334 -0.89433026 1.4289927 4294967295
2.9254286 2.2594554 1.4080586 4294967295
2.9150002 2.2485192 1.3904145 4294967295
2.9259999 0.50548911 1.4004724 4294967295
2.9193332 -0.88645416 1.4007362 4294967295
2.9315002 2.2510405 1.3885398 4294967295
2.9259999 2.2298336 1.3733326 4294967295
2.9280002 2.2177863 1.360329 4294967295
2.9215 0.51149005 1.3686161 4294967295
2.9295998 -0.87642944 1.3743798 4294967295
2.9280002 2.2245798 1.3331552 4294967295
2.9228001 2.216553 1.3466265 4294967295
2.93325 0.51354724 1.3448155 4294967295
2.9232497 -0.87690109 1.3420157 4294967295
2.9268005 2.2331729 1.3178792 4294967295
2.928 0.51942152 1.3059814 4294967295
2.9295998 -0.88866794 1.313202 4294967295
2.9297502 2.2632937 1.2894593 4294967295
2.928 0.51262802 1.2788075 4294967295
2.9238331 -0.89572799 1.281112 4294967295
2.9303336 2.2852724 1.254492 4294967295
2.9150002 2.2721908 1.2619119 4294967295
2.9259999 0.50548911 1.2511494 4294967295
2.9282 -0.88823783 1.2571161 4294967295
2.9315002 2.2850482 1.2355002 4294967295
2.9256003 2.267545 1.2184505 4294967295
2.9259999 0.50548911 1.230752 4294967295
2.9182498 -0.88387156 1.2254882 4294967295
2.9350002 2.2503271 1.2057149 4294967295
2.9226668 2.2363362 1.1915228 4294967295
2.9193332 0.51111066 1.1884978 4294967295
2.9256001 -0.88201517 1.1967094 4294967295
2.9272859 2.2279103 1.1621886 4294967295
2.928 0.51262802 1.1735089 4294967295
2.9294 -0.88045192 1.1636198 4294967295
2.9272857 2.2308223 1.1359856 4294967295
2.928 0.51942152 1.1497318 4294967295
2.9282498 -0.88349545 1.1328123 4294967295
2.9280002 2.2517536 1.0953841 4294967295
2.9242003 2.2379732 1.110912 4294967295
2.9315 0.54724872 1.0994767 4294967295
2.93325 -0.88841474 1.1066182 4294967295
2.9332502 2.2557909 1.0760069 4294967295
2.9150002 2.2485192 1.0759212 4294967295
2.9349999 0.5410924 1.08995 4294967295
2.9283333 0.5353235 1.0705116 4294967295
2.915 -0.88965058 1.0725396 4294967295
2.9280002 2.2517536 1.0546234 4294967295
2.9193335 2.2405696 1.0394942 4294967295
2.9326668 0.53385794 1.0418723 4294967295
2.9241996 -0.89245838 1.0471203 4294967295
2.9350002 2.2503271 1.0014238 4294967295
2.9150002 2.2349927 1.0150515 4294967295
2.9232497 0.52875048 1.0164582 4294967295
2.9350002 -0.89575446 1.021853 4294967295
2.93325 2.2540886 0.98412073 4294967295
2.915 2.2440104 0.98687112 4294967295
2.928 0.51942152 0.99008548 4294967295
2.9299998 -0.89591926 0.98528194 4294967295
2.9315 2.2578421 0.95665169 4294967295
2.915 2.2485192 0.95756352 4294967295
2.9259999 0.51906669 0.94562161 4294967295
2.9216664 -0.89619404 0.95407081 4294967295
2.928 2.2585471 0.92894435 4294967295
2.915 2.2485192 0.91022038 4294967295
2.915 -0.8964138 0.93727362 4294967295
2.9259999 -0.90205097 0.9230262 4294967295
2.9303334 2.2535479 0.89188182 4294967295
2.915 2.2485192 0.90345716 4294967295
2.9315 0.52684397 0.89542127 4294967295
2.928 -0.90720499 0.90516722 4294967295
2.9349999 2.2503271 0.87544441 4294967295
2.9205711 2.2431293 0.8625536 4294967295
2.9306364 2.1765165 0.86224902 4294967295
2.9227998 2.1460276 0.86922359 4294967295
2.9266248 2.1216731 0.86254609 4294967295
2.928 0.5330084 0.87119997 4294967295
2.925 -0.91306198 0.85386229 4294967295
2.9303334 2.2512782 0.83069193 4294967295
2.9193332 2.2428241 0.84081256 4294967295
2.928 2.1634386 0.84402609 4294967295
2.9281666 2.1465538 0.84517175 4294967295
2.915 2.1233983 0.84935075 4294967295
2.9349999 0.5410924 0.82437164 4294967295
2.928 0.5398019 0.83043921 4294967295
2.9349999 -0.9263981 0.83458614 4294967295
2.915 -0.9369936 0.82229757 4294967295
2.9349999 2.2503271 0.81075227 4294967295
2.9215999 2.2413964 0.80398953 4294967295
2.915 0.54416853 0.80200768 4294967295
2.9315 -0.95250374 0.81380224 4294967295
2.925 -0.96394914 0.79959345 4294967295
2.9295998 2.2312274 0.77622497 4294967295
2.9259999 0.55981511 0.77588558 4294967295
2.9215 -0.98313487 0.76875967 4294967295
2.9242001 2.2284739 0.74725908 4294967295
2.928 0.56697571 0.7353307 4294967295
2.9272857 -0.97682738 0.74497521 4294967295
2.9271667 2.2590239 0.7092433 4294967295
2.915 2.2349927 0.72761136 4294967295
2.915 0.54755014 0.72761136 4294967295
2.9259999 0.52814555 0.72614038 4294967295
2.9182498 0.49398264 0.72107202 4294967295
2.9215 0.4674457 0.72129595 4294967295
2.9349999 0.40149355 0.72903585 4294967295
2.9350002 0.37765956 0.72903585 4294967295
2.915 0.3345063 0.72084808 4294967295
2.915 0.32097971 0.72084808 4294967295
2.915 0.28716323 0.72084808 4294967295
2.9201999 0.2537806 0.72120637 4294967295
2.9350002 0.22784616 0.72222614 4294967295
2.9216664 0.18612303 0.71452868 4294967295
2.9259999 0.10496421 0.71481717 4294967295
2.925 0.081171729 0.72153711 4294967295
2.9259999 0.043864839 0.72839481 4294967295
2.915 0.009868037 0.72761136 4294967295
2.9200001 -0.013844581 0.7279675 4294967295
2.925 -0.044343699 0.72494197 4294967295
2.9259999 -0.071576022 0.72160602 4294967295
2.9264998 -0.10891187 0.71146131 4294967295
2.925 -0.13601944 0.7011776 4294967295
2.9315 -0.19752026 0.70498097 4294967295
2.9216664 -0.22735071 0.71452868 4294967295
2.9227998 -0.25457993 0.71460414 4294967295
2.915 -0.27757207 0.7140848 4294967295
2.9350002 -0.33735895 0.72222614 4294967295
2.915 -0.41283804 0.7140848 4294967295
2.915 -0.42636463 0.7140848 4294967295
2.915 -0.46694443 0.7140848 4294967295
2.928 -0.49620068 0.71495032 4294967295
2.928 -0.5233745 0.71495032 4294967295
2.928 -0.55394506 0.71495032 4294967295
2.9326668 -0.58205056 0.71526104 4294967295
2.915 -0.63264519 0.70732152 4294967295
2.9295998 -0.70376384 0.7150569 4294967295
2.925 -0.73325455 0.71815544 4294967295
2.9322 -0.76562923 0.7220332 4294967295
2.9247499 -0.79422659 0.72151989 4294967295
2.9216664 -0.82612097 0.71679854 4294967295
2.9315 -0.85727757 0.71518338 4294967295
2.9259999 -0.88170534 0.71708709 4294967295
2.9264998 -0.91011781 0.72164047 4294967295
2.9265001 -0.94406778 0.72843045 4294967295
2.92975 2.2666943 0.68447602 4294967295
2.915 -0.1456878 0.69379491 4294967295
2.9253998 -0.1665578 0.69441497 4294967295
2.9265001 2.2556801 0.65712231 4294967295
2.9193332 2.2473328 0.64662975 4294967295
2.9267998 2.2358875 0.62116247 4294967295
2.924875 2.2264361 0.59428716 4294967295
2.928 2.2245798 0.57908118 4294967295
2.9256001 2.2139206 0.56478041 4294967295
2.9238331 2.204447 0.53829706 4294967295
2.925 2.184963 0.52472866 4294967295
2.9262853 2.1718752 0.50437981 4294967295
2.928 2.1906123 0.46359235 4294967295
2.926625 2.1768405 0.47380236 4294967295
2.9315 2.223834 0.43631861 4294967295
2.9248748 2.2060699 0.45093137 4294967295
2.9315 2.2510405 0.4023107 4294967295
2.9259999 2.2309656 0.41838175 4294967295
2.9273748 2.2631488 0.3854973 4294967295
2.9259996 2.2743428 0.35124025 4294967295
2.9252217 2.2888174 0.32338148 4294967295
2.915 2.2755725 0.33534014 4294967295
2.9281816 2.29141 0.29682446 4294967295
2.9301429 2.2932127 0.26250565 4294967295
2.9236667 2.2845924 0.24434239 4294967295
2.9272857 2.2696316 0.23268914 4294967295
2.915 2.2485192 0.22036409 4294967295
2.9294 2.25283 0.20529699 4294967295
2.915 2.2485192 0.21360081 4294967295
2.9349999 2.2503271 0.18425977 4294967295
2.9248748 2.2374513 0.17353061 4294967295
2.9234283 2.20753 0.14779583 4294967295
2.9283333 2.2248175 0.10576147 4294967295
2.9264998 2.2132378 0.12074468 4294967295
2.9246361 2.2405155 0.084280968 4294967295
2.9314997 2.2510405 0.055430114 4294967295
2.9260004 2.2420411 0.052233666 4294967295
2.9193332 2.2303996 0.035910964 4294967295
2.9244442 2.2060316 0.03167367 4294967295
2.9216664 2.1745632 0.018578053 4294967295
2.915 2.2011762 -0.016351283 4294967295
2.9221668 2.1715391 -0.0041075945 4294967295
2.9248333 2.234606 -0.038518906 4294967295
2.93325 2.2115483 -0.023110032 4294967295
2.9242997 2.2665329 -0.062835932 4294967295
2.9272857 2.2735119 -0.092348516 4294967295
2.9281998 2.2736418 -0.12747401 4294967295
2.92325 2.2718296 -0.15692633 4294967295
2.9264998 2.2607675 -0.18483919 4294967295
2.915 2.2451377 -0.19557869 4294967295
2.9349999 2.2503271 -0.20389318 4294967295
2.9244285 2.2393055 -0.21969807 4294967295
2.9349999 2.2503271 -0.2549659 4294967295
2.9197142 2.2434316 -0.24655902 4294967295
2.9256923 2.2593539 -0.27521437 4294967295
2.9315 2.2850482 -0.31525195 4294967295
2.9281666 2.2756472 -0.29844117 4294967295
2.9315 2.2867508 -0.33566076 4294967295
2.915 2.2688091 -0.34775287 4294967295
2.9257498 2.2627468 -0.36452335 4294967295
2.9315 2.2578421 -0.39688307 4294967295
2.915 2.2485192 -0.40185934 4294967295
2.9349999 2.2571368 -0.42520845 4294967295
2.915 2.2485192 -0.41876751 4294967295
2.9549999 -0.90185839 2.1702423 4294967295
2.948333 -0.89753371 2.1482577 4294967295
2.9549999 -0.90185839 2.1565299 4294967295
2.9549999 0.78474325 2.1222494 4294967295
2.9549999 0.77788711 2.1359615 4294967295
2.9506664 -0.89140445 2.1267459 4294967295
2.9579999 0.79240298 2.0998518 4294967295
2.9548001 -0.87573999 2.0947037 4294967295
2.9526665 -0.88287956 2.0661688 4294967295
2.961 0.79320663 2.0293224 4294967295
2.948333 -0.89525843 2.0456629 4294967295
2.9526665 -0.90570694 2.03193 4294967295
2.957 0.78755975 2.0044112 4294967295
2.9532499 -0.9064588 2.0065229 4294967295
2.961 0.77946657 1.9674921 4294967295
2.9549999 -0.90185839 1.9782712 4294967295
2.9463332 0.77560568 1.9466604 4294967295
2.9419999 -0.89789081 1.9445521 4294967295
2.961 0.7725966 1.909097 4294967295
2.9419999 -0.89789081 1.9138353 4294967295
2.9532499 0.77057439 1.8849139 4294967295
2.9420002 -0.89789081 1.8899444 4294967295
2.9549999 -0.90185839 1.8788576 4294967295
2.9589999 0.77207476 1.863529 4294967295
2.9526665 -0.89657092 1.8446711 4294967295
2.9549999 -0.90185839 1.8617175 4294967295
2.9498 0.77651829 1.8251181 4294967295
2.9546669 -0.88117599 1.8204194 4294967295
2.9521999 0.77029163 1.7919412 4294967295
2.9484999 -0.86566949 1.7937839 4294967295
2.9548001 0.75862998 1.7628996 4294967295
2.9589999 0.72630703 1.7559775 4294967295
2.9548001 0.71065205 1.7642825 4294967295
2.9484999 -0.86566949 1.7732458 4294967295
2.9514999 -0.87339824 1.7539735 4294967295
2.9484999 0.75222492 1.7458817 4294967295
2.9530907 0.73627031 1.7381517 4294967295
2.9420002 0.71758205 1.7352232 4294967295
2.961 0.53214568 1.7339113 4294967295
2.9549999 -0.88471812 1.7383075 4294967295
2.9419999 0.7335093 1.715883 4294967295
2.9419999 0.71985739 1.719296 4294967295
2.9549999 0.54477954 1.7040271 4294967295
2.9548333 -0.89495188 1.7073756 4294967295
2.961 0.55619079 1.682386 4294967295
2.961 -0.88994956 1.665211 4294967295
2.9610002 1.9267608 1.6308609 4294967295
2.9555717 1.9036312 1.6307746 4294967295
2.9420002 1.8870934 1.6305587 4294967295
2.9420004 1.7505747 1.6305587 4294967295
2.961 1.2054081 1.6308609 4294967295
2.9533331 1.1855224 1.6317835 4294967295
2.94525 1.1545901 1.6317855 4294967295
2.9532499 -0.88419622 1.645093 4294967295
2.9610002 2.1603415 1.6033808 4294967295
2.9523752 2.1411891 1.6122093 4294967295
2.9537501 2.115063 1.6189916 4294967295
2.9492857 2.0853186 1.6069021 4294967295
2.9580002 1.9831412 1.6022831 4294967295
2.9526668 1.9635676 1.6083251 4294967295
2.9484999 1.9357145 1.6244649 4294967295
2.9562225 1.8725891 1.6199147 4294967295
2.9543333 1.8424386 1.612349 4294967295
2.9559374 1.8141481 1.616949 4294967295
2.9582272 1.7861178 1.6173346 4294967295
2.9581583 1.7573023 1.6167885 4294967295
2.946727 1.7266657 1.61432 4294967295
2.9420002 1.7096189 1.6066679 4294967295
2.9547501 1.571341 1.6045181 4294967295
2.9536667 1.547334 1.612121 4294967295
2.9525557 1.5147905 1.6162623 4294967295
2.9498889 1.4822557 1.6046277 4294967295
2.9549999 1.4532133 1.6011854 4294967295
2.9565716 1.4280099 1.6046945 4294967295
2.9463332 1.4067928 1.6025651 4294967295
2.9549999 1.23039 1.6114695 4294967295
2.9535 1.2194805 1.6191247 4294967295
2.9579999 1.1767277 1.6263003 4294967295
2.9586 1.1515737 1.6244645 4294967295
2.9534285 1.1274415 1.613317 4294967295
2.9420002 1.1066607 1.6055301 4294967295
2.9484999 -0.86566949 1.6090763 4294967295
2.9549999 -0.87443399 1.6286099 4294967295
2.9580002 2.2233484 1.5748308 4294967295
2.9526668 2.2033417 1.5786346 4294967295
2.951143 2.1727035 1.5909662 4294967295
2.9420002 2.1533051 1.596429 4294967295
2.9590001 2.0787876 1.5934937 4294967295
2.9531252 2.0543759 1.5842141 4294967295
2.9548004 2.0228157 1.5832818 4294967295
2.9501429 1.9979144 1.5906006 4294967295
2.9610002 1.8072224 1.5868927 4294967295
2.9533339 1.7858737 1.5857347 4294967295
2.9419999 1.7554502 1.5847274 4294967295
2.9420004 1.7346475 1.5941536 4294967295
2.9536667 1.5976001 1.5835663 4294967295
2.9419999 1.5833391 1.593016 4294967295
2.9590003 1.4792129 1.5854892 4294967295
2.9572496 1.4543157 1.5848536 4294967295
2.9610002 1.4203418 1.5857151 4294967295
2.9492221 1.3982999 1.5868928 4294967295
2.9536362 1.2161015 1.5869752 4294967295
2.9589999 1.1908585 1.5751874 4294967295
2.9586003 1.1275564 1.5942641 4294967295
2.9419999 1.1055231 1.596429 4294967295
2.9463332 -0.86503339 1.5843323 4294967295
2.9512224 2.2384179 1.5556625 4294967295
2.9590001 1.8110378 1.5637467 4294967295
2.9446001 1.7876527 1.5645856 4294967295
2.9513843 1.6054955 1.5577147 4294967295
2.9598 1.5084522 1.5521258 4294967295
2.9573083 1.4831173 1.558223 4294967295
2.9574001 1.4557606 1.5622677 4294967295
2.9566998 1.4286724 1.56134 4294967295
2.9419999 1.3997211 1.5622993 4294967295
2.9484999 1.3542349 1.5440791 4294967295
2.951071 1.3334082 1.5562071 4294967295
2.9525719 1.3042399 1.5640732 4294967295
2.9419999 1.2829976 1.5588863 4294967295
2.9419999 1.2044992 1.5691252 4294967295
2.9529998 1.1864687 1.5652212 4294967295
2.9514999 0.57493919 1.5519691 4294967295
2.9579999 0.55905181 1.5439436 4294967295
2.9521999 -0.881823 1.5563126 4294967295
2.9507501 2.2452774 1.5243143 4294967295
2.9419999 1.4843628 1.5349954 4294967295
2.9549999 1.3606559 1.5394806 4294967295
2.9419999 0.5423829 1.5281695 4294967295
2.9514999 0.52528584 1.5245659 4294967295
2.9526665 -0.90571153 1.5318202 4294967295
2.9512224 2.2376463 1.4925276 4294967295
2.9514999 0.50645936 1.4937282 4294967295
2.9589999 -0.90994459 1.4996729 4294967295
2.9536002 2.2591007 1.4540181 4294967295
2.9533079 2.2401013 1.4672086 4294967295
2.961 0.7519865 1.4591103 4294967295
2.9419999 0.74033523 1.4667361 4294967295
2.9585998 0.50425643 1.4652135 4294967295
2.9419999 -0.89789081 1.4564972 4294967295
2.9549999 -0.90185839 1.4743476 4294967295
2.9531252 2.2719233 1.4360502 4294967295
2.9419999 0.74716115 1.4462583 4294967295
2.961 0.50466555 1.4350653 4294967295
2.9526665 -0.89657092 1.4336051 4294967295
2.9532502 2.2617414 1.4061208 4294967295
2.9546671 2.2471006 1.3931136 4294967295
2.9514999 0.50645936 1.4047704 4294967295
2.9526665 -0.8897202 1.4085023 4294967295
2.9548004 2.2284777 1.3748748 4294967295
2.957 0.51084459 1.3823688 4294967295
2.9589999 -0.87790304 1.3783721 4294967295
2.9516251 2.228827 1.3465552 4294967295
2.9420002 2.2147384 1.3575211 4294967295
2.9419999 0.51507914 1.3302172 4294967295
2.9526665 -0.88059413 1.3468416 4294967295
2.9515002 2.256108 1.3088765 4294967295
2.9463334 2.2453344 1.3177487 4294967295
2.957 0.51770532 1.3183321 4294967295
2.9548001 -0.89219654 1.3131726 4294967295
2.9526668 2.2889898 1.2783446 4294967295
2.9550002 2.2759457 1.2960889 4294967295
2.961 0.51153558 1.2804897 4294967295
2.9560001 -0.89529634 1.286049 4294967295
2.9565003 2.3011096 1.2553235 4294967295
2.9419999 0.50825316 1.2687838 4294967295
2.9532499 -0.88762021 1.2545335 4294967295
2.9580002 2.291986 1.2351127 4294967295
2.9548004 2.2654994 1.2171965 4294967295
2.961 0.51153558 1.2186594 4294967295
2.9419999 0.50825316 1.2210021 4294967295
2.9501426 -0.88374203 1.2248927 4294967295
2.9495001 2.245465 1.1954007 4294967295
2.9548001 -0.8825956 1.1966202 4294967295
2.9536002 2.2385418 1.1675689 4294967295
2.9484999 0.51621717 1.1643947 4294967295
2.9579999 -0.8821848 1.1664715 4294967295
2.9548335 2.2426789 1.136071 4294967295
2.9419999 0.52190506 1.1459168 4294967295
2.9526665 -0.88744485 1.1276194 4294967295
2.9532502 2.2591743 1.1020601 4294967295
2.9420002 2.2454553 1.1117871 4294967295
2.961 0.54588574 1.1087389 4294967295
2.9562497 -0.89022839 1.1043816 4294967295
2.9548004 2.2668734 1.0773385 4294967295
2.9484999 0.53674024 1.0823176 4294967295
2.9419999 -0.89106488 1.0742445 4294967295
2.95 2.2583964 1.0517882 4294967295
2.9420002 2.2488682 1.0367017 4294967295
2.9546669 0.53328276 1.0434623 4294967295
2.9574001 -0.89572924 1.0462598 4294967295
2.9595001 2.2570927 1.0157475 4294967295
2.9420002 2.2488682 1.019637 4294967295
2.948333 0.5253039 1.0127269 4294967295
2.9514999 -0.8973552 1.0144243 4294967295
2.9535999 2.2632141 0.98391575 4294967295
2.9578333 -0.89699817 0.98685646 4294967295
2.948333 2.2651007 0.95459616 4294967295
2.9420002 -0.89789081 0.95479047 4294967295
2.9549999 -0.90185839 0.94299948 4294967295
2.948333 2.2651007 0.92265356 4294967295
2.9463332 0.52267373 0.92807686 4294967295
2.9546669 -0.906322 0.92467582 4294967295
2.9547777 2.2624345 0.89421189 4294967295
2.9609997 2.2015617 0.88202816 4294967295
2.9573998 2.1714382 0.88158798 4294967295
2.961 2.1500363 0.88202816 4294967295
2.9549999 0.53106737 0.88815069 4294967295
2.9463332 -0.91288531 0.88706088 4294967295
2.9549999 2.2519493 0.86758232 4294967295
2.953737 2.2401352 0.86238384 4294967295
2.9492218 2.2072585 0.86233866 4294967295
2.9589999 2.1337061 0.86348212 4294967295
2.9484999 2.1272702 0.87023079 4294967295
2.9526665 0.53749871 0.86044252 4294967295
2.957 -0.91619027 0.86781299 4294967295
2.954 2.2580318 0.8331961 4294967295
2.9514999 2.2492599 0.84662676 4294967295
2.9580002 2.2027659 0.84391451 4294967295
2.9474285 2.1748495 0.83932501 4294967295
2.9532499 2.151248 0.84168231 4294967295
2.9514999 -0.92133415 0.84319174 4294967295
2.9546669 -0.94059861 0.82641113 4294967295
2.9548001 2.2558985 0.80996239 4294967295
2.948333 2.2468541 0.79610181 4294967295
2.9484999 0.54699415 0.80869174 4294967295
2.961 -0.97925985 0.79271781 4294967295
2.9526665 2.2410305 0.77824426 4294967295
2.9579999 0.56249374 0.77870846 4294967295
2.9420002 -0.98435271 0.77276534 4294967295
2.961 2.2565219 0.73088759 4294967295
2.9532499 2.24547 0.74232972 4294967295
2.957 0.5725913 0.75118494 4294967295
2.9484999 0.56067628 0.73683834 4294967295
2.9589999 0.51805079 0.73074514 4294967295
2.961 0.50466555 0.73088759 4294967295
2.961 0.46001044 0.73088759 4294967295
2.9549999 0.43850997 0.73046029 4294967295
2.9580002 0.34286526 0.73067391 4294967295
2.961 0.3157399 0.73088759 4294967295
2.961 0.28482476 0.73088759 4294967295
2.961 0.26421469 0.73088759 4294967295
2.957 0.071761556 0.73060274 4294967295
2.9579999 0.034037806 0.73753697 4294967295
2.9580002 0.013438175 0.73753697 4294967295
2.9589999 -0.010583806 0.73761052 4294967295
2.9549999 -0.058557596 0.73046029 4294967295
2.9579999 -0.068915114 0.73067391 4294967295
2.9609997 -0.80063921 0.73088759 4294967295
2.9589999 -0.92367065 0.73074514 4294967295
2.961 -0.9552148 0.73775762 4294967295
2.9562001 -0.97629839 0.74700594 4294967295
2.9526665 2.2684379 0.71658802 4294967295
