# .PCD v0.7 - Point Cloud Data file format
VERSION 0.7
FIELDS x y z rgb
SIZE 4 4 4 4
TYPE F F F U
COUNT 1 1 1 1
WIDTH 1153
HEIGHT 1
VIEWPOINT 0 0 0 1 0 0 0
POINTS 1153
DATA ascii
2.6776667 1.1004175 1.6943673 4294967295
2.677 0.81029385 1.6951194 4294967295
2.6855998 0.80416501 1.7044835 4294967295
2.678 -0.89809316 1.7079742 4294967295
2.681 -0.90376049 1.6937553 4294967295
2.684 2.2010853 1.6682414 4294967295
2.6822855 2.1774521 1.6805402 4294967295
2.6756003 2.150763 1.6864325 4294967295
2.6894286 1.9586344 1.6778296 4294967295
2.6805632 1.9351058 1.6721691 4294967295
2.680182 1.9073851 1.6719182 4294967295
2.6800001 1.8744749 1.6762224 4294967295
2.6869092 1.8430283 1.681609 4294967295
2.6737502 1.8189342 1.6859367 4294967295
2.6795001 1.0876989 1.6868817 4294967295
2.6822996 1.0670583 1.6800075 4294967295
2.6832001 1.0362823 1.676052 4294967295
2.6858177 1.0044261 1.679998 4294967295
2.677 0.97488791 1.6795917 4294967295
2.6841667 0.94633156 1.682696 4294967295
2.6823332 0.91667819 1.6860379 4294967295
2.6841109 0.88578892 1.6861165 4294967295
2.6838996 0.85470432 1.6831871 4294967295
2.6844664 0.82251263 1.6848822 4294967295
2.6851666 -0.92177331 1.672731 4294967295
2.6866665 2.2247496 1.6394444 4294967295
2.67875 2.2138817 1.6539317 4294967295
2.6989999 0.58212262 1.6390243 4294967295
2.6989999 0.54141873 1.6327621 4294967295
2.688 0.53921217 1.6344635 4294967295
2.6832497 -0.92006803 1.6470165 4294967295
2.6833999 2.2242603 1.6157386 4294967295
2.677 0.59911656 1.6236918 4294967295
2.684 0.54254973 1.6079088 4294967295
2.688 0.53921217 1.6219903 4294967295
2.6809998 -0.91498286 1.6177261 4294967295
2.6864288 2.2226725 1.5910503 4294967295
2.6788001 2.216722 1.5759484 4294967295
2.6819999 0.54423124 1.5946398 4294967295
2.6877999 -0.91633075 1.5881836 4294967295
2.6832111 2.2082984 1.5551461 4294967295
2.6935003 2.1870205 1.5430032 4294967295
2.6834002 -0.91110349 1.5516057 4294967295
2.6710002 2.190448 1.5344577 4294967295
2.6818752 2.1791198 1.5249689 4294967295
2.6904998 -0.89915401 1.5200055 4294967295
2.6807499 -0.90521896 1.5303754 4294967295
2.6857502 2.1978557 1.4863093 4294967295
2.6827273 2.1830707 1.5021229 4294967295
2.6801665 -0.89363414 1.4975085 4294967295
2.6855834 2.2309465 1.4631402 4294967295
2.6785002 2.2121265 1.4751561 4294967295
2.6794999 -0.89703703 1.4708529 4294967295
2.6860001 -0.90284181 1.4570515 4294967295
2.6816666 2.2434347 1.4354931 4294967295
2.6831429 -0.90871042 1.4358933 4294967295
2.6990001 2.250983 1.407325 4294967295
2.6800001 2.2419591 1.4041708 4294967295
2.6933334 0.52569664 1.4075495 4294967295
2.686111 -0.91672683 1.4072294 4294967295
2.6826925 2.2330551 1.3756194 4294967295
2.6867998 0.51527828 1.3783793 4294967295
2.6815715 -0.91261238 1.3758082 4294967295
2.6905 2.225147 1.3545716 4294967295
2.6815002 2.2161498 1.3424532 4294967295
2.6896667 0.51040971 1.3543111 4294967295
2.688 0.50802904 1.3382242 4294967295
2.6841667 -0.91261661 1.3432574 4294967295
2.687875 2.1987975 1.3147724 4294967295
2.6795003 2.1880906 1.3045495 4294967295
2.688 0.50802904 1.3288693 4294967295
2.679111 -0.91779512 1.3137479 4294967295
2.6907504 2.2019479 1.2797592 4294967295
2.6756668 2.185993 1.2910105 4294967295
2.6847775 -0.90865535 1.2856715 4294967295
2.6868002 2.2245755 1.2474682 4294967295
2.6831431 2.2092841 1.262485 4294967295
2.6830001 -0.8962065 1.2571208 4294967295
2.677 -0.90396893 1.2696593 4294967295
2.6804669 2.2268038 1.2250129 4294967295
2.684818 -0.89696985 1.2265229 4294967295
2.6847777 2.2238729 1.1998363 4294967295
2.6766667 2.2157919 1.1867614 4294967295
2.6795001 -0.89859623 1.2050791 4294967295
2.6823332 -0.90471959 1.1902478 4294967295
2.6838183 2.2145317 1.1639991 4294967295
2.6831424 -0.92026657 1.1673269 4294967295
2.678 2.2055006 1.1332395 4294967295
2.6768003 -0.91631991 1.1329718 4294967295
2.6817 2.1973312 1.1091958 4294967295
2.6846004 2.1841362 1.0961359 4294967295
2.684 -0.89595222 1.097254 4294967295
2.6860001 -0.90492064 1.1122271 4294967295
2.6835001 2.1739156 1.0753486 4294967295
2.6801999 -0.89135998 1.0740472 4294967295
2.682375 2.1989889 1.0393252 4294967295
2.6789999 2.1845694 1.0526686 4294967295
2.6807501 -0.89590055 1.0530164 4294967295
2.6823332 -0.90369105 1.0388101 4294967295
2.6989999 2.2259345 1.006548 4294967295
2.6803331 2.2112212 1.0170023 4294967295
2.6841667 -0.90742183 1.0163342 4294967295
2.6833634 2.2283041 0.98108912 4294967295
2.6764998 2.216687 0.9962821 4294967295
2.6819999 -0.89943457 0.97237003 4294967295
2.6807141 -0.90254664 0.9863708 4294967295
2.6842353 2.2390125 0.95552921 4294967295
2.6859999 0.50140202 0.94809979 4294967295
2.6873331 -0.89843988 0.95317531 4294967295
2.6799164 2.2324617 0.92485404 4294967295
2.6786668 0.49486804 0.92519128 4294967295
2.6848333 -0.89934111 0.92510116 4294967295
2.671 -0.90194285 0.91783869 4294967295
2.6828177 2.2255816 0.89610732 4294967295
2.6904998 2.2189047 0.88327873 4294967295
2.6935 0.49656981 0.90243542 4294967295
2.6819999 -0.89943457 0.89458632 4294967295
2.6813529 2.2087984 0.86613214 4294967295
2.6824999 0.50076574 0.87597823 4294967295
2.6800001 -0.89520377 0.86721104 4294967295
2.6989999 2.2259345 0.82494605 4294967295
2.6804163 2.2131865 0.83684146 4294967295
2.6989999 0.51010799 0.83120811 4294967295
2.6764998 0.50585556 0.83792233 4294967295
2.6802001 -0.8926124 0.83524644 4294967295
2.6824999 2.2216561 0.81063402 4294967295
2.6779997 2.2163732 0.80237365 4294967295
2.684 0.51350039 0.79832023 4294967295
2.6849999 -0.8973096 0.81403601 4294967295
2.6953332 2.2249894 0.76825756 4294967295
2.6814997 2.2156446 0.77838326 4294967295
2.6849999 0.51992136 0.77039587 4294967295
2.6876667 -0.92002928 0.77379191 4294967295
2.6839998 2.2284935 0.74291301 4294967295
2.671 2.2152367 0.75981069 4294967295
2.6849999 0.52926934 0.74860138 4294967295
2.6812379 2.2367351 0.71451759 4294967295
2.6803334 0.53767419 0.71090186 4294967295
2.6844783 2.238569 0.68736398 4294967295
2.6823997 0.53186005 0.68241942 4294967295
2.677 -0.95986879 0.67649961 4294967295
2.6849999 -0.96273726 0.68943006 4294967295
2.6989999 2.250983 0.65273714 4294967295
2.6800766 2.2423663 0.65539217 4294967295
2.6800768 0.51895916 0.65492952 4294967295
2.6896667 0.50417358 0.64707708 4294967295
2.6990001 0.30971956 0.64334393 4294967295
2.6989996 0.28327939 0.6461271 4294967295
2.6989996 0.2522217 0.64732897 4294967295
2.6962497 0.22495233 0.64947617 4294967295
2.6990001 0.19700101 0.64960611 4294967295
2.6989999 0.17508353 0.64334393 4294967295
2.6847775 -0.94949496 0.65169215 4294967295
2.6989999 2.250983 0.63395071 4294967295
2.6829374 2.2406743 0.62159425 4294967295
2.6744287 0.51786935 0.62183201 4294967295
2.6897998 0.49867949 0.62295127 4294967295
2.6989999 0.33633366 0.61672986 4294967295
2.695792 0.31508955 0.62392306 4294967295
2.6902001 0.28374791 0.62422377 4294967295
2.6946957 0.25403532 0.62521762 4294967295
2.694 0.22617975 0.62351918 4294967295
2.6990004 0.19897853 0.62752378 4294967295
2.6989999 0.17195247 0.6370818 4294967295
2.6989999 0.1155932 0.61516428 4294967295
2.6896665 -0.89575201 0.61171496 4294967295
2.6839283 -0.9160772 0.62175655 4294967295
2.6807499 -0.93631792 0.63474083 4294967295
2.6819375 2.2316768 0.59472996 4294967295
2.6746001 0.51418084 0.60002959 4294967295
2.6830001 0.49320734 0.59424001 4294967295
2.6915829 0.46863717 0.58629173 4294967295
2.6989999 0.44748664 0.58072251 4294967295
2.6970589 0.34299815 0.59062314 4294967295
2.6865602 0.31452805 0.59291476 4294967295
2.6855414 0.28377053 0.59340978 4294967295
2.6839521 0.2557998 0.59225929 4294967295
2.6836402 0.22701018 0.5928452 4294967295
2.6884801 0.19623226 0.59299409 4294967295
2.6878419 0.16599254 0.58968908 4294967295
2.6902633 0.13229756 0.58974499 4294967295
2.6961997 0.10858748 0.5875479 4294967295
2.6990001 -0.14115456 0.58072251 4294967295
2.6989999 -0.83312106 0.58072251 4294967295
2.6873634 -0.85756844 0.58386821 4294967295
2.6822941 -0.88121545 0.59683561 4294967295
2.671 -0.90194285 0.60488129 4294967295
2.6857498 2.2258961 0.56483668 4294967295
2.6745999 0.46204948 0.57396805 4294967295
2.6841667 0.43153438 0.57312822 4294967295
2.6766665 0.40756094 0.56884313 4294967295
2.6806667 0.37394404 0.56891453 4294967295
2.6794999 0.34686637 0.57303405 4294967295
2.671 0.32509798 0.57389539 4294967295
2.674 0.12382523 0.57395595 4294967295
2.6822 0.10241716 0.57412142 4294967295
2.6845996 0.075129874 0.57044595 4294967295
2.6766 0.05130573 0.56905067 4294967295
2.6766665 0.0090527087 0.56779945 4294967295
2.6896667 -0.017947963 0.56386995 4294967295
2.6849999 -0.050118428 0.55548894 4294967295
2.6907499 -0.075149268 0.55556494 4294967295
2.6878331 -0.10835653 0.56593311 4294967295
2.6816998 -0.134012 0.57100737 4294967295
2.6855714 -0.16271064 0.56974399 4294967295
2.6896667 -0.19470011 0.56596583 4294967295
2.671 -0.26673231 0.56150109 4294967295
2.6795001 -0.2862376 0.56163311 4294967295
2.6858749 -0.31729412 0.55940473 4294967295
2.6863573 -0.3452774 0.5613116 4294967295
2.6872494 -0.37330687 0.56332994 4294967295
2.6813333 -0.40772042 0.55856305 4294967295
2.6795001 -0.43546692 0.55853456 4294967295
2.6837502 -0.4626084 0.56326473 4294967295
2.6855998 -0.4956004 0.56795895 4294967295
2.6746001 -0.52461284 0.56776255 4294967295
2.6795001 -0.55357462 0.56785005 4294967295
2.6907501 -0.58553517 0.56337345 4294967295
2.6924 -0.67802119 0.56183356 4294967295
2.678 -0.70547265 0.5616098 4294967295
2.6768003 -0.73620635 0.56159121 4294967295
2.6919999 -0.76852566 0.56652397 4294967295
2.6889999 -0.79570436 0.56801969 4294967295
2.6842725 -0.82373917 0.57134044 4294967295
2.6752501 -0.85060686 0.57398117 4294967295
2.6884999 2.2266192 0.53681952 4294967295
2.6829 2.2319429 0.50566381 4294967295
2.681818 2.2326827 0.47342631 4294967295
2.679846 2.2225621 0.44254878 4294967295
2.6822724 2.22966 0.41458878 4294967295
2.6829 2.2331862 0.38490427 4294967295
2.6833334 2.2244067 0.3634983 4294967295
2.6805713 2.2124975 0.35018876 4294967295
2.675 0.84692723 0.35053906 4294967295
2.6839089 2.2049856 0.32394195 4294967295
2.677 0.84756041 0.33799481 4294967295
2.6811054 2.2124639 0.29384518 4294967295
2.6822498 2.2069194 0.2655558 4294967295
2.6822724 2.2042007 0.23580801 4294967295
2.6878569 2.2283061 0.20184916 4294967295
2.6783333 2.215096 0.21569458 4294967295
2.6860001 2.2287056 0.18054631 4294967295
2.6746666 2.2162035 0.16646004 4294967295
2.6816664 2.2061007 0.14618278 4294967295
2.6855998 2.2036517 0.11621949 4294967295
2.6822727 2.209295 0.084184051 4294967295
2.6843634 2.2081919 0.053846776 4294967295
2.6894283 2.1966262 0.02781269 4294967295
2.6766665 2.1847448 0.021295607 4294967295
2.6911998 2.1932471 -0.011366546 4294967295
2.6781249 2.1854095 -0.0030525327 4294967295
2.674 2.2208235 -0.046457708 4294967295
2.6825237 2.2043221 -0.036707103 4294967295
2.6822729 2.2293651 -0.065458119 4294967295
2.6990001 2.2134101 -0.055928409 4294967295
2.6883328 2.2353086 -0.093157649 4294967295
2.6844997 2.2301595 -0.12589794 4294967295
2.6896665 2.2265432 -0.15275335 4294967295
2.6783333 2.2130303 -0.16337097 4294967295
2.6839998 2.2101595 -0.18386966 4294967295
2.6847141 2.2239213 -0.22134608 4294967295
2.6810002 2.2148001 -0.20593399 4294967295
2.6848748 2.2259531 -0.24733466 4294967295
2.6953335 2.2270768 -0.26985407 4294967295
2.6776996 2.2164319 -0.27773577 4294967295
2.6822498 2.2261 -0.30905879 4294967295
2.6896665 2.218224 -0.29627568 4294967295
2.6830771 2.2328954 -0.33568126 4294967295
2.6823332 2.2350042 -0.35524732 4294967295
2.721 0.74154067 2.0364065 4294967295
2.7176666 -0.89247948 2.0314 4294967295
2.7165999 -0.88708085 2.0055799 4294967295
2.721 0.74154067 1.9701182 4294967295
2.7140002 -0.88047385 1.9735806 4294967295
2.7184999 0.74085933 1.946704 4294967295
2.71275 -0.88771611 1.9436792 4294967295
2.7173331 -0.89867461 1.9145548 4294967295
2.704 -0.90053874 1.9045944 4294967295
2.704 0.74318147 1.8857732 4294967295
2.717 -0.89304179 1.8813069 4294967295
2.704 -0.90053874 1.8951838 4294967295
2.71 0.74483055 1.8479202 4294967295
2.7150002 -0.88879913 1.8549335 4294967295
2.7160001 0.75278121 1.8162154 4294967295
2.7125001 0.74865454 1.8271515 4294967295
2.7136667 -0.89430726 1.8255917 4294967295
2.7197499 0.7538206 1.802225 4294967295
2.7172501 -0.89864713 1.8010464 4294967295
2.7116668 0.75996953 1.7669433 4294967295
2.7070003 -0.9015379 1.7648114 4294967295
2.7146003 2.1115701 1.7286285 4294967295
2.7140005 2.088069 1.7378937 4294967295
2.7168891 2.0536768 1.7360867 4294967295
2.7131112 2.0256348 1.7287952 4294967295
2.7160003 1.6381538 1.7216916 4294967295
2.7160003 1.6003442 1.7216916 4294967295
2.7136667 1.5076661 1.7269466 4294967295
2.7162502 1.4866521 1.7395185 4294967295
2.7145457 1.4566281 1.7405049 4294967295
2.712889 1.4240017 1.7300936 4294967295
2.7112 1.3930597 1.7220774 4294967295
2.7160001 1.3766381 1.7216916 4294967295
2.7179999 0.79243553 1.731401 4294967295
2.7124999 0.77383822 1.745307 4294967295
2.721 -0.89988726 1.730217 4294967295
2.7039998 -0.90053874 1.7414771 4294967295
2.7122004 2.1713784 1.6923163 4294967295
2.7147143 2.1416986 1.7067291 4294967295
2.7040002 2.1202679 1.7132454 4294967295
2.7210002 2.0136473 1.7144341 4294967295
2.7131114 1.9976668 1.7043128 4294967295
2.7040002 1.9791086 1.6912873 4294967295
2.7193336 1.8389038 1.6916198 4294967295
2.7142224 1.8165401 1.6957109 4294967295
2.7125003 1.7839193 1.6981063 4294967295
2.7115562 1.753944 1.6980456 4294967295
2.7133751 1.7247008 1.6992762 4294967295
2.7145004 1.6960243 1.7063273 4294967295
2.7145004 1.6697823 1.7157754 4294967295
2.7040002 1.6466002 1.7163821 4294967295
2.70825 1.6051733 1.7166842 4294967295
2.7158334 1.5764375 1.7047966 4294967295
2.7104778 1.546362 1.6987263 4294967295
2.7155454 1.5198731 1.7065877 4294967295
2.7145002 1.3622247 1.7157689 4294967295
2.711875 1.3367866 1.7104193 4294967295
2.7129998 1.3090343 1.7077751 4294967295
2.704 1.2764494 1.7038348 4294967295
2.71 1.2383982 1.7064617 4294967295
2.717 1.213248 1.7095263 4294967295
2.7145002 1.1816689 1.7021204 4294967295
2.711556 1.1562731 1.6980455 4294967295
2.7139997 1.1268834 1.6966646 4294967295
2.7125001 1.1042451 1.6918125 4294967295
2.7160001 0.96388429 1.6901838 4294967295
2.721 0.95303231 1.6923379 4294967295
2.7039998 0.9125725 1.6912873 4294967295
2.7185001 0.87647104 1.6912608 4294967295
2.7160001 0.86620975 1.6901838 4294967295
2.7160001 0.81579709 1.6901838 4294967295
2.7117779 0.80333811 1.7037379 4294967295
2.7131112 -0.9084664 1.7015201 4294967295
2.7193336 2.2279811 1.6642783 4294967295
2.7127502 2.2034285 1.6769845 4294967295
2.7040002 2.1798682 1.6850135 4294967295
2.7160003 1.984741 1.6807313 4294967295
2.7128334 1.9645722 1.6741192 4294967295
2.7156003 1.9334159 1.6736245 4294967295
2.704 1.89755 1.6787398 4294967295
2.7128336 1.8754051 1.682525 4294967295
2.7153335 1.8509072 1.6856877 4294967295
2.7210002 1.5938206 1.6639285 4294967295
2.7167275 1.5758493 1.6756027 4294967295
2.7135453 1.5427842 1.6742435 4294967295
2.721 1.5218503 1.6809742 4294967295
2.7141998 1.0898092 1.6856203 4294967295
2.7160001 1.0647097 1.6838821 4294967295
2.7184999 1.0404544 1.6849535 4294967295
2.704 0.97844678 1.6850135 4294967295
2.7164285 0.85193682 1.682258 4294967295
2.711875 0.82713366 1.6813203 4294967295
2.7161 -0.91779333 1.675094 4294967295
2.7127502 2.2341244 1.6478634 4294967295
2.7150002 1.5735075 1.6554488 4294967295
2.7057145 1.551682 1.6579485 4294967295
2.7105715 -0.91440344 1.6473973 4294967295
2.7146003 2.2375376 1.6140013 4294967295
2.7160001 0.63305116 1.6271678 4294967295
2.704 0.6239804 1.6285498 4294967295
2.7136667 0.54436088 1.6115144 4294967295
2.704 -0.91935998 1.6065917 4294967295
2.7140002 2.2292988 1.5876633 4294967295
2.7125003 2.2181683 1.5722368 4294967295
2.71 0.54362535 1.5901468 4294967295
2.7136667 -0.91844177 1.5800205 4294967295
2.7108338 2.204232 1.5590149 4294967295
2.7100003 2.1878421 1.5429823 4294967295
2.7142501 -0.91339374 1.554028 4294967295
2.7140002 2.1889756 1.5245558 4294967295
2.7176666 -0.89878488 1.5206585 4294967295
2.7160001 -0.90453529 1.5326442 4294967295
2.7185004 2.2262454 1.4831171 4294967295
2.7148752 2.204365 1.4975879 4294967295
2.7040002 2.186142 1.5093488 4294967295
2.7172501 -0.89864713 1.4984312 4294967295
2.7172501 2.2551672 1.460613 4294967295
2.7136669 2.233835 1.4771998 4294967295
2.7160001 0.53222579 1.4507236 4294967295
2.7121999 -0.90578479 1.4657791 4294967295
2.7148755 2.2618558 1.4345835 4294967295
2.7160001 0.53852737 1.4381204 4294967295
2.7165999 -0.91607833 1.4320123 4294967295
2.7156003 2.2547336 1.4064661 4294967295
2.7040002 2.2457426 1.3964214 4294967295
2.7080002 0.52437508 1.4081926 4294967295
2.7136669 -0.91844177 1.3995453 4294967295
2.7210002 2.2503917 1.3893051 4294967295
2.7121999 2.2418454 1.3764176 4294967295
2.7185001 0.51379353 1.3727407 4294967295
2.7080002 -0.91443694 1.3767868 4294967295
2.7145 2.2282083 1.3462758 4294967295
2.7040002 2.2175107 1.333684 4294967295
2.7098 -0.91504484 1.3479824 4294967295
2.7190003 2.208359 1.3129566 4294967295
2.7096665 -0.91708446 1.3133655 4294967295
2.7210002 2.2251389 1.2756678 4294967295
2.7100003 2.2082806 1.288332 4294967295
2.721 -0.89988726 1.2756678 4294967295
2.7112501 -0.90452176 1.2871194 4294967295
2.7148337 2.2347898 1.2550585 4294967295
2.7146001 -0.89777064 1.2549908 4294967295
2.7115004 2.2362318 1.2258338 4294967295
2.721 -0.89988726 1.2283189 4294967295
2.7145004 2.2345109 1.1993217 4294967295
2.7116668 -0.90728116 1.1954776 4294967295
2.7112505 2.2281687 1.1675832 4294967295
2.7121997 -0.92592341 1.1662493 4294967295
2.7193336 2.2279811 1.1406049 4294967295
2.7082503 2.2162709 1.1260257 4294967295
2.7142501 -0.91811299 1.132091 4294967295
2.7176001 2.2034268 1.1082528 4294967295
2.7040002 2.186142 1.0952818 4294967295
2.7160001 -0.89823371 1.0978348 4294967295
2.7160001 -0.90453529 1.1104381 4294967295
2.7210002 2.193573 1.0736458 4294967295
2.7120001 2.1884089 1.076025 4294967295
2.7098 -0.89618325 1.0738552 4294967295
2.7160003 2.2210503 1.034819 4294967295
2.7112863 2.2064061 1.0482992 4294967295
2.71 -0.90568084 1.0431063 4294967295
2.712286 2.2296927 1.0143383 4294967295
2.7155998 -0.91070265 1.0158547 4294967295
2.721 2.2503917 0.97263491 4294967295
2.7146001 2.2413151 0.9866876 4294967295
2.721 -0.89988726 0.97263491 4294967295
2.7142498 -0.90395248 0.98727071 4294967295
2.721 2.2503917 0.95369542 4294967295
2.704 2.2426057 0.95412266 4294967295
2.71 0.50274855 0.95507896 4294967295
2.7179999 -0.89889514 0.95321721 4294967295
2.704 -0.90053874 0.96980703 4294967295
2.721 2.2503917 0.92844266 4294967295
2.7063999 2.243336 0.92623991 4294967295
2.721 0.49532649 0.92844266 4294967295
2.721 -0.89988726 0.9347558 4294967295
2.704 -0.90053874 0.92275393 4294967295
2.7140002 2.2319951 0.8935377 4294967295
2.7125001 0.5000726 0.89254284 4294967295
2.704 -0.90053868 0.89452207 4294967295
2.7176666 2.2224131 0.8627795 4294967295
2.70825 2.2147026 0.86212432 4294967295
2.7142501 0.50669277 0.86129063 4294967295
2.7142498 -0.89765495 0.8613202 4294967295
2.7156665 2.2312768 0.83417362 4294967295
2.7125001 0.51265949 0.82331473 4294967295
2.71 -0.89624935 0.84190106 4294967295
2.7118752 2.2333977 0.80751765 4294967295
2.7146001 2.2337568 0.77633071 4294967295
2.7160001 0.51962262 0.78905725 4294967295
2.7160001 -0.91713846 0.78905725 4294967295
2.7128334 2.2415352 0.74573147 4294967295
2.7140908 2.2412324 0.71043986 4294967295
2.7130625 2.2351522 0.68569064 4294967295
2.721 2.2188258 0.6948548 4294967295
2.7176666 0.5325563 0.68413794 4294967295
2.71 -0.96541363 0.67843574 4294967295
2.7193334 2.2563732 0.65478742 4294967295
2.704 2.2488794 0.65925682 4294967295
2.7080002 0.51390028 0.66679609 4294967295
2.7145002 0.50043666 0.65350235 4294967295
2.7197502 0.33892155 0.64981478 4294967295
2.7105715 0.31598839 0.65466952 4294967295
2.7108128 0.28670108 0.66198051 4294967295
2.7143574 0.25569817 0.66340131 4294967295
2.7123334 0.22454457 0.66633725 4294967295
2.7131112 0.19661753 0.66567677 4294967295
2.7113678 0.16710271 0.65550768 4294967295
2.718857 0.13806897 0.64605516 4294967295
2.7189999 0.10383965 0.64425796 4294967295
2.7181427 0.07406763 0.64692444 4294967295
2.7198462 0.045610864 0.64963853 4294967295
2.7210004 0.016981367 0.64969128 4294967295
2.72 -0.016033227 0.64746022 4294967295
2.7184999 -0.044409934 0.64739168 4294967295
2.7174444 -0.071367629 0.64699268 4294967295
2.721 -0.091799654 0.64434934 4294967295
2.7198889 -0.25934139 0.64780587 4294967295
2.7210002 -0.28435177 0.64939988 4294967295
2.7210002 -0.30855229 0.64855814 4294967295
2.7155559 -0.94638366 0.65250111 4294967295
2.7160001 -0.96124953 0.6693272 4294967295
2.7184999 2.2514751 0.63161743 4294967295
2.7097504 2.2442145 0.62181884 4294967295
2.71275 0.48594889 0.62823898 4294967295
2.7165 0.47243786 0.61473435 4294967295
2.7189167 0.36825702 0.62165219 4294967295
2.7095625 0.34748116 0.62694085 4294967295
2.704 0.32911456 0.6372987 4294967295
2.7040002 0.19109224 0.61534059 4294967295
2.7039993 0.16545177 0.62366015 4294967295
2.7068796 0.13476864 0.6248728 4294967295
2.7081735 0.10232213 0.62573725 4294967295
2.7168822 0.076681837 0.62710166 4294967295
2.7197502 0.052588459 0.63403767 4294967295
2.7201664 -0.021295581 0.63589561 4294967295
2.7155712 -0.046153598 0.63103902 4294967295
2.7159474 -0.073390454 0.62785697 4294967295
2.7184169 -0.10379604 0.62478787 4294967295
2.7135 -0.13596782 0.62093556 4294967295
2.7184999 -0.16031174 0.61821789 4294967295
2.7198462 -0.25922886 0.63167381 4294967295
2.7206156 -0.28504133 0.63073504 4294967295
2.7207732 -0.31216156 0.62511295 4294967295
2.721 -0.33422592 0.61783397 4294967295
2.7164285 -0.89026904 0.61713368 4294967295
2.7117779 -0.91431105 0.63065159 4294967295
2.704 -0.93190747 0.6372987 4294967295
2.7125001 2.2402053 0.59361321 4294967295
2.7122002 0.46308562 0.59948295 4294967295
2.7142224 0.43810388 0.58526814 4294967295
2.721 0.40694189 0.58121753 4294967295
2.7137825 0.37439916 0.59365362 4294967295
2.704 0.35264108 0.60122466 4294967295
2.7040002 0.16286039 0.60383874 4294967295
2.7040002 0.1398567 0.60383874 4294967295
2.7079999 0.099633537 0.59726644 4294967295
2.719182 0.079748452 0.59092808 4294967295
2.721 0.056560177 0.58121753 4294967295
2.7196367 -0.11297625 0.59495473 4294967295
2.7067268 -0.13441168 0.59516883 4294967295
2.7148571 -0.16088994 0.59322506 4294967295
2.7210002 -0.32223088 0.59384388 4294967295
2.7210004 -0.34180173 0.59194994 4294967295
2.7197502 -0.37335718 0.58355683 4294967295
2.721 -0.54003572 0.58121753 4294967295
2.7193334 -0.80259192 0.58328438 4294967295
2.7137897 -0.82293558 0.59034717 4294967295
2.7144666 -0.85573351 0.59703469 4294967295
2.71 -0.87423557 0.60612065 4294967295
2.7155998 2.2408798 0.56723112 4294967295
2.704 0.40126258 0.5745613 4294967295
2.7039998 0.3793045 0.5745613 4294967295
2.704 0.068754293 0.5745613 4294967295
2.704 0.043659326 0.5745613 4294967295
2.7073998 0.015431111 0.5746299 4294967295
2.7136669 -0.0096981702 0.57056457 4294967295
2.7136667 -0.041196033 0.56216401 4294967295
2.721 -0.085486464 0.56227797 4294967295
2.7136667 -0.10100114 0.57056922 4294967295
2.7119999 -0.17330524 0.57472271 4294967295
2.7096665 -0.19617687 0.57049316 4294967295
2.7088001 -0.2233872 0.56837326 4294967295
2.717 -0.25557083 0.56851971 4294967295
2.7201664 -0.28846866 0.56962848 4294967295
2.712364 -0.3163265 0.57187581 4294967295
2.7070003 -0.34568533 0.5746218 4294967295
2.7135997 -0.3748818 0.57475501 4294967295
2.7127502 -0.40543491 0.56923789 4294967295
2.7074001 -0.43179569 0.56332928 4294967295
2.7142501 -0.46625978 0.5684706 4294967295
2.7184999 -0.49853581 0.5748539 4294967295
2.7160001 -0.5264402 0.57480341 4294967295
2.7176666 -0.5519889 0.57483703 4294967295
2.7153332 -0.58932447 0.56848991 4294967295
2.7142498 -0.61742991 0.56217307 4294967295
2.7146001 -0.64582145 0.56217849 4294967295
2.7125001 -0.67368776 0.56530249 4294967295
2.7119999 -0.70497692 0.56843042 4294967295
2.7129998 -0.7367391 0.56844825 4294967295
2.7142498 -0.7638374 0.57004887 4294967295
2.7146001 -0.79698157 0.57477516 4294967295
2.7169998 2.2407796 0.53699553 4294967295
2.7185001 2.2514751 0.49917108 4294967295
2.7069998 2.24195 0.50867796 4294967295
2.7176666 2.2518363 0.47814703 4294967295
2.7080002 2.2438228 0.46782136 4294967295
2.7125001 2.2354853 0.4457168 4294967295
2.721 2.2503917 0.40444833 4294967295
2.7140002 2.2409925 0.41915122 4294967295
2.7185001 2.2514751 0.39194554 4294967295
2.7070003 2.2435184 0.38618684 4294967295
2.7147143 2.2334826 0.35701689 4294967295
2.704 2.2175107 0.34243286 4294967295
2.7160001 2.2210503 0.32274008 4294967295
2.70825 2.2131341 0.32330298 4294967295
2.7172499 2.2252233 0.29428059 4294967295
2.704 2.2175107 0.29851666 4294967295
2.7184999 2.2230947 0.26895157 4294967295
2.70825 2.2162712 0.26516241 4294967295
2.7185001 2.2262454 0.22479698 4294967295
2.7142 2.2157903 0.24100456 4294967295
2.7165999 2.2366674 0.20797706 4294967295
2.721 2.2503917 0.18980008 4294967295
2.71 2.2381504 0.16913509 4294967295
2.7136669 2.2254291 0.14871192 4294967295
2.704 2.2143738 0.14167312 4294967295
2.7185001 2.2230947 0.10495088 4294967295
2.7125001 2.2150314 0.12162319 4294967295
2.7184999 2.2262454 0.082886636 4294967295
2.704 2.2175107 0.088346332 4294967295
2.7184999 2.2262454 0.054488897 4294967295
2.704 2.2143738 0.04756701 4294967295
2.7136669 2.2107456 0.026993424 4294967295
2.7160001 2.2021456 -0.0049422979 4294967295
2.7136667 2.2072411 -0.034572244 4294967295
2.7106252 2.2284284 -0.073080122 4294967295
2.7155001 2.2151153 -0.061545908 4294967295
2.7156003 2.2377222 -0.089290142 4294967295
2.721 2.2503917 -0.12901574 4294967295
2.71 2.2444313 -0.11694664 4294967295
2.721 2.2503917 -0.1447987 4294967295
2.7142501 2.2385046 -0.15890235 4294967295
2.7185001 2.2294021 -0.17887563 4294967295
2.7039998 2.2175107 -0.19083524 4294967295
2.7142501 2.230629 -0.21555912 4294967295
2.7116663 2.2395179 -0.24213457 4294967295
2.7122002 2.2343059 -0.27478099 4294967295
2.7142224 2.226578 -0.30476916 4294967295
2.704 2.2175107 -0.30062562 4294967295
2.7136667 2.2390666 -0.33293539 4294967295
2.721 2.2503917 -0.36576015 4294967295
2.71 2.2444313 -0.35588479 4294967295
2.756 -0.89867365 2.0591092 4294967295
2.733 0.74481106 2.0272415 4294967295
2.744 -0.89220852 2.0332994 4294967295
2.7379999 0.74617356 2.0077648 4294967295
2.7417998 -0.88258588 2.0041022 4294967295
2.733 0.744811 1.9891953 4294967295
2.7428331 -0.88005424 1.9759005 4294967295
2.7383335 0.74626446 1.9348732 4294967295
2.7442999 -0.89294708 1.9443048 4294967295
2.756 0.75107908 1.9184325 4294967295
2.7440002 0.74780875 1.9165879 4294967295
2.7446365 -0.89552945 1.9138149 4294967295
2.7391999 0.74650061 1.8844918 4294967295
2.7432306 -0.88274413 1.8864908 4294967295
2.756 0.75107908 1.8544886 4294967295
2.7419999 0.74726373 1.8604287 4294967295
2.7414 -0.88818115 1.8569512 4294967295
2.7471664 0.75504565 1.8278679 4294967295
2.7417998 -0.8978526 1.8259902 4294967295
2.744 -0.90112722 1.8104787 4294967295
2.74 0.75783455 1.7927201 4294967295
2.74125 -0.90498573 1.7932992 4294967295
2.7442222 0.76696926 1.7638762 4294967295
2.7460001 -0.90602374 1.7636169 4294967295
2.7484288 2.138242 1.7214454 4294967295
2.7420001 2.1172929 1.7290502 4294967295
2.7387729 2.0845602 1.7320449 4294967295
2.7419374 2.0561748 1.7255971 4294967295
2.7330003 2.0352097 1.7260427 4294967295
2.7560003 1.6878573 1.7202064 4294967295
2.7467003 1.6617589 1.7218738 4294967295
2.7417779 1.6384966 1.7217714 4294967295
2.7330003 1.6135315 1.7228723 4294967295
2.7408001 1.50493 1.7237424 4294967295
2.7428637 1.4877225 1.7309551 4294967295
2.7438459 1.4568496 1.7349722 4294967295
2.744091 1.4250134 1.7283188 4294967295
2.7423334 1.3970492 1.722016 4294967295
2.7460833 0.79190695 1.7355213 4294967295
2.7385001 0.77807885 1.7475247 4294967295
2.7404442 -0.90277785 1.7317789 4294967295
2.7427504 2.1999719 1.6937467 4294967295
2.7442222 2.1747689 1.705882 4294967295
2.7372 2.1456616 1.7145579 4294967295
2.7512004 2.1106796 1.7066145 4294967295
2.744 2.0840087 1.7055484 4294967295
2.7522504 2.0567272 1.7085854 4294967295
2.7389092 2.0248795 1.7029263 4294967295
2.7330003 2.006675 1.6911671 4294967295
2.7350004 1.8431495 1.6920241 4294967295
2.7421432 1.8161428 1.6964341 4294967295
2.7466671 1.7886966 1.699847 4294967295
2.7445455 1.755208 1.6990023 4294967295
2.7441819 1.7231363 1.7057976 4294967295
2.7397141 1.6928653 1.7158366 4294967295
2.7380002 1.6704808 1.7187202 4294967295
2.7490771 1.6289181 1.7058902 4294967295
2.7363572 1.6046356 1.7048475 4294967295
2.7419443 1.5127645 1.7048846 4294967295
2.7484999 1.3851354 1.7153312 4294967295
2.7440908 1.3665568 1.7121099 4294967295
2.7431662 1.3357555 1.7108979 4294967295
2.7432222 1.3034314 1.7117999 4294967295
2.7428572 1.2775124 1.7117424 4294967295
2.7401667 1.2458247 1.7133111 4294967295
2.7429998 1.2133977 1.713266 4294967295
2.747333 1.1849931 1.7029654 4294967295
2.7455001 1.1558958 1.6997 4294967295
2.7404444 1.1262006 1.696465 4294967295
2.733 1.1062495 1.6911671 4294967295
2.756 1.0516154 1.6946288 4294967295
2.733 1.0269866 1.6911671 4294967295
2.7349999 1.0055213 1.6920241 4294967295
2.7439997 0.97380042 1.695881 4294967295
2.7445002 0.94534397 1.6992657 4294967295
2.7395713 0.91548085 1.6985124 4294967295
2.7418571 0.88809133 1.6958609 4294967295
2.733 0.81456226 1.6911671 4294967295
2.7410905 0.80366933 1.7038702 4294967295
2.7437692 -0.90789068 1.7031162 4294967295
2.7560003 2.2537606 1.6626569 4294967295
2.7448893 2.2361755 1.672901 4294967295
2.7385004 2.2140281 1.6839933 4294967295
2.7560003 2.1002953 1.6882344 4294967295
2.7485001 2.0212462 1.688235 4294967295
2.7436004 1.9947028 1.6778685 4294967295
2.7414286 1.9619573 1.6756972 4294967295
2.7434289 1.9324743 1.6847173 4294967295
2.7393336 1.9053651 1.6864597 4294967295
2.7427778 1.8759689 1.6861576 4294967295
2.7470002 1.846984 1.6870675 4294967295
2.7440002 1.8237554 1.6895143 4294967295
2.7523081 1.6627537 1.6758695 4294967295
2.742588 1.6330417 1.6732031 4294967295
2.7370002 1.6081351 1.6780646 4294967295
2.756 1.5631666 1.6626569 4294967295
2.7417855 1.5432726 1.6662925 4294967295
2.7428184 1.5148817 1.6774327 4294967295
2.756 1.4992228 1.6754457 4294967295
2.744 1.0947856 1.6895143 4294967295
2.7415998 1.0652008 1.6884913 4294967295
2.7484999 0.8765679 1.6866364 4294967295
2.745182 0.85465777 1.6813213 4294967295
2.742111 0.8222146 1.6851708 4294967295
2.7445385 -0.91010708 1.6784693 4294967295
2.7440002 2.250314 1.6417652 4294967295
2.734 2.2459178 1.6471945 4294967295
2.7480004 1.6627737 1.6508312 4294967295
2.7401109 1.6343194 1.6454628 4294967295
2.7381907 1.6062946 1.6498133 4294967295
2.7401998 1.5764487 1.6548275 4294967295
2.7433336 0.54288125 1.6425341 4294967295
2.7404997 -0.91904885 1.6466837 4294967295
2.7480001 2.2514627 1.6210757 4294967295
2.7356668 2.2455895 1.6140193 4294967295
2.7354999 0.54556435 1.6224291 4294967295
2.7403998 -0.92537779 1.6180426 4294967295
2.7418749 2.2318554 1.5876101 4294967295
2.7355001 2.2147796 1.5716486 4294967295
2.743 -0.92243028 1.5872498 4294967295
2.7406251 2.2046137 1.5561246 4294967295
2.7441666 -0.91071868 1.55056 4294967295
2.7414002 2.200469 1.5261937 4294967295
2.7379999 -0.89915681 1.5186124 4294967295
2.744 -0.90112722 1.5208008 4294967295
2.7560003 2.2537606 1.483614 4294967295
2.7442 2.2319903 1.4909492 4294967295
2.7398751 2.2119577 1.5034008 4294967295
2.7454 -0.90540463 1.4926445 4294967295
2.744231 2.267154 1.4662571 4294967295
2.7408001 -0.91151577 1.4643111 4294967295
2.7435999 2.2735221 1.4353426 4294967295
2.7381999 0.53148842 1.4329109 4294967295
2.743 -0.91989154 1.434495 4294967295
2.7431669 2.2618148 1.4069896 4294967295
2.7382498 0.51911151 1.4043434 4294967295
2.741333 -0.92144632 1.4095795 4294967295
2.7450004 2.2538493 1.3751183 4294967295
2.7330003 2.2476342 1.3677747 4294967295
2.7442498 0.51387841 1.3760271 4294967295
2.7339997 -0.91687322 1.3744237 4294967295
2.7434289 2.2343612 1.3418891 4294967295
2.7379999 0.74617356 1.3312099 4294967295
2.747 0.51280648 1.3561733 4294967295
2.7467144 -0.92204303 1.3428752 4294967295
2.7330003 2.22227 1.3297286 4294967295
2.7397501 2.2166305 1.3158255 4294967295
2.7401428 -0.91710508 1.3154843 4294967295
2.7425716 2.2336781 1.2852967 4294967295
2.7380002 2.2199829 1.2994468 4294967295
2.7379999 -0.89915681 1.2740363 4294967295
2.7427499 -0.90389019 1.2880683 4294967295
2.7488 2.2529716 1.2514832 4294967295
2.7352002 2.2456286 1.2555053 4294967295
2.7379999 -0.89915681 1.2613311 4294967295
2.744 -0.90112722 1.2470393 4294967295
2.7512004 2.252382 1.2304255 4294967295
2.7382002 2.2455523 1.2194449 4294967295
2.7461665 -0.90289557 1.224242 4294967295
2.7402222 2.2436788 1.19341 4294967295
2.7409999 -0.91356885 1.1935833 4294967295
2.7406251 2.2427659 1.1650529 4294967295
2.7354999 -0.92689365 1.1654634 4294967295
2.7452002 -0.93081021 1.1664617 4294967295
2.7432859 2.2351637 1.1372738 4294967295
2.7380002 2.2199829 1.1215732 4294967295
2.7433336 -0.91999871 1.1365404 4294967295
2.7430003 2.2100267 1.1061202 4294967295
2.7442498 -0.90438622 1.107022 4294967295
2.7408571 2.2068486 1.0749587 4294967295
2.7354999 -0.89833587 1.0797696 4294967295
2.75 -0.90309763 1.0635884 4294967295
2.7451668 2.2353308 1.0403564 4294967295
2.7380002 2.2168064 1.0548706 4294967295
2.7399998 -0.90889174 1.0448086 4294967295
2.7520003 2.2526116 1.0097265 4294967295
2.7384002 2.2431746 1.0174683 4294967295
2.7432859 -0.91088986 1.0136256 4294967295
2.7423997 2.2547171 0.98383212 4294967295
2.7330003 2.2476342 0.99999523 4294967295
2.756 0.51448661 0.97845715 4294967295
2.756 0.50809222 0.97206277 4294967295
2.7441428 -0.90389508 0.98740506 4294967295
2.7402 2.2567272 0.95356166 4294967295
2.733 0.51019299 0.96829009 4294967295
2.7460001 0.49987745 0.95132279 4294967295
2.7431428 -0.8990187 0.95813811 4294967295
2.7435553 2.2598417 0.92405194 4294967295
2.7354999 0.49796605 0.91474926 4294967295
2.7418573 -0.90404862 0.92612934 4294967295
2.75 2.2552207 0.90514243 4294967295
2.7465713 2.2387502 0.88948655 4294967295
2.7443333 0.50380993 0.89164615 4294967295
2.7435715 -0.90461159 0.892712 4294967295
2.74475 2.232873 0.86565739 4294967295
2.7363331 -0.89860952 0.86091179 4294967295
2.7385001 -0.90249157 0.877056 4294967295
2.7479999 2.2514627 0.83049154 4294967295
2.7383335 2.2414308 0.84209299 4294967295
2.747 0.51280648 0.84629261 4294967295
2.7427497 -0.90389013 0.83944649 4294967295
2.7469997 2.2511756 0.80645299 4294967295
2.7354999 2.2433431 0.79416531 4294967295
2.747 0.51918 0.81442511 4294967295
2.7379999 -0.91821474 0.7975893 4294967295
2.7520001 2.2547431 0.77559972 4294967295
2.733 2.2434065 0.77594566 4294967295
2.7379999 0.52700794 0.7753551 4294967295
2.75 -0.93819028 0.77647424 4294967295
2.7436249 2.25875 0.74484235 4294967295
2.733 0.54189813 0.74001312 4294967295
2.733 0.53555709 0.7526952 4294967295
2.7434285 2.2543724 0.72174937 4294967295
2.7429233 2.2347066 0.70605314 4294967295
2.744 0.54407918 0.70269936 4294967295
2.744 -0.97752583 0.72816557 4294967295
2.743 2.2558339 0.67081165 4294967295
2.7408829 2.232017 0.68115824 4294967295
2.743 2.2147641 0.69047928 4294967295
2.7434285 0.52305257 0.67993659 4294967295
2.744 0.50587988 0.67086661 4294967295
2.756 0.36421844 0.67152643 4294967295
2.75 0.34238109 0.6724754 4294967295
2.7442219 0.31633124 0.67442513 4294967295
2.744 0.28305072 0.67723316 4294967295
2.7425001 0.25426739 0.67714721 4294967295
2.7349999 0.22501832 0.67671746 4294967295
2.7394001 0.19358099 0.67696959 4294967295
2.7454002 0.16216391 0.6722225 4294967295
2.75 0.044415969 0.67119652 4294967295
2.7487998 0.015666386 0.67113054 4294967295
2.7511997 -0.2842994 0.6712625 4294967295
2.7487998 -0.31597322 0.67113054 4294967295
2.75 -0.95732468 0.67119652 4294967295
2.7384999 -0.96921277 0.68221927 4294967295
2.7438464 2.2619224 0.65567565 4294967295
2.7403336 0.49247786 0.65370899 4294967295
2.756 0.39299321 0.64594883 4294967295
2.743 0.37205672 0.65288138 4294967295
2.7358179 0.35030082 0.65830362 4294967295
2.733 0.15509553 0.66392082 4294967295
2.740231 0.13495576 0.65893239 4294967295
2.7389998 0.10459875 0.65471017 4294967295
2.7412999 0.075433888 0.66055095 4294967295
2.7346668 0.048385695 0.66189492 4294967295
2.7337143 0.012876125 0.66214669 4294967295
2.7391 -0.016156498 0.66107154 4294967295
2.7451253 -0.044847053 0.66138738 4294967295
2.742625 -0.072629988 0.65887028 4294967295
2.7412999 -0.10330001 0.65037471 4294967295
2.7530003 -0.13440798 0.64581174 4294967295
2.756 -0.15052998 0.64594883 4294967295
2.756 -0.19848789 0.64594883 4294967295
2.7424376 -0.2273241 0.65289915 4294967295
2.7394545 -0.25189006 0.65964699 4294967295
2.7365716 -0.28371024 0.66229713 4294967295
2.7349091 -0.3178243 0.65883327 4294967295
2.7441537 -0.34236753 0.65325731 4294967295
2.756 -0.36154485 0.64594883 4294967295
2.7512002 -0.43749753 0.64572948 4294967295
2.7520001 -0.46460289 0.64931852 4294967295
2.756 -0.48303828 0.64594883 4294967295
2.756 -0.6556868 0.64594883 4294967295
2.756 -0.67870659 0.6472277 4294967295
2.7560003 -0.70613146 0.64879084 4294967295
2.756 -0.73369837 0.6472277 4294967295
2.7559998 -0.7579971 0.64594883 4294967295
2.756 -0.89867365 0.64594883 4294967295
2.7467144 -0.9174729 0.6505397 4294967295
2.7429233 -0.94139063 0.65956014 4294967295
2.7419996 2.2567601 0.62737876 4294967295
2.733 0.48482892 0.63855672 4294967295
2.7404706 0.46557316 0.62654865 4294967295
2.7448566 0.43506852 0.61952364 4294967295
2.7417774 0.40298575 0.62446052 4294967295
2.7350998 0.38176355 0.628501 4294967295
2.733 0.068434834 0.61530626 4294967295
2.7351768 0.04471818 0.62184721 4294967295
2.7380004 0.015620081 0.62605309 4294967295
2.7375791 -0.014465239 0.62269795 4294967295
2.735857 -0.043334689 0.61600763 4294967295
2.7339997 -0.073203556 0.61322671 4294967295
2.733 -0.11756861 0.63855672 4294967295
2.7358572 -0.13583192 0.63686895 4294967295
2.7375 -0.16804221 0.63082373 4294967295
2.7421598 -0.19432187 0.62622976 4294967295
2.74036 -0.2259624 0.62614661 4294967295
2.7347498 -0.25352973 0.61906588 4294967295
2.733 -0.28424698 0.61591017 4294967295
2.733 -0.31836778 0.62798834 4294967295
2.736316 -0.34827358 0.62734711 4294967295
2.7469997 -0.37488195 0.6250208 4294967295
2.7519999 -0.40749827 0.62271541 4294967295
2.746727 -0.43535346 0.62784326 4294967295
2.7484999 -0.46418789 0.62965322 4294967295
2.756 -0.48559603 0.63316005 4294967295
2.756 -0.59813732 0.6139769 4294967295
2.7527275 -0.61831874 0.61851072 4294967295
2.7478399 -0.64608765 0.62595248 4294967295
2.75 -0.67531759 0.62780654 4294967295
2.7548003 -0.70398206 0.63566852 4294967295
2.7560003 -0.73561668 0.63742298 4294967295
2.7560003 -0.7579971 0.63635725 4294967295
2.7504287 -0.79565501 0.61972058 4294967295
2.7452855 -0.82420152 0.61953926 4294967295
2.7409997 -0.85562491 0.61664867 4294967295
2.7424209 -0.88485765 0.62759608 4294967295
2.7365 -0.90818167 0.63659489 4294967295
2.7453334 2.254231 0.5937891 4294967295
2.733 2.2476342 0.60051054 4294967295
2.733 0.45312378 0.60685158 4294967295
2.7345624 0.4323644 0.59937054 4294967295
2.7339377 0.40570772 0.59736913 4294967295
2.733 0.3897135 0.60685158 4294967295
2.7348182 0.068668984 0.59767973 4294967295
2.7408094 0.045305192 0.59529841 4294967295
2.7469547 0.017120769 0.59399498 4294967295
2.7513847 -0.014758864 0.59321213 4294967295
2.756 -0.045022536 0.60758251 4294967295
2.7500002 -0.076576099 0.60050768 4294967295
2.7383571 -0.098277636 0.59340441 4294967295
2.7338333 -0.17257741 0.595249 4294967295
2.7454443 -0.19066855 0.5952177 4294967295
2.7539999 -0.22602272 0.60325599 4294967295
2.7477221 -0.25738046 0.59561956 4294967295
2.7403328 -0.28371412 0.59383315 4294967295
2.7340002 -0.30791047 0.5941959 4294967295
2.733 -0.35599118 0.60177875 4294967295
2.7345386 -0.37532705 0.59958124 4294967295
2.7452271 -0.40415284 0.59480476 4294967295
2.756 -0.42548877 0.59479374 4294967295
2.756 -0.47664389 0.58200496 4294967295
2.7480001 -0.49791706 0.5853712 4294967295
2.7438331 -0.52546239 0.59023929 4294967295
2.7431765 -0.55453616 0.59184766 4294967295
2.7494287 -0.58547986 0.5934146 4294967295
2.7491429 -0.61335516 0.59520602 4294967295
2.7525716 -0.64026731 0.59879541 4294967295
2.756 -0.66527838 0.60758251 4294967295
2.756 -0.71963072 0.58200496 4294967295
2.756 -0.73561668 0.58200496 4294967295
2.75 -0.77229106 0.58186996 4294967295
2.7401485 -0.79340792 0.59554476 4294967295
2.733 -0.82269073 0.60558337 4294967295
2.733 -0.84995717 0.60685158 4294967295
2.7395 2.2529798 0.56574172 4294967295
2.7365 -0.021427449 0.57310343 4294967295
2.7501254 -0.044923518 0.5707165 4294967295
2.7445383 -0.073479854 0.56902093 4294967295
2.7354999 -0.092288844 0.57202637 4294967295
2.7383335 -0.20040075 0.57525408 4294967295
2.744 -0.22627312 0.5753684 4294967295
2.7409997 -0.25463691 0.57530791 4294967295
2.7354999 -0.2795144 0.57519692 4294967295
2.733 -0.41242632 0.57514644 4294967295
2.7418571 -0.43693498 0.57260758 4294967295
2.7434287 -0.46353507 0.57445103 4294967295
2.733 -0.48534817 0.57514644 4294967295
2.733 -0.56778145 0.57514644 4294967295
2.7354999 -0.58417368 0.57519692 4294967295
2.7403746 -0.61381859 0.57212043 4294967295
2.7494001 -0.64454311 0.57229549 4294967295
2.7461112 -0.67385143 0.57258892 4294967295
2.7381668 -0.70543396 0.57525069 4294967295
2.7354999 -0.73649758 0.57519692 4294967295
2.7384 -0.76584822 0.57525539 4294967295
2.7391999 2.2527328 0.53713351 4294967295
2.7409999 2.2605641 0.50535679 4294967295
2.7414 2.2615261 0.47353819 4294967295
2.75 2.2539473 0.44659287 4294967295
2.7379999 2.2453933 0.43866587 4294967295
2.7441428 2.2549613 0.41530538 4294967295
2.7354999 2.2465138 0.42604935 4294967295
2.7410002 2.261976 0.38310236 4294967295
2.7479999 2.2535851 0.35866165 4294967295
2.7406666 2.2412035 0.34849751 4294967295
2.7409999 2.2308853 0.32587045 4294967295
2.740833 2.2333982 0.29390919 4294967295
2.7422223 2.2325897 0.26499918 4294967295
2.74775 2.2326596 0.2367653 4294967295
2.7455001 2.2547133 0.20276767 4294967295
2.747 2.2432036 0.21851248 4294967295
2.7417142 2.260247 0.17456385 4294967295
2.75 2.2552345 0.1575757 4294967295
2.7401428 2.2380552 0.14206237 4294967295
2.7449999 2.2344067 0.11444581 4294967295
2.745625 2.2396934 0.08409059 4294967295
2.7441251 2.2400637 0.055688113 4294967295
2.7414999 2.2291682 0.026695043 4294967295
2.7354999 2.2179561 0.013505638 4294967295
2.756 2.2249858 -0.0030817389 4294967295
2.7371998 2.21171 -0.0077719688 4294967295
2.756 2.2217886 -0.03505373 4294967295
2.7389998 2.2152295 -0.035604656 4294967295
2.7422001 2.2246351 -0.071072042 4294967295
2.7399998 2.2194822 -0.062556565 4294967295
2.737 2.2525027 -0.10584092 4294967295
2.7428234 2.235852 -0.093606114 4294967295
2.7442307 2.258812 -0.12402058 4294967295
2.7462728 2.2585397 -0.15444118 4294967295
2.733 2.2476342 -0.16675365 4294967295
2.756 2.2537606 -0.17892754 4294967295
2.7409997 2.2405732 -0.1887545 4294967295
2.7418571 2.2403643 -0.21258712 4294967295
2.7450001 2.2558944 -0.24378973 4294967295
2.733 2.2476342 -0.23016393 4294967295
2.7451999 2.2563941 -0.27171463 4294967295
2.7354999 2.2465138 -0.28480107 4294967295
2.756 2.2537606 -0.29402655 4294967295
2.7399166 2.2310607 -0.3072809 4294967295
2.7379999 2.2199829 -0.31412047 4294967295
2.7431741 2.2349377 -0.33617413 4294967295
2.7409999 2.2192321 -0.32139397 4294967295
2.7442501 2.2536802 -0.36536652 4294967295
2.7491667 2.243885 -0.35259634 4294967295
2.7749999 -0.89843065 2.0632861 4294967295
2.7749999 -0.88921732 2.0338297 4294967295
2.7741668 -0.87884241 2.0027289 4294967295
2.7783751 -0.88340342 1.9748999 4294967295
2.7763636 -0.89301169 1.9469059 4294967295
2.7850001 0.75252062 1.90407 4294967295
2.7738335 -0.8819387 1.9140494 4294967295
2.7820001 0.75171 1.883215 4294967295
2.7771666 -0.88302135 1.8840591 4294967295
2.7767999 0.7554552 1.851667 4294967295
2.7756 -0.89475626 1.860113 4294967295
2.7850001 -0.90166831 1.8491458 4294967295
2.7850001 0.7589823 1.8362224 4294967295
2.7756 -0.90506482 1.8253158 4294967295
2.7666667 0.76040518 1.7922298 4294967295
2.7732 -0.91071647 1.7984555 4294967295
2.773 0.78144729 1.753345 4294967295
2.7767999 0.77091569 1.763399 4294967295
2.7769997 -0.90658903 1.7658541 4294967295
2.7620003 1.6691028 1.7228193 4294967295
2.773 1.5052536 1.7211759 4294967295
2.7724998 1.4856697 1.7269193 4294967295
2.7728572 1.4555385 1.7270738 4294967295
2.76825 1.4264034 1.7239277 4294967295
2.773 1.2639848 1.7211759 4294967295
2.773 1.2511171 1.7211759 4294967295
2.7767332 0.7893573 1.7343876 4294967295
2.7775004 -0.89682049 1.733601 4294967295
2.7620001 -0.90063018 1.7324318 4294967295
2.7756002 2.2324314 1.6939608 4294967295
2.774143 2.2078884 1.7060404 4294967295
2.7747505 2.1741118 1.7146816 4294967295
2.7721057 2.1437011 1.706883 4294967295
2.7647502 2.1197929 1.6967497 4294967295
2.7715628 2.0835884 1.6948187 4294967295
2.7706673 2.0579076 1.6973008 4294967295
2.7790003 1.9501817 1.6915361 4294967295
2.7756004 1.9323369 1.6913844 4294967295
2.7662504 1.9139497 1.6909673 4294967295
2.7620003 1.8357189 1.6907778 4294967295
2.7745714 1.8155428 1.6947165 4294967295
2.7725008 1.7838683 1.6952114 4294967295
2.7757058 1.7527508 1.6969517 4294967295
2.7759092 1.7240409 1.7030977 4294967295
2.7704284 1.6950082 1.7090328 4294967295
2.7642007 1.6665857 1.7066765 4294967295
2.7620003 1.6485962 1.7074394 4294967295
2.768091 1.506373 1.7062082 4294967295
2.7801902 1.4880996 1.7052478 4294967295
2.7850001 1.4581356 1.7134507 4294967295
2.7820003 1.4219282 1.7153889 4294967295
2.7750001 1.3968736 1.7109846 4294967295
2.7765713 1.3672981 1.7070638 4294967295
2.7764447 1.3385479 1.7140722 4294967295
2.7814002 1.3065252 1.7183611 4294967295
2.7758002 1.2768601 1.7185117 4294967295
2.7753334 1.2371422 1.7178835 4294967295
2.7763999 1.2148473 1.7071656 4294967295
2.7721336 1.1838183 1.6954873 4294967295
2.7737858 1.1539956 1.6957564 4294967295
2.7749093 1.1267061 1.6956477 4294967295
2.7717144 1.0971088 1.6930494 4294967295
2.7770002 1.07251 1.6971362 4294967295
2.7663999 1.0363179 1.6990614 4294967295
2.773 1.0066314 1.7018744 4294967295
2.779 0.97655964 1.7044317 4294967295
2.774143 0.94176608 1.7041925 4294967295
2.7739 0.91299337 1.7003143 4294967295
2.7676668 0.89339459 1.6910306 4294967295
2.7620001 0.81038904 1.6907778 4294967295
2.776 0.7993291 1.7054161 4294967295
2.7803335 -0.89728713 1.7064297 4294967295
2.7642 -0.90134752 1.7045269 4294967295
2.7781432 2.258971 1.6718354 4294967295
2.7713337 2.2427242 1.6840103 4294967295
2.7850003 2.135319 1.6876038 4294967295
2.7795002 2.1128242 1.6858273 4294967295
2.7810004 2.0935283 1.6880715 4294967295
2.7790003 2.0501218 1.6861559 4294967295
2.774364 2.0235686 1.6796154 4294967295
2.7732503 1.9919633 1.6778454 4294967295
2.7712505 1.9640061 1.6834445 4294967295
2.7806363 1.9020598 1.6810713 4294967295
2.7765203 1.8767951 1.6737131 4294967295
2.7768466 1.8478022 1.6792113 4294967295
2.7850003 1.8251588 1.6876038 4294967295
2.7820001 1.7174995 1.6790819 4294967295
2.7701542 1.6952988 1.6749378 4294967295
2.7620003 1.6755111 1.6843694 4294967295
2.7807143 1.5725769 1.6627594 4294967295
2.773818 1.54283 1.6659389 4294967295
2.7724211 1.5125476 1.6670702 4294967295
2.7770345 1.4870924 1.674472 4294967295
2.7850001 1.4697666 1.684373 4294967295
2.78425 1.2069365 1.676791 4294967295
2.7823911 1.1854597 1.6744376 4294967295
2.7850001 1.1612216 1.6859884 4294967295
2.7850001 0.9011392 1.6876038 4294967295
2.7816188 0.88498497 1.6744912 4294967295
2.7769229 0.85837102 1.6787521 4294967295
2.778579 0.82406324 1.6784372 4294967295
2.7850001 0.6491338 1.6617571 4294967295
2.779 0.61869955 1.6689758 4294967295
2.7820001 0.5451591 1.6702127 4294967295
2.7850001 0.5392853 1.6617571 4294967295
2.7724285 -0.91045952 1.6758969 4294967295
2.7728002 2.2642725 1.6470969 4294967295
2.7850003 1.8736213 1.6552955 4294967295
2.7791672 1.6934477 1.6529063 4294967295
2.7733753 1.6671073 1.6433026 4294967295
2.769556 1.6372426 1.6404229 4294967295
2.7733006 1.6051408 1.649876 4294967295
2.7676668 1.5804907 1.6589233 4294967295
2.7850001 1.5117675 1.6552955 4294967295
2.7850001 1.4923825 1.6552955 4294967295
2.7850001 1.1854528 1.6552955 4294967295
