# .PCD v0.7 - Point Cloud Data file format
VERSION 0.7
FIELDS x y z rgb
SIZE 4 4 4 4
TYPE F F F U
COUNT 1 1 1 1
WIDTH 1150
HEIGHT 1
VIEWPOINT 0 0 0 1 0 0 0
POINTS 1150
DATA ascii
2.8055713 -0.92040628 1.5855565 4294967295
2.8030005 2.2531641 1.5585811 4294967295
2.8117499 2.2373636 1.554216 4294967295
2.8131251 2.2054248 1.5500966 4294967295
2.8127503 2.1761684 1.5450617 4294967295
2.8085387 -0.92180949 1.5526035 4294967295
2.8007147 2.2333717 1.524932 4294967295
2.8058236 2.2056618 1.5244006 4294967295
2.8070002 2.1736135 1.5231575 4294967295
2.8135004 2.1547213 1.5233035 4294967295
2.8149998 -0.89614141 1.5173055 4294967295
2.8047142 -0.91268122 1.5262077 4294967295
2.7982862 2.2238679 1.4951481 4294967295
2.8092499 2.206048 1.4967939 4294967295
2.8110003 2.1784406 1.5050153 4294967295
2.811667 -0.8943519 1.4951024 4294967295
2.7969999 -0.90338248 1.4965056 4294967295
2.8045003 2.2257309 1.4634666 4294967295
2.8140004 2.2174008 1.466892 4294967295
2.8012855 0.54614913 1.4660254 4294967295
2.8120003 0.53635639 1.4558944 4294967295
2.8053334 -0.89014918 1.4636126 4294967295
2.7909999 -0.90361077 1.4764247 4294967295
2.8055005 2.2315581 1.4339244 4294967295
2.8078001 0.5267579 1.4339755 4294967295
2.8068182 -0.88207769 1.4356604 4294967295
2.8090003 2.253653 1.3935223 4294967295
2.8069131 2.2407219 1.4068325 4294967295
2.8150001 0.69857961 1.3964767 4294967295
2.8110001 0.51931345 1.4071774 4294967295
2.803 -0.89076483 1.4108531 4294967295
2.809 -0.90726143 1.3956902 4294967295
2.8067503 2.2679784 1.3751802 4294967295
2.803 0.7086224 1.3829854 4294967295
2.8054001 0.5197897 1.3759201 4294967295
2.8047144 -0.91827464 1.3779228 4294967295
2.8064287 2.2666092 1.346366 4294967295
2.812429 2.2355797 1.3364828 4294967295
2.803 0.77689463 1.3504682 4294967295
2.8065999 -0.9125635 1.3450201 4294967295
2.7946002 2.2321429 1.3259317 4294967295
2.8051434 2.2097785 1.3143713 4294967295
2.806 -0.8878451 1.3112082 4294967295
2.8050003 2.1956458 1.2881465 4294967295
2.806 2.1872051 1.2754022 4294967295
2.8067501 -0.88917005 1.286442 4294967295
2.803 -0.90099245 1.2724268 4294967295
2.8040435 2.2030694 1.2483692 4294967295
2.8090003 2.1851079 1.2615888 4294967295
2.8059998 -0.91124743 1.2550846 4294967295
2.8045003 2.2286623 1.224014 4294967295
2.8135004 2.2142844 1.2319983 4294967295
2.804846 -0.92009145 1.2248564 4294967295
2.8060005 2.2392957 1.1938827 4294967295
2.8079093 -0.92091852 1.1937866 4294967295
2.8050001 2.2621992 1.1595259 4294967295
2.8090005 2.2469001 1.1697402 4294967295
2.8055718 -0.92133135 1.165709 4294967295
2.7976003 2.2832286 1.1327226 4294967295
2.8102002 2.2691181 1.1356084 4294967295
2.8150003 2.2497585 1.1286943 4294967295
2.8036668 -0.91058666 1.1367159 4294967295
2.7940001 2.2815909 1.1144295 4294967295
2.8050771 2.2638314 1.1062763 4294967295
2.8150003 2.2497585 1.1058347 4294967295
2.8082502 -0.89208061 1.1052361 4294967295
2.8010912 2.2584131 1.0754622 4294967295
2.8150005 2.2478924 1.0703793 4294967295
2.8063335 -0.88976103 1.0758047 4294967295
2.7970002 2.2807994 1.030704 4294967295
2.8061998 2.2657092 1.0447478 4294967295
2.8150005 2.2475812 1.0459647 4294967295
2.8150001 0.52550066 1.0339906 4294967295
2.803 -0.89772683 1.0545478 4294967295
2.8041999 -0.903974 1.0411291 4294967295
2.7986367 2.282711 1.0156565 4294967295
2.8122501 2.2690287 1.0144588 4294967295
2.809 0.51459759 1.0133395 4294967295
2.806 -0.90954649 1.011737 4294967295
2.7940001 2.2815909 0.99774349 4294967295
2.8069005 2.2696385 0.98562145 4294967295
2.803 0.51025361 0.99928242 4294967295
2.8045001 0.50401974 0.98329425 4294967295
2.8 -0.90976244 0.98414713 4294967295
2.8071737 2.2621675 0.95553398 4294967295
2.8150001 2.2497585 0.9425528 4294967295
2.8149998 0.49937555 0.95561534 4294967295
2.8072 -0.91210455 0.95440137 4294967295
2.8033335 2.258122 0.9263432 4294967295
2.8150003 2.2475812 0.92622459 4294967295
2.8014998 0.50348061 0.92425382 4294967295
2.8083334 -0.91138583 0.9241786 4294967295
2.8074999 2.2600327 0.89582705 4294967295
2.8149998 2.2497585 0.90336508 4294967295
2.809 0.51134586 0.88625455 4294967295
2.8009999 0.50771242 0.90147239 4294967295
2.8113999 -0.8984676 0.89114356 4294967295
2.8022499 -0.90480387 0.90081751 4294967295
2.8058236 2.2584894 0.86650419 4294967295
2.813 2.2481601 0.85741085 4294967295
2.8030002 0.51675707 0.85619748 4294967295
2.8009999 -0.8981725 0.87330008 4294967295
2.8 -0.90326595 0.85910559 4294967295
2.7909999 2.2500043 0.84829181 4294967295
2.805625 2.2393947 0.83495283 4294967295
2.8069999 0.52183014 0.83281738 4294967295
2.8078003 -0.91946101 0.83203602 4294967295
2.8064284 2.234205 0.80297709 4294967295
2.8060002 0.52706873 0.80449736 4294967295
2.8054001 -0.93950057 0.80443645 4294967295
2.8034999 2.2551854 0.77224892 4294967295
2.811667 2.2449048 0.77895594 4294967295
2.812 0.53472358 0.77900136 4294967295
2.803 -0.95626473 0.78142416 4294967295
2.8068998 2.2595491 0.745965 4294967295
2.8150001 2.2497585 0.75967693 4294967295
2.809 0.55044538 0.7461406 4294967295
2.8063333 2.2590938 0.71408105 4294967295
2.8134999 0.55785966 0.71386158 4294967295
2.8105001 -0.94578701 0.70223904 4294967295
2.809 -0.97678459 0.71355152 4294967295
2.8065996 2.266037 0.68515772 4294967295
2.8045001 0.54792839 0.69208789 4294967295
2.8035455 0.52275968 0.68302143 4294967295
2.8063333 0.49637738 0.67719346 4294967295
2.8108001 0.46602839 0.67780358 4294967295
2.8036664 0.43375888 0.67993879 4294967295
2.8029997 0.40401924 0.68712664 4294967295
2.8066001 0.37415856 0.69059765 4294967295
2.8090003 0.34515318 0.6907407 4294967295
2.8072002 0.31562689 0.69063342 4294967295
2.8043337 0.28420675 0.69082534 4294967295
2.8021429 0.25560606 0.69079244 4294967295
2.8030002 0.22409958 0.69038165 4294967295
2.8055713 0.19361706 0.68448949 4294967295
2.8036001 0.1655999 0.67740494 4294967295
2.8096666 0.13481897 0.67737985 4294967295
2.8102002 0.10209595 0.6758126 4294967295
2.8054001 0.074598216 0.67750531 4294967295
2.8038573 0.043881025 0.68346018 4294967295
2.8041999 0.016004739 0.68718892 4294967295
2.7993999 -0.016495289 0.6869027 4294967295
2.803 -0.047189895 0.68991649 4294967295
2.8063333 -0.074414723 0.68877369 4294967295
2.806 -0.10443642 0.68404973 4294967295
2.8084002 -0.13384551 0.68418896 4294967295
2.8030002 -0.1675507 0.67773277 4294967295
2.80825 -0.19573794 0.67766476 4294967295
2.8066001 -0.22491504 0.6775713 4294967295
2.8044996 -0.25647673 0.68152326 4294967295
2.801667 -0.28446704 0.68415982 4294967295
2.8037503 -0.31333566 0.6831044 4294967295
2.8047144 -0.34655705 0.67793292 4294967295
2.8079998 -0.37271139 0.67547393 4294967295
2.8090003 -0.40614888 0.67734319 4294967295
2.8043337 -0.4343836 0.67780918 4294967295
2.806 -0.46360153 0.67970657 4294967295
2.8030002 -0.49884462 0.67845535 4294967295
2.8010001 -0.5248583 0.67762125 4294967295
2.7990003 -0.55406797 0.67678714 4294967295
2.8022499 -0.58378708 0.67814261 4294967295
2.803 -0.61483771 0.67737263 4294967295
2.8069999 -0.64067852 0.67650747 4294967295
2.8077998 -0.67451966 0.6743744 4294967295
2.8015001 -0.7055012 0.67647552 4294967295
2.8023334 -0.73316491 0.67769611 4294967295
2.809 -0.7660566 0.68095773 4294967295
2.8041999 -0.79727304 0.68068266 4294967295
2.809 -0.82797146 0.68095773 4294967295
2.8039999 -0.8568505 0.68175977 4294967295
2.8043337 -0.88406157 0.68503833 4294967295
2.8066001 -0.91647667 0.69254869 4294967295
2.7909999 -0.94893998 0.6993531 4294967295
2.8055713 2.2707186 0.65409964 4294967295
2.7936666 0.48982722 0.66207898 4294967295
2.7946002 0.46787813 0.66198283 4294967295
2.7909997 0.44763026 0.66481662 4294967295
2.7909997 0.13248459 0.66697514 4294967295
2.7958 0.10677108 0.66722786 4294967295
2.7909997 0.080679826 0.66697514 4294967295
2.7909999 -0.2010086 0.66697514 4294967295
2.7909999 -0.2139598 0.66697514 4294967295
2.7909997 -0.37908754 0.66697514 4294967295
2.7909999 -0.40175205 0.66697514 4294967295
2.8058419 2.2616045 0.62664723 4294967295
2.8132858 2.2418592 0.6196624 4294967295
2.7909999 2.2500043 0.60869473 4294967295
2.8004999 2.2316515 0.60629499 4294967295
2.8050003 2.2135422 0.59178787 4294967295
2.8054001 2.2303495 0.55447477 4294967295
2.803 2.2157629 0.57086843 4294967295
2.8083334 2.257453 0.53322673 4294967295
2.806 2.2490551 0.54406744 4294967295
2.8074999 2.2677691 0.50417805 4294967295
2.8037827 2.2628269 0.47617134 4294967295
2.8150003 2.2432272 0.46950144 4294967295
2.7969999 2.2548227 0.45854726 4294967295
2.805222 2.2329996 0.44668254 4294967295
2.8138001 2.2161541 0.4370687 4294967295
2.7958 2.2244539 0.41597864 4294967295
2.8093994 2.207021 0.411998 4294967295
2.7909999 2.2500043 0.37557331 4294967295
2.7982004 2.2317765 0.38330775 4294967295
2.8103037 2.2060201 0.38534215 4294967295
2.8025553 2.2624285 0.35329667 4294967295
2.8102496 2.2348163 0.35473669 4294967295
2.8133638 2.2128422 0.36135855 4294967295
2.8002727 2.2627664 0.3287313 4294967295
2.809571 2.2379506 0.32371944 4294967295
2.8084002 2.2281806 0.3043049 4294967295
2.8063333 2.2153206 0.28941357 4294967295
2.8051426 2.2037425 0.26512557 4294967295
2.8030002 2.2056293 0.23388311 4294967295
2.8045001 2.2132866 0.20610565 4294967295
2.8043334 2.226028 0.16812727 4294967295
2.8041999 2.2176838 0.18231609 4294967295
2.8040001 2.2577517 0.13960591 4294967295
2.8104999 2.2385459 0.15013313 4294967295
2.80828 2.2652166 0.1137886 4294967295
2.8150001 2.2497585 0.1032832 4294967295
2.8045001 2.2605412 0.084997565 4294967295
2.8141429 2.2462742 0.082425654 4294967295
2.8055711 2.2595634 0.054308057 4294967295
2.8135002 2.2461104 0.056990743 4294967295
2.812 2.2832413 0.015649021 4294967295
2.8058 2.2718861 0.028924882 4294967295
2.812429 2.2831233 0.00065547228 4294967295
2.8009999 2.2764575 -0.0083917975 4294967295
2.8067501 2.2626946 -0.02980727 4294967295
2.8044999 2.2429769 -0.043188751 4294967295
2.8052502 2.2313685 -0.064085066 4294967295
2.8009999 2.2515533 -0.10585523 4294967295
2.8078752 2.2399762 -0.093956232 4294967295
2.8046665 2.2577517 -0.12474966 4294967295
2.8150001 2.2484522 -0.12727094 4294967295
2.8030002 2.2509885 -0.14315021 4294967295
2.8065453 2.2412004 -0.15562767 4294967295
2.7909999 2.2500043 -0.19427913 4294967295
2.8027692 2.2329543 -0.1850239 4294967295
2.8112502 2.2157762 -0.1913045 4294967295
2.7974284 2.2593517 -0.21632886 4294967295
2.803818 2.236079 -0.21323717 4294967295
2.8113077 2.2136874 -0.21452713 4294967295
2.8071737 2.2647212 -0.24485809 4294967295
2.8115714 2.2349012 -0.23915428 4294967295
2.813 2.2144361 -0.23689687 4294967295
2.8150001 2.2824149 -0.27879667 4294967295
2.8036668 2.2761068 -0.27267945 4294967295
2.8068573 2.2660329 -0.30485427 4294967295
2.8058002 2.2567134 -0.334768 4294967295
2.8149998 2.2497585 -0.33757818 4294967295
2.8021429 2.2571094 -0.35918963 4294967295
2.8061302 2.2375562 -0.37024128 4294967295
2.8120003 2.2114701 -0.37581021 4294967295
2.793 2.2256911 -0.38271785 4294967295
2.8069999 2.2031815 -0.38759881 4294967295
2.8150001 2.1844456 -0.39635974 4294967295
2.8269999 0.75731009 2.0889208 4294967295
2.8331108 -0.88509578 2.0948641 4294967295
2.8306 0.7582745 2.0679243 4294967295
2.8322501 -0.89231694 2.0688334 4294967295
2.846 -0.90160793 2.0565448 4294967295
2.8329999 0.75891739 2.0363798 4294967295
2.831111 -0.91002363 2.0375524 4294967295
2.8329999 0.75891739 2.0068011 4294967295
2.8331251 -0.92299187 2.0052307 4294967295
2.8225 0.75610465 1.9751011 4294967295
2.8342502 -0.92307687 1.9745625 4294967295
2.8368001 0.75466251 1.9475634 4294967295
2.833154 -0.92128485 1.9449168 4294967295
2.8329999 0.75234437 1.9147785 4294967295
2.8324444 -0.91555399 1.915583 4294967295
2.8354001 0.75298172 1.886348 4294967295
2.8295712 -0.91139764 1.887278 4294967295
2.8324444 0.75510734 1.8535227 4294967295
2.8379998 -0.8964355 1.8507335 4294967295
2.8246 -0.90400016 1.8588704 4294967295
2.8364999 0.75655341 1.8243544 4294967295
2.8353751 -0.89576983 1.8271267 4294967295
2.8210001 -0.90023321 1.8139652 4294967295
2.836375 0.75734532 1.7946887 4294967295
2.839 -0.89939034 1.8090477 4294967295
2.8328459 -0.90349209 1.7936006 4294967295
2.8288002 0.76237804 1.7630563 4294967295
2.8382857 -0.8953954 1.7616825 4294967295
2.8255 -0.90330547 1.7668637 4294967295
2.8210001 0.7818836 1.7223324 4294967295
2.83095 0.76787466 1.7347713 4294967295
2.8337696 -0.89114165 1.7343428 4294967295
2.8210001 -0.90023321 1.7452407 4294967295
2.8294001 1.6559955 1.6930807 4294967295
2.8313336 1.635813 1.6982534 4294967295
2.8300004 1.6067741 1.7031738 4294967295
2.8274617 1.5749276 1.6988348 4294967295
2.8234 1.547677 1.6945286 4294967295
2.8210001 0.7818836 1.7059693 4294967295
2.8363531 0.77141511 1.7056392 4294967295
2.8382001 0.52323765 1.6980522 4294967295
2.8353333 -0.88944465 1.707229 4294967295
2.8314288 1.7467092 1.6629469 4294967295
2.8318949 1.7251581 1.6730107 4294967295
2.8335719 1.6977825 1.6825974 4294967295
2.8363128 1.6654458 1.6835897 4294967295
2.8378673 1.6368208 1.6742073 4294967295
2.8330002 1.6062925 1.6743145 4294967295
2.8330002 1.5739747 1.6748625 4294967295
2.8302 1.5461587 1.6759028 4294967295
2.8209996 1.5224983 1.6750054 4294967295
2.8329999 1.0809965 1.6617163 4294967295
2.8298185 1.0618562 1.6628101 4294967295
2.8294704 1.0333076 1.6703172 4294967295
2.8254998 1.006026 1.6693368 4294967295
2.8210001 0.97987598 1.665062 4294967295
2.8237269 0.94165742 1.666311 4294967295
2.8288949 0.91603112 1.6693774 4294967295
2.8254995 0.88638484 1.6697451 4294967295
2.8210003 0.86136115 1.6681007 4294967295
2.8287499 0.79003084 1.6736645 4294967295
2.8441429 0.77509588 1.6737362 4294967295
2.8393333 0.67278242 1.6774341 4294967295
2.8329999 0.65374869 1.6880085 4294967295
2.8210001 0.62479877 1.6896064 4294967295
2.8308749 0.52107096 1.6739695 4294967295
2.8330002 -0.89466852 1.6757956 4294967295
2.8334999 -0.90092057 1.6618888 4294967295
2.8262503 2.2530034 1.6385024 4294967295
2.8267 2.2351677 1.6467021 4294967295
2.8231816 2.2080655 1.639295 4294967295
2.8210003 2.1858292 1.6306995 4294967295
2.8332002 1.9842527 1.632865 4294967295
2.8302941 1.9645213 1.6405214 4294967295
2.8306925 1.934914 1.6370277 4294967295
2.8261433 1.908329 1.6345885 4294967295
2.8210003 1.8880228 1.6306995 4294967295
2.8302944 1.7810453 1.6397529 4294967295
2.8330004 1.7616639 1.6536719 4294967295
2.8416255 1.6290369 1.6528254 4294967295
2.8381116 1.6020564 1.6454763 4294967295
2.8333158 1.5731132 1.6452343 4294967295
2.8332729 1.5418528 1.6441854 4294967295
2.8315656 1.515473 1.6445413 4294967295
2.8307779 1.4855195 1.6425511 4294967295
2.8296666 1.4557623 1.637742 4294967295
2.8258748 1.4257746 1.6395723 4294967295
2.8258748 1.3958566 1.6412122 4294967295
2.8227997 1.3672405 1.6366442 4294967295
2.8210001 1.3349532 1.6306995 4294967295
2.8210001 1.3054998 1.6306995 4294967295
2.8210001 1.2825916 1.6306995 4294967295
2.8210001 1.2433202 1.6306995 4294967295
2.8251998 1.2123863 1.6343124 4294967295
2.8306665 1.1847444 1.6371169 4294967295
2.8313532 1.1549376 1.6448058 4294967295
2.8330908 1.1258453 1.6521789 4294967295
2.8352382 1.0946796 1.6513158 4294967295
2.8425004 1.0653822 1.6452011 4294967295
2.8411005 1.034646 1.6452045 4294967295
2.8386669 1.0049535 1.6442299 4294967295
2.8335767 0.97501379 1.6459922 4294967295
2.835222 0.9456405 1.6445661 4294967295
2.8375003 0.91615468 1.6450939 4294967295
2.8269999 0.88464165 1.6438708 4294967295
2.8209996 0.85949105 1.6475302 4294967295
2.8210001 0.81722766 1.649026 4294967295
2.8256664 0.7940895 1.6467475 4294967295
2.8359334 0.76626676 1.6418464 4294967295
2.846 0.74919349 1.6405426 4294967295
2.8310001 0.55475956 1.6455733 4294967295
2.8289998 0.53685963 1.6579088 4294967295
2.8344002 -0.90581673 1.6451695 4294967295
2.8255002 2.2532239 1.6193652 4294967295
2.8294547 2.2362351 1.6143413 4294967295
2.8306003 2.2090318 1.6131344 4294967295
2.8225999 2.1789927 1.6116772 4294967295
2.8210003 2.0745606 1.6045188 4294967295
2.82775 2.0549061 1.6062851 4294967295
2.8334446 2.0226989 1.6103922 4294967295
2.8322864 1.9960085 1.6248132 4294967295
2.8460002 1.9245641 1.6273363 4294967295
2.8386252 1.9022813 1.6244537 4294967295
2.8318672 1.8760197 1.6139305 4294967295
2.8234003 1.8529453 1.6067476 4294967295
2.8298182 1.8043737 1.6067021 4294967295
2.8331003 1.7948784 1.6216482 4294967295
2.8436668 1.5952976 1.6242273 4294967295
2.8400629 1.5729589 1.6204858 4294967295
2.8393004 1.550458 1.6227456 4294967295
2.846 1.4458317 1.6273363 4294967295
2.8364284 1.4226346 1.6264291 4294967295
2.8388464 1.3953234 1.625049 4294967295
2.8393161 1.3642482 1.6216024 4294967295
2.839267 1.3350292 1.6233897 4294967295
2.8370836 1.3052609 1.6249577 4294967295
2.8343332 1.273674 1.6257137 4294967295
2.835 1.2447348 1.6267065 4294967295
2.837889 1.216005 1.6271017 4294967295
2.8447275 1.0638713 1.6220386 4294967295
2.843667 1.0381465 1.6212962 4294967295
2.8460002 1.0076617 1.6254497 4294967295
2.846 0.96049607 1.6273363 4294967295
2.8444448 0.93870854 1.6186658 4294967295
2.8372357 0.91417438 1.6150185 4294967295
2.8241761 0.88491499 1.6146049 4294967295
2.8210001 0.75570279 1.6241543 4294967295
2.833889 -0.91090846 1.6160522 4294967295
2.8209999 2.2342291 1.5845386 4294967295
2.8224118 2.2056024 1.5827242 4294967295
2.8215451 2.1740508 1.5824109 4294967295
2.8248572 2.1443257 1.5783703 4294967295
2.8325005 2.1147649 1.5815399 4294967295
2.8316667 2.0847304 1.5917066 4294967295
2.8404713 2.0541723 1.5891185 4294967295
2.8409452 2.0288036 1.5869128 4294967295
2.8401432 1.8678886 1.5921049 4294967295
2.8334122 1.8429573 1.5864543 4294967295
2.8323183 1.81821 1.5909289 4294967295
2.846 0.93573403 1.5877169 4294967295
2.839118 0.91594297 1.5874546 4294967295
2.8288002 0.88972533 1.5904346 4294967295
2.8320835 -0.91361219 1.5835772 4294967295
2.8210003 2.2054648 1.5652475 4294967295
2.8209999 2.1734941 1.559206 4294967295
2.8318672 2.1458194 1.5572228 4294967295
2.8460002 2.1292632 1.5679073 4294967295
2.846 0.96709931 1.5679073 4294967295
2.8392498 -0.89452118 1.5456553 4294967295
2.8289001 -0.91061538 1.5583286 4294967295
2.8330002 2.1655486 1.5105364 4294967295
2.83196 2.1484313 1.5259302 4294967295
2.83125 -0.88459754 1.523059 4294967295
2.8210001 -0.90241492 1.5368849 4294967295
2.8279998 2.2010689 1.48607 4294967295
2.8316252 2.1776187 1.50019 4294967295
2.8299999 0.54580808 1.4908894 4294967295
2.8425 0.5339278 1.4841762 4294967295
2.84075 -0.86698967 1.4967747 4294967295
2.8249998 -0.87928545 1.4931712 4294967295
2.8320804 2.2084515 1.466055 4294967295
2.8345001 0.52977937 1.4650123 4294967295
2.8404 -0.86688274 1.4669858 4294967295
2.8275454 -0.87428266 1.4656856 4294967295
2.8210003 2.2229187 1.4321618 4294967295
2.8329668 2.2066765 1.4340491 4294967295
2.846 0.70297104 1.4292401 4294967295
2.8336668 0.51636732 1.4351518 4294967295
2.846 -0.8685919 1.4490497 4294967295
2.8276668 -0.87465268 1.4350405 4294967295
2.821857 2.2295177 1.4014138 4294967295
2.831286 2.2078602 1.4038906 4294967295
2.8410003 2.188611 1.4031606 4294967295
2.8329999 0.72605217 1.3922217 4294967295
2.8295712 0.70548809 1.4089794 4294967295
2.8323336 0.51266587 1.4036956 4294967295
2.846 0.50487489 1.4094305 4294967295
2.8282001 -0.89071602 1.4117386 4294967295
2.8299999 -0.90638828 1.3978536 4294967295
2.8261428 2.2617702 1.3726201 4294967295
2.8276665 2.2365487 1.3778133 4294967295
2.8335004 2.2061231 1.3741639 4294967295
2.8407505 2.187948 1.3781261 4294967295
2.8329999 0.77863652 1.3659295 4294967295
2.8365998 0.51241797 1.3814819 4294967295
2.8317502 -0.9192602 1.3745774 4294967295
2.8235717 2.2594042 1.3556279 4294967295
2.8256154 2.2330225 1.3501166 4294967295
2.8351254 2.2110059 1.3465536 4294967295
2.8329999 0.79835564 1.3527834 4294967295
2.846 -0.89500469 1.3367952 4294967295
2.8323333 -0.90712249 1.3460159 4294967295
2.8334289 2.2037299 1.3156515 4294967295
2.8425002 2.1892939 1.3028152 4294967295
2.8322856 -0.88692129 1.3168786 4294967295
2.8270004 2.1937437 1.2952602 4294967295
2.8322668 2.1811776 1.2842299 4294967295
2.8336365 -0.88811857 1.284232 4294967295
2.8210001 -0.90023321 1.2707136 4294967295
2.8330002 2.1918406 1.2410417 4294967295
2.831706 2.1830902 1.2553915 4294967295
2.8385003 -0.89593685 1.2556057 4294967295
2.8270001 -0.90460402 1.2526224 4294967295
2.8210003 2.2251005 1.2150793 4294967295
2.8310001 2.2051761 1.2251096 4294967295
2.8300002 2.1894989 1.2369846 4294967295
2.839 -0.89939034 1.2359817 4294967295
2.8315332 -0.9097079 1.2266468 4294967295
2.8275716 2.229799 1.1934171 4294967295
2.838824 2.2133856 1.1983528 4294967295
2.8336 -0.91410947 1.1951718 4294967295
2.8311563 2.2345135 1.1642023 4294967295
2.8420005 2.2157555 1.1689172 4294967295
2.8319001 -0.91158253 1.1625686 4294967295
2.8210003 2.2545538 1.1430821 4294967295
2.8303547 2.23806 1.135083 4294967295
2.8329999 -0.89529395 1.1249179 4294967295
2.8291667 -0.90392286 1.1383215 4294967295
2.8307827 2.2409258 1.1048303 4294967295
2.839 0.52998096 1.094362 4294967295
2.8344002 -0.8854236 1.1059213 4294967295
2.8308754 2.2397001 1.0746492 4294967295
2.8352501 0.53256565 1.0738711 4294967295
2.8317778 -0.8883298 1.075018 4294967295
2.8331938 2.2345748 1.0447329 4294967295
2.8314285 0.52761227 1.0472999 4294967295
2.8393333 -0.89729488 1.0560012 4294967295
2.8331668 -0.90410614 1.0405877 4294967295
2.8242726 2.2547767 1.0106589 4294967295
2.8337505 2.2430212 1.0186625 4294967295
2.8310001 0.51533681 1.0237614 4294967295
2.8333333 0.50700057 1.0066601 4294967295
2.8300998 -0.9057495 1.0137533 4294967295
2.8259411 2.2546332 0.98584682 4294967295
2.8396926 2.2441461 0.9842701 4294967295
2.8299999 0.50203651 0.98750126 4294967295
2.839 -0.89939034 0.97909015 4294967295
2.8294997 -0.90490335 0.98608828 4294967295
2.8234 2.2538428 0.96084785 4294967295
2.8329196 2.240118 0.95391363 4294967295
2.8334999 0.49935582 0.96012896 4294967295
2.8420002 -0.89751077 0.95225161 4294967295
2.8270001 -0.90578562 0.95600849 4294967295
2.8322856 2.234431 0.9248687 4294967295
2.8299999 0.50203651 0.92837179 4294967295
2.8370001 -0.89582914 0.924649 4294967295
2.8255 -0.90412539 0.92693037 4294967295
2.825 2.2533686 0.88724524 4294967295
2.8344004 2.2410293 0.8960076 4294967295
2.839 0.51022005 0.88687265 4294967295
2.8289998 0.50842285 0.89869863 4294967295
2.8371668 -0.89661121 0.89870334 4294967295
2.846 -0.90160793 0.88117403 4294967295
2.8270001 2.2527759 0.87548327 4294967295
2.8333998 2.2412884 0.86300552 4294967295
2.832 0.51553273 0.86622435 4294967295
2.8285 -0.90426284 0.86254495 4294967295
2.83095 2.229969 0.83788884 4294967295
2.8397145 2.2134967 0.8295517 4294967295
2.8315001 0.52201122 0.83004653 4294967295
2.8318 -0.91813207 0.83600378 4294967295
2.8329999 -0.93035477 0.82036686 4294967295
2.8265712 2.2266753 0.80562997 4294967295
2.8388238 2.211834 0.8039372 4294967295
2.8332498 0.52725673 0.80396366 4294967295
2.8312857 -0.94104397 0.80517095 4294967295
2.8289287 2.2341464 0.7721085 4294967295
2.8401432 2.2105355 0.77687526 4294967295
2.839 0.54315484 0.7617203 4294967295
2.8289998 0.53685963 0.77400106 4294967295
2.8329999 -0.95664692 0.78750163 4294967295
2.8329999 -0.96322 0.78092861 4294967295
2.8210001 2.2545538 0.74382478 4294967295
2.8341155 2.2397087 0.74613225 4294967295
2.8347499 0.55220884 0.7449038 4294967295
2.8299999 -0.99173695 0.74127668 4294967295
2.8265998 2.2533345 0.71388263 4294967295
2.837889 2.2475533 0.71918386 4294967295
2.8360002 0.55354029 0.71176296 4294967295
2.84075 0.52700603 0.70255011 4294967295
2.846 0.42563641 0.70288748 4294967295
2.8365998 0.40449476 0.70228338 4294967295
2.8387499 0.37515163 0.70572317 4294967295
2.8395 0.34560683 0.70577139 4294967295
2.8329999 0.31523696 0.70205206 4294967295
2.8329999 0.28565827 0.70205206 4294967295
2.8299999 0.25581536 0.7018593 4294967295
2.836375 0.22677246 0.70474517 4294967295
2.8409998 0.19746493 0.70256615 4294967295
2.846 0.019539261 0.70288748 4294967295
2.846 -0.02007997 0.70288748 4294967295
2.8392498 -0.046371214 0.70245373 4294967295
2.839 -0.076019779 0.70243764 4294967295
2.84425 -0.1058626 0.702775 4294967295
2.846 -0.13233446 0.70288748 4294967295
2.846 -0.26770017 0.70288748 4294967295
2.846 -0.28420818 0.70288748 4294967295
2.846 -0.30071619 0.70288748 4294967295
2.8413334 -0.91990125 0.7025876 4294967295
2.8294001 -0.94229639 0.70576179 4294967295
2.8299999 -0.9764114 0.71718013 4294967295
2.839 -0.99160784 0.72878551 4294967295
2.8287644 2.2584248 0.68479437 4294967295
2.8404 2.2489669 0.68407112 4294967295
2.8246 0.52727884 0.69495875 4294967295
2.8300002 0.49546212 0.69201785 4294967295
2.8365557 0.46517575 0.69278103 4294967295
2.8278573 0.43697828 0.69235539 4294967295
2.8210001 0.40880713 0.69473577 4294967295
2.8270001 0.19320884 0.6951074 4294967295
2.8314285 0.16817972 0.6906966 4294967295
2.8310001 0.1322016 0.68769586 4294967295
2.8301249 0.10478225 0.68710554 4294967295
2.8331003 0.075333744 0.6922071 4294967295
2.8294001 0.047651798 0.69394702 4294967295
2.8210001 0.016095025 0.69473577 4294967295
2.8210001 -0.016630983 0.69473577 4294967295
2.8210001 -0.036266588 0.69473577 4294967295
2.8210001 -0.085355602 0.69473577 4294967295
2.8255 -0.1051639 0.69501448 4294967295
2.8306 -0.13490769 0.69533038 4294967295
2.8299999 -0.16442612 0.69201887 4294967295
2.8389001 -0.19457968 0.69255936 4294967295
2.8303332 -0.225357 0.69167459 4294967295
2.8295715 -0.25208965 0.69339657 4294967295
2.8269999 -0.28559035 0.6951074 4294967295
2.8306 -0.31747961 0.69402134 4294967295
2.833143 -0.34255591 0.69079882 4294967295
2.8270001 -0.37741116 0.68527567 4294967295
2.8329999 -0.4045113 0.68890595 4294967295
2.8325555 -0.43583098 0.69181067 4294967295
2.8309996 -0.46479583 0.69244617 4294967295
2.8341112 -0.49526435 0.69190699 4294967295
2.8339996 -0.52445817 0.69263047 4294967295
2.8323336 -0.5540967 0.6917938 4294967295
2.8306003 -0.58476156 0.69205642 4294967295
2.8358574 -0.61452341 0.69190395 4294967295
2.8295715 -0.6478591 0.68589652 4294967295
2.8317778 -0.67516977 0.68592417 4294967295
2.8304286 -0.70341462 0.68688262 4294967295
2.8346002 -0.73684686 0.69230139 4294967295
2.8299999 -0.76520711 0.69202065 4294967295
2.8300004 -0.79475439 0.69202065 4294967295
2.8300002 -0.8243019 0.69202065 4294967295
2.833333 -0.85302746 0.69259071 4294967295
2.8365998 -0.88545883 0.69570202 4294967295
2.8270001 -0.90542048 0.6951074 4294967295
2.8253634 2.2583249 0.65746677 4294967295
2.8378239 2.243196 0.6531859 4294967295
2.8210001 2.2545538 0.63582891 4294967295
2.8321249 2.2343891 0.62697625 4294967295
2.8393333 2.2164938 0.61023074 4294967295
2.8210001 2.2218277 0.60964811 4294967295
2.832 2.2107568 0.59521019 4294967295
2.8321431 2.2277789 0.55837083 4294967295
2.8322856 2.215677 0.5743348 4294967295
2.8287997 2.2555263 0.53048187 4294967295
2.8369 2.2468386 0.53641838 4294967295
2.8275712 2.2594767 0.50614709 4294967295
2.8360479 2.2383659 0.50172609 4294967295
2.839143 2.2107048 0.49353766 4294967295
2.839 2.176722 0.49165478 4294967295
2.8413334 2.1466441 0.49273202 4294967295
2.846 2.1292632 0.4915849 4294967295
2.8210001 2.2545538 0.48528931 4294967295
2.8234701 2.2337854 0.47794205 4294967295
2.8332613 2.2077525 0.47485018 4294967295
2.8391004 2.1764622 0.47452468 4294967295
2.8395004 2.1466322 0.47805882 4294967295
2.846 2.1270623 0.48278064 4294967295
2.8210001 2.2240098 0.45692676 4294967295
2.8322904 2.2056785 0.44593844 4294967295
2.8418 2.1880939 0.45207256 4294967295
2.826 2.195154 0.42403018 4294967295
2.8315332 2.1871791 0.41247168 4294967295
2.8332224 2.1949134 0.37776917 4294967295
2.832375 2.1872294 0.39315051 4294967295
2.8210001 2.2218277 0.34129488 4294967295
2.8295834 2.2033954 0.35278866 4294967295
2.8210003 2.224633 0.32352933 4294967295
2.8328574 2.2104847 0.32489091 4294967295
2.8210001 2.2218277 0.30529624 4294967295
2.8320527 2.2135723 0.29529655 4294967295
2.8303332 2.2072794 0.26628029 4294967295
2.8329413 2.2064648 0.23421276 4294967295
2.829643 2.2122028 0.20475805 4294967295
2.8331113 2.2247791 0.17181441 4294967295
2.8329999 2.2181237 0.18716833 4294967295
2.8210001 2.2545538 0.13184842 4294967295
2.8297224 2.23524 0.1426914 4294967295
2.8210001 2.2561901 0.11875799 4294967295
2.8324003 2.2402391 0.11477545 4294967295
2.8301375 2.2355618 0.084625661 4294967295
2.831387 2.232296 0.053498358 4294967295
2.8210001 2.2807345 0.014034808 4294967295
2.8269999 2.2624276 0.019509673 4294967295
2.8354514 2.2331824 0.025869966 4294967295
2.825 2.2817776 -0.0030688047 4294967295
2.8357198 2.2670875 -0.0062384605 4294967295
2.8421113 2.2413788 0.00072306395 4294967295
2.8300624 2.260957 -0.026159286 4294967295
2.83375 2.2439029 -0.039741576 4294967295
2.8331668 2.2341323 -0.065385461 4294967295
2.8348184 2.2326844 -0.096367657 4294967295
2.8331769 2.235436 -0.12541449 4294967295
2.846 2.2151048 -0.1357196 4294967295
2.8297913 2.2292764 -0.1533066 4294967295
2.8417373 2.2096918 -0.15902311 4294967295
2.8210001 2.2251005 -0.17577606 4294967295
2.8335004 2.2071021 -0.18433011 4294967295
2.8323913 2.2047691 -0.21543574 4294967295
2.8210001 2.2545538 -0.25431848 4294967295
2.8210001 2.2349181 -0.25431848 4294967295
2.8302698 2.2028379 -0.24498349 4294967295
2.8384447 2.1843421 -0.25178576 4294967295
2.8240001 2.2815168 -0.28135061 4294967295
2.8293998 2.2642081 -0.27403015 4294967295
2.8357143 2.2359056 -0.27497816 4294967295
2.8362355 2.2055683 -0.27360463 4294967295
2.8403337 2.1795647 -0.2746383 4294967295
2.8329999 2.2838633 -0.29047745 4294967295
2.8303332 2.2629716 -0.30283761 4294967295
2.8428893 2.2427244 -0.30392796 4294967295
2.846 2.2040997 -0.29639757 4294967295
2.8436668 2.1868923 -0.29352903 4294967295
2.8269999 2.2527807 -0.32373834 4294967295
2.8324997 2.2380819 -0.33698505 4294967295
2.8295 2.2314739 -0.35959047 4294967295
2.8338823 2.2079782 -0.37115997 4294967295
2.8347502 2.1948214 -0.38798594 4294967295
2.8331668 2.1864705 -0.39898425 4294967295
2.8686666 -0.87771541 2.1198037 4294967295
2.8668001 0.76132053 2.1010108 4294967295
2.8636668 -0.8865338 2.0963354 4294967295
2.852 -0.89689159 2.066401 4294967295
2.8730001 -0.91015685 2.0622404 4294967295
2.8656001 -0.91978842 2.0351801 4294967295
2.875 0.76349813 2.0055013 4294967295
2.863625 -0.92212677 2.0045843 4294967295
2.858 0.75898349 1.9768292 4294967295
2.8675001 -0.91838771 1.9749981 4294967295
2.8740001 0.75656432 1.9349678 4294967295
2.8656666 -0.91669524 1.9485763 4294967295
2.8675001 0.75485325 1.911813 4294967295
2.8654001 -0.91306704 1.9141005 4294967295
2.8654001 0.75430042 1.8808621 4294967295
2.8675001 -0.8984285 1.8718753 4294967295
2.8613331 -0.90756106 1.8877841 4294967295
2.8710001 0.75577462 1.8535527 4294967295
2.8680003 -0.89335352 1.8545204 4294967295
2.8722003 0.75609046 1.8241166 4294967295
2.8655002 -0.89669663 1.8288313 4294967295
2.8640001 -0.90066534 1.813754 4294967295
2.8686666 0.75736606 1.7925667 4294967295
2.8656001 -0.89717221 1.7892143 4294967295
2.8640001 -0.90066534 1.8037865 4294967295
2.8657002 0.75769073 1.7646378 4294967295
2.8607142 -0.89014059 1.76675 4294967295
2.8652501 0.75757647 1.7345383 4294967295
2.8654001 -0.88780922 1.7346014 4294967295
2.8639998 0.75923103 1.7029902 4294967295
2.8640001 0.67419225 1.697467 4294967295
2.8640001 0.64096743 1.7074344 4294967295
2.8717999 0.51743788 1.7093272 4294967295
2.8610001 0.50753587 1.6962371 4294967295
2.8645 -0.89084232 1.7043372 4294967295
2.8643336 1.7508714 1.664368 4294967295
2.8644547 1.7237558 1.6719692 4294967295
2.8630562 1.6951134 1.6738094 4294967295
2.8550003 1.6703243 1.6705741 4294967295
2.859333 0.76330382 1.6767478 4294967295
2.872889 0.74441606 1.6718683 4294967295
2.8645 0.68760222 1.6777418 4294967295
2.867667 0.5253557 1.6745628 4294967295
2.8627501 -0.89694226 1.6803514 4294967295
2.8675001 -0.901766 1.6656364 4294967295
2.8770003 2.0122786 1.6327227 4294967295
2.8646004 1.9876424 1.6358967 4294967295
2.8628752 1.965012 1.6347165 4294967295
2.866667 1.9451808 1.6309365 4294967295
2.8663003 1.7840015 1.6432053 4294967295
2.8645003 1.7642606 1.6577847 4294967295
2.8746004 1.6891289 1.6558027 4294967295
2.8684289 1.6630603 1.6512535 4294967295
2.8630714 1.6357559 1.6406014 4294967295
2.8520002 1.6109995 1.6362879 4294967295
2.8650002 1.5126376 1.6333849 4294967295
2.8591669 1.4923173 1.6335548 4294967295
2.8740001 1.2066624 1.6315625 4294967295
2.862 1.1825289 1.6360447 4294967295
2.8675001 1.1540294 1.6456758 4294967295
2.8628333 1.1228153 1.6465985 4294967295
2.8608572 1.1020615 1.6378431 4294967295
2.8540001 0.75350511 1.6547302 4294967295
2.8660002 0.74281287 1.653409 4294967295
2.8623335 0.55205202 1.6547124 4294967295
2.8675003 -0.90508336 1.6456726 4294967295
2.8660004 2.0208955 1.6139542 4294967295
2.8580003 2.0023117 1.6286829 4294967295
2.8688574 1.9304937 1.6238456 4294967295
2.8599002 1.9074221 1.6114948 4294967295
2.8671114 1.8065281 1.6126322 4294967295
2.8560002 1.7943777 1.6268065 4294967295
2.8730004 1.6320307 1.6203358 4294967295
2.8629446 1.6061038 1.6132395 4294967295
2.8632004 1.573024 1.6074414 4294967295
2.8643889 1.5441456 1.6208098 4294967295
2.8660002 1.5257986 1.6267885 4294967295
2.8678575 1.4773636 1.6272711 4294967295
2.8644545 1.4548863 1.62362 4294967295
2.8604286 1.4247042 1.6191846 4294967295
2.8625383 1.3952193 1.6133214 4294967295
2.8653336 1.3625659 1.6082493 4294967295
2.8622143 1.3345202 1.6132342 4294967295
2.8643334 1.3067216 1.6189469 4294967295
2.8627 1.2749691 1.62386 4294967295
2.8658888 1.2442495 1.6247231 4294967295
2.8634284 1.2178849 1.6265119 4294967295
2.8770001 1.111136 1.6260476 4294967295
2.8632944 1.0917798 1.614501 4294967295
2.8608749 1.0646594 1.6086298 4294967295
2.8623331 1.0335261 1.6111647 4294967295
2.8579998 1.0033836 1.6121018 4294967295
2.8550005 0.97479659 1.6175828 4294967295
2.8530905 0.95025271 1.61264 4294967295
2.8627145 -0.9097389 1.6158102 4294967295
2.8740003 2.133538 1.5715489 4294967295
2.8629169 2.1164401 1.5796649 4294967295
2.8638184 2.0851953 1.5804871 4294967295
2.8602226 2.0602674 1.5746063 4294967295
2.8632383 2.020339 1.5805727 4294967295
2.8770003 2.0056033 1.5726466 4294967295
2.8706369 1.9012648 1.5878652 4294967295
2.8624167 1.8758757 1.5800186 4294967295
2.8643639 1.8451293 1.5776806 4294967295
2.8606002 1.8176107 1.5892158 4294967295
2.8770001 1.595083 1.5993471 4294967295
2.8770001 1.5850704 1.5993471 4294967295
2.8770001 1.0911106 1.5993471 4294967295
2.8770001 1.0644101 1.5993471 4294967295
2.8758001 1.0279373 1.5948919 4294967295
2.8645623 1.0033251 1.586367 4294967295
2.8553338 0.97505909 1.5860679 4294967295
2.8526664 0.94730294 1.5872787 4294967295
2.8652501 -0.90935862 1.5866238 4294967295
2.8640003 2.141181 1.5561236 4294967295
2.8720005 2.0487595 1.5641477 4294967295
2.8711333 2.0254748 1.5620497 4294967295
2.8759098 1.9999872 1.5540477 4294967295
2.8653333 -0.89110905 1.5539794 4294967295
2.852 -0.90350872 1.5634995 4294967295
2.8670003 2.1689091 1.5157696 4294967295
2.8633337 2.1510777 1.5311038 4294967295
2.8740001 0.54652041 1.514873 4294967295
2.8710001 -0.86956066 1.5171616 4294967295
2.8612502 -0.87490046 1.5287212 4294967295
2.8667505 2.1996398 1.4924084 4294967295
2.8580003 2.1813326 1.5027034 4294967295
2.8710001 0.71580738 1.5038393 4294967295
2.852 0.54564202 1.5039454 4294967295
2.868 0.53062272 1.4942439 4294967295
2.8644288 -0.86471355 1.4939871 4294967295
2.8639235 2.2075689 1.465627 4294967295
2.8710001 0.70914614 1.4505496 4294967295
2.8622222 0.518071 1.4691086 4294967295
2.8694 0.50502366 1.4580203 4294967295
2.862875 -0.86543268 1.4661674 4294967295
2.8638186 2.1993568 1.4361328 4294967295
2.858 0.71256614 1.4347351 4294967295
2.860111 0.50294155 1.4330006 4294967295
2.8623333 -0.88022053 1.4333357 4294967295
2.8645003 2.1929307 1.4140849 4294967295
2.8608572 2.1877754 1.3969942 4294967295
2.8770001 0.77070433 1.3924181 4294967295
2.8675001 0.73488587 1.4061742 4294967295
2.852 0.71768731 1.4179227 4294967295
2.8671429 0.5038659 1.4017756 4294967295
2.8603334 -0.89508152 1.4161156 4294967295
2.8643999 -0.91408575 1.3992163 4294967295
2.8665001 2.1933494 1.3659515 4294967295
2.8615561 2.1881018 1.3788786 4294967295
2.8645 0.7972489 1.3720267 4294967295
2.852 0.77724147 1.37822 4294967295
2.8627501 0.50617748 1.3814549 4294967295
2.8666668 -0.9214381 1.3715175 4294967295
2.8644586 2.2003689 1.3456845 4294967295
2.8755884 2.1784768 1.3421474 4294967295
2.8750002 2.1554055 1.3406727 4294967295
2.8666668 -0.89263237 1.33608 4294967295
2.8770001 -0.90809113 1.3557049 4294967295
2.8587503 2.1976633 1.3213902 4294967295
2.8672733 2.1874986 1.3138788 4294967295
2.8643334 -0.88304096 1.3143691 4294967295
2.8770003 2.192507 1.2822784 4294967295
2.8603337 2.1842217 1.2867147 4294967295
2.8669002 -0.88559949 1.2835858 4294967295
2.8686669 2.1950247 1.2512299 4294967295
2.8560002 2.1875412 1.2601576 4294967295
2.8638463 -0.88833457 1.2555313 4294967295
2.8630004 2.2027729 1.2246559 4294967295
2.8632002 -0.89508253 1.235433 4294967295
2.863625 -0.90552104 1.2197601 4294967295
2.8621433 2.2110517 1.1953274 4294967295
2.8631668 -0.91257679 1.1966761 4294967295
2.870667 2.2231977 1.1551572 4294967295
2.8617506 2.2168324 1.1681293 4294967295
2.8642499 -0.91070503 1.1659153 4294967295
2.8624618 2.2325039 1.1371629 4294967295
2.8643334 -0.89411438 1.1293831 4294967295
2.8645 -0.90413815 1.1460364 4294967295
2.8655457 2.2442033 1.1060722 4294967295
2.8630002 0.52448446 1.0975471 4294967295
2.8642502 -0.88246512 1.1061127 4294967295
2.8631878 2.2334468 1.0747585 4294967295
2.865778 0.52536553 1.0750244 4294967295
2.8652859 -0.88871908 1.0773531 4294967295
2.8657146 2.2266328 1.0432463 4294967295
2.8520002 2.219775 1.0506723 4294967295
2.8675001 0.52088022 1.0480148 4294967295
2.8642502 -0.90406299 1.0463097 4294967295
2.8630714 2.2421355 1.0161947 4294967295
2.852 0.51255637 1.0275123 4294967295
2.8706667 0.5070256 1.0152835 4294967295
2.8652856 -0.90485895 1.0156243 4294967295
2.8770003 2.2525833 0.99858534 4294967295
2.8644001 2.2453585 0.98385048 4294967295
2.8582501 0.50041634 0.98553717 4294967295
2.8661253 -0.8954981 0.98097509 4294967295
2.8640001 -0.90066534 0.99642283 4294967295
2.8635626 2.2320762 0.95482397 4294967295
2.8540001 0.49967229 0.94840235 4294967295
2.8643847 -0.89105618 0.95558125 4294967295
2.8669169 2.2269399 0.92373657 4294967295
2.852 2.219775 0.93487251 4294967295
2.8615 0.50429392 0.92632878 4294967295
2.8643751 -0.89080715 0.92669821 4294967295
2.8630667 2.236784 0.89352417 4294967295
2.852 0.51255637 0.88193548 4294967295
2.8645 0.50815672 0.90677571 4294967295
2.8623333 -0.89571047 0.90317017 4294967295
2.8770001 -0.90475357 0.89178324 4294967295
2.8625882 2.230725 0.86686921 4294967295
2.8705001 2.2175162 0.85098302 4294967295
2.8675001 0.51534206 0.87391877 4294967295
2.8643334 -0.91185129 0.86132371 4294967295
2.8625717 2.2118509 0.83582795 4294967295
2.8645 0.52144903 0.84696054 4294967295
2.8582501 -0.92371827 0.83299518 4294967295
2.8770001 -0.93145412 0.82503194 4294967295
2.8652141 2.2072487 0.80478334 4294967295
2.8643334 0.52806437 0.8037324 4294967295
2.8740001 -0.94714975 0.80804694 4294967295
2.8640001 -0.96047008 0.79042876 4294967295
2.8622663 2.2033968 0.77388465 4294967295
2.8640001 0.54129291 0.77049387 4294967295
2.858 0.53352785 0.78653973 4294967295
2.8640001 -0.96711504 0.78378379 4294967295
2.8770001 -0.9915303 0.76495576 4294967295
2.8643999 2.2347271 0.74083591 4294967295
2.8649001 2.2118435 0.75394696 4294967295
2.8705001 0.55418026 0.74273831 4294967295
2.85975 -0.99552888 0.74193555 4294967295
2.8627503 2.2546976 0.71393627 4294967295
2.852 2.2462435 0.72974157 4294967295
2.8645 0.5480358 0.71627307 4294967295
2.8633335 0.52456415 0.71065444 4294967295
2.8652859 0.49784243 0.70603204 4294967295
2.8675001 0.46545199 0.70426911 4294967295
2.8644001 0.43501887 0.70673716 4294967295
2.8630002 0.40160179 0.71195757 4294967295
2.8755 0.37334105 0.71812648 4294967295
2.8755002 0.34665096 0.71812648 4294967295
2.852 0.3140426 0.70989019 4294967295
2.852 0.28426552 0.70989019 4294967295
2.8613749 0.25282183 0.71301758 4294967295
2.872 0.22430208 0.71656191 4294967295
2.8643999 0.19578141 0.70939237 4294967295
2.8722501 0.16631687 0.70457435 4294967295
2.8770001 0.14991716 0.70487958 4294967295
2.8770001 0.096516103 0.70487958 4294967295
2.8694003 0.076303959 0.70439118 4294967295
2.8534999 0.046078403 0.70336944 4294967295
2.8686666 0.018630696 0.70879418 4294967295
2.852 -0.0035794878 0.70327306 4294967295
2.8707502 -0.046885807 0.71113861 4294967295
2.8640001 -0.073366724 0.71068919 4294967295
2.8745999 -0.10365407 0.71139491 4294967295
2.872 -0.13685198 0.70989835 4294967295
2.8642502 -0.16642211 0.70406026 4294967295
2.8725002 -0.19355063 0.70459038 4294967295
2.8630002 -0.22278585 0.70397991 4294967295
2.8603334 -0.25468227 0.70603359 4294967295
2.8745999 -0.28372669 0.71139491 4294967295
2.8606 -0.31552377 0.70516074 4294967295
2.8770001 -0.33736742 0.70487958 4294967295
2.8740001 -0.44036531 0.70468676 4294967295
2.8740001 -0.46704844 0.70468682 4294967295
2.8770001 -0.4842203 0.70487958 4294967295
2.8770001 -0.52760863 0.70487958 4294967295
2.8710001 -0.55648369 0.704494 4294967295
2.8710001 -0.58645916 0.704494 4294967295
2.8740001 -0.61375165 0.70468682 4294967295
2.8740001 -0.76710564 0.70468682 4294967295
2.8710001 -0.7962873 0.704494 4294967295
2.8740001 -0.82713312 0.70468682 4294967295
2.8745999 -0.8573035 0.70472538 4294967295
2.8675001 -0.88512516 0.70426911 4294967295
2.8620002 -0.90667206 0.70391566 4294967295
2.8643334 -0.94062531 0.71071136 4294967295
2.8618002 -0.97300649 0.72117001 4294967295
2.8623335 2.2543657 0.68843603 4294967295
2.8559999 2.2471788 0.67260379 4294967295
2.852 0.15854011 0.69665593 4294967295
2.8544002 0.1354941 0.69680458 4294967295
2.8559999 0.10906906 0.69690371 4294967295
2.852 -0.35097864 0.69665593 4294967295
2.8604 -0.37524331 0.69717622 4294967295
2.8535001 -0.40412286 0.69674885 4294967295
2.852 -0.42045847 0.69665593 4294967295
2.852 -0.62558937 0.69665593 4294967295
2.858 -0.64349353 0.69702756 4294967295
2.8725002 -0.67341179 0.69792569 4294967295
2.8675001 -0.70546919 0.69761598 4294967295
2.8770001 2.2525833 0.66482878 4294967295
2.862 2.2416549 0.65244699 4294967295
2.8659999 2.2295442 0.62714165 4294967295
2.855 2.2187943 0.61403716 4294967295
2.8710001 2.2212408 0.58459222 4294967295
2.862875 2.2141073 0.59686702 4294967295
2.8651001 2.2332768 0.56452525 4294967295
2.8691251 2.2547283 0.5321278 4294967295
2.852 2.2462435 0.54446203 4294967295
2.8644168 2.2371755 0.51134133 4294967295
2.8658891 2.2046907 0.50174409 4294967295
2.8637502 2.1757338 0.50138617 4294967295
2.8631113 2.144258 0.50028044 4294967295
2.858 2.1282878 0.49146509 4294967295
2.865 2.1416326 0.47025296 4294967295
2.858 2.1271846 0.48041332 4294967295
2.860889 2.1949654 0.43906146 4294967295
2.863133 2.1766059 0.45287657 4294967295
2.8770001 2.1591315 0.45789972 4294967295
2.8675001 2.195236 0.41485971 4294967295
2.8651249 2.1984048 0.3825388 4294967295
2.852 2.1866894 0.39888522 4294967295
2.86375 2.2056563 0.35519511 4294967295
2.865 2.2111466 0.32582211 4294967295
2.8730001 2.2227881 0.29133517 4294967295
2.858 2.2164848 0.29783851 4294967295
2.8745999 2.224026 0.26454258 4294967295
2.8555999 2.2159512 0.26623112 4294967295
2.8666003 2.2165012 0.23331317 4294967295
2.8705001 2.2241764 0.19497558 4294967295
2.8622224 2.2166436 0.20883465 4294967295
2.863625 2.2321293 0.1749936 4294967295
2.8611667 2.2401788 0.1440343 4294967295
2.863625 2.2412713 0.11270255 4294967295
2.8648572 2.2345123 0.084991187 4294967295
2.8623333 2.2244823 0.06306842 4294967295
2.8606 2.2178202 0.048086792 4294967295
2.866143 2.224122 0.019240022 4294967295
2.8625715 2.2175426 0.03410086 4294967295
2.855 2.251915 -0.018559635 4294967295
2.8621426 2.2366607 -0.0042521954 4294967295
2.8667502 2.2520127 -0.034920514 4294967295
2.8650002 2.2481608 -0.032060802 4294967295
2.8770001 2.2525833 -0.056085348 4294967295
2.865 2.2439146 -0.066977024 4294967295
2.8658824 2.2301726 -0.095310271 4294967295
2.8740001 2.2118907 -0.10716122 4294967295
2.852 2.226392 -0.11394209 4294967295
2.8600001 2.2060697 -0.12485862 4294967295
2.8626814 2.1990702 -0.15284473 4294967295
2.8621819 2.1999176 -0.1853261 4294967295
2.8652859 2.2035062 -0.21660811 4294967295
2.865778 2.1964982 -0.23926479 4294967295
2.8638334 2.1813498 -0.25333166 4294967295
2.8621767 2.1706412 -0.27576959 4294967295
2.8570001 2.2302868 -0.31060791 4294967295
2.8579996 2.2055655 -0.30937004 4294967295
2.8654168 2.1809006 -0.30363661 4294967295
2.8620002 2.2287986 -0.33418739 4294967295
2.8729441 2.2071757 -0.33633959 4294967295
2.8646998 2.212357 -0.36367881 4294967295
2.8650999 2.1993773 -0.39339203 4294967295
2.8645 2.1929426 -0.41247338 4294967295
2.9089999 -0.88106996 2.1445532 4294967295
2.9003334 -0.88517427 2.1195154 4294967295
2.8940001 0.76854378 2.0891695 4294967295
2.8900001 -0.88872594 2.1071215 4294967295
2.8994999 -0.90172726 2.095531 4294967295
2.8900001 0.76748157 2.0635369 4294967295
2.8994999 -0.92192024 2.0618725 4294967295
2.8900001 0.76748157 2.0367157 4294967295
2.9089999 -0.92831558 2.0298138 4294967295
2.9026668 -0.92179489 2.0074253 4294967295
2.9024999 0.76406676 1.9692061 4294967295
2.9057498 -0.92053664 1.9775743 4294967295
2.8900001 0.76077628 1.9528996 4294967295
2.8945 -0.91697264 1.9450623 4294967295
2.9089999 0.75902849 1.9015756 4294967295
2.8963335 -0.91530359 1.9201752 4294967295
2.9089999 0.75902849 1.884702 4294967295
2.8983333 -0.89576328 1.8785756 4294967295
2.8962502 -0.90407646 1.8938329 4294967295
2.9089999 0.75902849 1.8543299 4294967295
2.8947999 -0.89288682 1.8545356 4294967295
2.9089999 -0.90131807 1.8408312 4294967295
2.9089999 0.75902849 1.8307071 4294967295
2.8947501 -0.90193194 1.8175536 4294967295
2.8940001 -0.89443076 1.7937329 4294967295
2.9046667 0.75789785 1.7647411 4294967295
2.8900001 -0.88872594 1.7651513 4294967295
2.8983333 0.75399548 1.7339859 4294967295
2.8959999 0.52046394 1.727421 4294967295
2.8959999 0.50702554 1.7207018 4294967295
2.9024999 -0.89256984 1.7402176 4294967295
2.8947501 0.75362307 1.7134674 4294967295
2.9011111 0.74274641 1.7003828 4294967295
2.8900001 0.69372332 1.6980984 4294967295
2.8959999 0.68172514 1.7139826 4294967295
2.8900001 0.50597513 1.7081563 4294967295
2.8940001 -0.89667058 1.7064388 4294967295
2.9089999 -0.90131807 1.6990942 4294967295
2.9090002 1.781559 1.6653473 4294967295
2.90025 1.7559936 1.6703076 4294967295
2.8956003 1.7269927 1.6674501 4294967295
2.8944287 0.7321915 1.679759 4294967295
2.8994999 0.7094804 1.6851417 4294967295
2.8994999 0.54462767 1.6683342 4294967295
2.9089999 0.53629905 1.6788461 4294967295
2.8947999 -0.90363479 1.6731837 4294967295
2.9014003 2.022604 1.6354194 4294967295
2.8997779 1.9938006 1.6370329 4294967295
2.8962002 1.9679213 1.6320791 4294967295
2.9014003 1.8085384 1.6367692 4294967295
2.8988001 1.7907795 1.6559439 4294967295
2.9089999 1.7241892 1.6563481 4294967295
2.8990772 1.6960465 1.6484897 4294967295
2.8938751 1.6682262 1.6375604 4294967295
2.899857 1.5188433 1.6319424 4294967295
2.8900001 1.4983586 1.6310455 4294967295
2.9089999 1.2348595 1.6316005 4294967295
2.8994999 1.2123212 1.636374 4294967295
2.898 1.1826262 1.6437268 4294967295
2.9009998 1.1506938 1.6478813 4294967295
2.8929999 1.1296201 1.6389064 4294967295
2.8900001 0.55961746 1.6578666 4294967295
2.9026 -0.91010433 1.6426301 4294967295
2.8975 2.0279491 1.6157706 4294967295
2.9046671 1.9574922 1.6175758 4294967295
2.8924005 1.9411758 1.6145148 4294967295
2.8977501 1.8200468 1.6121712 4294967295
2.9025717 1.6597646 1.6204705 4294967295
2.8986251 1.6390145 1.609127 4294967295
2.8900001 1.6157012 1.6042243 4294967295
2.8988001 1.5708295 1.6075183 4294967295
2.8987999 1.546635 1.6189466 4294967295
2.9025002 1.509871 1.625742 4294967295
2.8990002 1.4847659 1.6248866 4294967295
2.8986251 1.4557531 1.6175398 4294967295
2.89625 1.4243027 1.6132778 4294967295
2.8981431 1.3940166 1.6111108 4294967295
2.8993332 1.360799 1.6088432 4294967295
2.895375 1.3331921 1.610435 4294967295
2.8997777 1.3060652 1.6228353 4294967295
2.8930001 1.2750465 1.6254865 4294967295
2.8959999 1.2494987 1.6266328 4294967295
2.9004445 1.1239368 1.616354 4294967295
2.8900001 1.1094515 1.6042243 4294967295
2.8900001 1.0491039 1.6042243 4294967295
2.8900001 -0.91554707 1.6109296 4294967295
2.9015002 2.1427333 1.5771161 4294967295
