# .PCD v0.7 - Point Cloud Data file format
VERSION 0.7
FIELDS x y z rgb
SIZE 4 4 4 4
TYPE F F F U
COUNT 1 1 1 1
WIDTH 1150
HEIGHT 1
VIEWPOINT 0 0 0 1 0 0 0
POINTS 1150
DATA ascii
2.4709005 1.9661494 1.826316 4294967295
2.4736795 1.9367973 1.8268331 4294967295
2.4741664 1.9054151 1.826133 4294967295
2.472857 1.8752314 1.825851 4294967295
2.4676802 1.8455343 1.8241094 4294967295
2.4650002 1.8151343 1.8155679 4294967295
2.4650002 1.7841625 1.8108096 4294967295
2.4661112 1.7554035 1.8132941 4294967295
2.4644446 1.7275312 1.8130554 4294967295
2.4657145 1.6919159 1.811999 4294967295
2.4681113 1.6629694 1.818475 4294967295
2.4686112 1.6353049 1.8203261 4294967295
2.4718182 1.6029619 1.8177563 4294967295
2.4715407 1.573063 1.8228779 4294967295
2.4748533 1.5454125 1.8234876 4294967295
2.4752147 1.5160108 1.8258197 4294967295
2.4753783 1.4854712 1.8272195 4294967295
2.4759707 1.456375 1.8246448 4294967295
2.4733598 1.4258136 1.8266623 4294967295
2.4735804 1.3944623 1.8245521 4294967295
2.4741471 1.3651361 1.8231637 4294967295
2.4714284 1.3381279 1.8171554 4294967295
2.474391 1.3010761 1.8169547 4294967295
2.4790587 1.2768183 1.8286334 4294967295
2.4863076 1.2437954 1.8334994 4294967295
2.4782581 1.2131015 1.8260695 4294967295
2.4769216 1.1851182 1.8239719 4294967295
2.4801998 1.1566435 1.830242 4294967295
2.483062 1.1220944 1.8346577 4294967295
2.4784136 1.0934038 1.8284966 4294967295
2.4771667 1.0651366 1.8207843 4294967295
2.4748292 1.0345496 1.8208389 4294967295
2.471375 1.0077454 1.8200904 4294967295
2.4721334 0.97579807 1.8145341 4294967295
2.4726844 0.94410217 1.8151207 4294967295
2.4751179 0.91385716 1.8208007 4294967295
2.4756451 0.88700628 1.8315464 4294967295
2.4748945 0.85700238 1.8365257 4294967295
2.4890001 -0.89823419 1.8349272 4294967295
2.4772069 -0.91436213 1.8257149 4294967295
2.4660001 -0.93341386 1.8330756 4294967295
2.4711308 2.2249403 1.7920641 4294967295
2.4793999 2.2153676 1.7976159 4294967295
2.4890003 2.0700669 1.7858405 4294967295
2.4882309 2.0516639 1.7932231 4294967295
2.4826114 2.0250742 1.7963561 4294967295
2.481163 1.9949265 1.7952986 4294967295
2.4806128 1.9659852 1.796496 4294967295
2.4781663 1.9364699 1.7983303 4294967295
2.4799995 1.9069787 1.8029993 4294967295
2.4805908 1.8733965 1.8040478 4294967295
2.4812222 1.8457885 1.8061788 4294967295
2.4794545 1.8157969 1.8094823 4294967295
2.4805627 1.7842658 1.8070751 4294967295
2.4812963 1.7531928 1.7979935 4294967295
2.4790304 1.7250234 1.798612 4294967295
2.4805923 1.6947143 1.8016884 4294967295
2.4820437 1.6659169 1.8049459 4294967295
2.4816475 1.635493 1.8066424 4294967295
2.4847696 1.6066587 1.8074079 4294967295
2.4860003 1.5819097 1.8079605 4294967295
2.4858184 1.4513479 1.8044033 4294967295
2.4807389 1.4230536 1.8015193 4294967295
2.4817083 1.3953435 1.8022741 4294967295
2.4873333 1.3742312 1.8071126 4294967295
2.487 1.3332723 1.8067471 4294967295
2.4848335 1.3058976 1.8045292 4294967295
2.4890001 1.2846799 1.8060527 4294967295
2.4890001 1.1865065 1.8060527 4294967295
2.4890001 1.0666772 1.8060527 4294967295
2.4890001 1.036359 1.8060527 4294967295
2.487 1.0037897 1.8073244 4294967295
2.4865 0.97473949 1.8076426 4294967295
2.4874375 0.94444716 1.8045198 4294967295
2.4890001 0.92013901 1.8024433 4294967295
2.4757366 -0.90823293 1.7970557 4294967295
2.4600003 2.2514224 1.7511151 4294967295
2.4709997 2.2342322 1.7637807 4294967295
2.483762 2.2105908 1.7646531 4294967295
2.4890003 2.072377 1.7725582 4294967295
2.4846251 2.0534608 1.7645102 4294967295
2.4775715 2.0248358 1.7638026 4294967295
2.4828095 2.002912 1.7688364 4294967295
2.474 -0.90763718 1.7662467 4294967295
2.4656925 2.2592585 1.7332721 4294967295
2.4762111 2.2344928 1.7345742 4294967295
2.4832504 2.2119081 1.738833 4294967295
2.4890003 2.04408 1.7483037 4294967295
2.4840004 2.0313227 1.7487121 4294967295
2.4766364 -0.91466033 1.7374891 4294967295
2.4658234 2.2601049 1.7102757 4294967295
2.4743125 2.2356207 1.7055378 4294967295
2.4854286 2.2107 1.7015043 4294967295
2.4771874 -0.91622216 1.7036527 4294967295
2.4669335 2.2260842 1.6782663 4294967295
2.4810734 2.2049699 1.6736223 4294967295
2.4890003 2.1855652 1.6761173 4294967295
2.4767916 -0.91128284 1.6740297 4294967295
2.4717336 2.2269559 1.6405467 4294967295
2.4829133 2.2115097 1.6501158 4294967295
2.4748335 -0.91510946 1.6446482 4294967295
2.4666429 2.2566752 1.6080861 4294967295
2.4787433 2.2397885 1.6186768 4294967295
2.474381 -0.91589326 1.6147684 4294967295
2.470042 2.2602038 1.5854222 4294967295
2.4873338 2.2485416 1.5887679 4294967295
2.4733331 -0.90818113 1.5856196 4294967295
2.4650004 2.2845867 1.5458152 4294967295
2.4727554 2.2630508 1.5557389 4294967295
2.4890003 2.249089 1.5606191 4294967295
2.4732499 -0.90365368 1.553654 4294967295
2.469167 2.2855906 1.5236856 4294967295
2.4743171 2.2633746 1.5264044 4294967295
2.4890003 2.249089 1.51442 4294967295
2.474 0.54794472 1.5227772 4294967295
2.4817502 0.53238112 1.5230422 4294967295
2.4744 -0.91132325 1.5267602 4294967295
2.4636002 2.25966 1.5025587 4294967295
2.4760003 2.2444954 1.4915099 4294967295
2.4743335 0.5193072 1.5056828 4294967295
2.474 0.50489396 1.4854667 4294967295
2.4742856 -0.9208045 1.4982893 4294967295
2.4616671 2.2519946 1.4597044 4294967295
2.4750454 2.236824 1.4639409 4294967295
2.4850004 2.2068338 1.4540141 4294967295
2.4747274 -0.92177492 1.4609456 4294967295
2.4701667 2.2569008 1.4357234 4294967295
2.4761434 2.2366371 1.4345076 4294967295
2.4823825 2.2032866 1.434356 4294967295
2.4890003 2.1855652 1.4422337 4294967295
2.4769998 -0.92235768 1.4333391 4294967295
2.4675715 2.2550707 1.4069059 4294967295
2.4813724 2.2346666 1.4037857 4294967295
2.4877503 2.2118809 1.4150746 4294967295
2.4865003 -0.92617172 1.4167871 4294967295
2.4773808 -0.94493824 1.4037006 4294967295
2.4760456 2.2340693 1.375409 4294967295
2.4890003 2.205111 1.3667157 4294967295
2.4890003 2.1855652 1.361385 4294967295
2.4890001 -0.89823419 1.3671598 4294967295
2.481941 -0.91701895 1.3708637 4294967295
2.4779499 -0.94683701 1.3737571 4294967295
2.47 -0.96014726 1.3836162 4294967295
2.4751585 2.2304995 1.3435438 4294967295
2.484926 2.2063251 1.3442001 4294967295
2.4850717 2.1829321 1.3444046 4294967295
2.4720001 0.50735348 1.3384273 4294967295
2.4789999 -0.89653867 1.3445801 4294967295
2.4696956 -0.9114325 1.3451431 4294967295
2.4649999 -0.93722159 1.3551745 4294967295
2.4633336 2.2506604 1.3031768 4294967295
2.4788334 2.2416236 1.3160831 4294967295
2.4890003 2.1942275 1.3267355 4294967295
2.4742501 0.5078153 1.3075953 4294967295
2.4890001 -0.89823419 1.323848 4294967295
2.4734502 -0.90609318 1.3156641 4294967295
2.4614286 2.2894449 1.2819011 4294967295
2.4616668 2.2656274 1.287419 4294967295
2.4761715 2.2351565 1.2859783 4294967295
2.4825716 2.2161136 1.275282 4294967295
2.46 0.51059824 1.2773827 4294967295
2.4790001 0.50879019 1.2832394 4294967295
2.4765 -0.90519959 1.2853248 4294967295
2.4600003 2.2913756 1.2602599 4294967295
2.4713783 2.2284746 1.2525089 4294967295
2.4817276 2.215806 1.26209 4294967295
2.474 0.65700668 1.2472525 4294967295
2.4707499 0.50279421 1.2592058 4294967295
2.4766362 -0.9078536 1.2537643 4294967295
2.4628947 2.2579744 1.2205231 4294967295
2.4757922 2.2328022 1.2251501 4294967295
2.4890003 2.2144396 1.2141249 4294967295
2.4782329 -0.91386455 1.223186 4294967295
2.47 -0.93149316 1.2116916 4294967295
2.4688003 2.2583172 1.1987441 4294967295
2.4804473 2.233861 1.1956272 4294967295
2.4890003 2.2125144 1.1987252 4294967295
2.4890001 -0.89823419 1.1823629 4294967295
2.478143 -0.91544074 1.1963181 4294967295
2.4640002 -0.93265504 1.1997237 4294967295
2.4700003 2.2548437 1.1773067 4294967295
2.4780591 2.2411964 1.1659234 4294967295
2.4847145 -0.89832759 1.1631075 4294967295
2.4705455 -0.90354735 1.1701587 4294967295
2.4763706 2.237649 1.1353717 4294967295
2.4809999 -0.89821714 1.1364815 4294967295
2.4690001 -0.90151489 1.135018 4294967295
2.475152 2.229403 1.1054101 4294967295
2.4840004 2.2157428 1.0945828 4294967295
2.4807856 -0.89484894 1.1061685 4294967295
2.4685831 -0.90517622 1.1000837 4294967295
2.4625003 2.2508509 1.0610423 4294967295
2.4701855 2.232075 1.0731235 4294967295
2.4827499 2.212564 1.0737133 4294967295
2.4890001 -0.89823419 1.0899644 4294967295
2.4762857 -0.91223234 1.0755503 4294967295
2.4630003 2.2850239 1.0371524 4294967295
2.473186 2.2637222 1.0441597 4294967295
2.4843702 2.2372079 1.0498226 4294967295
2.4856672 2.2133837 1.0565153 4294967295
2.4779332 -0.92067534 1.0441127 4294967295
2.4715004 2.2626853 1.016361 4294967295
2.4876368 2.244705 1.010426 4294967295
2.4811332 -0.92608297 1.0167638 4294967295
2.4702499 -0.93373215 1.0111533 4294967295
2.4651904 2.2575238 0.98673701 4294967295
2.4797692 2.2370296 0.98311281 4294967295
2.4890001 2.2144396 0.97446632 4294967295
2.4801497 -0.92178112 0.98264134 4294967295
2.4681113 -0.93586332 0.99100995 4294967295
2.4612501 2.2525635 0.96654278 4294967295
2.4744878 2.2345371 0.95543623 4294967295
2.4868259 2.2092335 0.95425355 4294967295
2.4748001 -0.91214067 0.95625257 4294967295
2.4625001 2.2508509 0.92106652 4294967295
2.4725122 2.2352772 0.9259851 4294967295
2.4850605 2.2046316 0.92500472 4294967295
2.4767139 -0.90404803 0.92624164 4294967295
2.4679356 2.2337341 0.89710826 4294967295
2.4798336 2.2040691 0.89511395 4294967295
2.4890001 2.1855652 0.89650512 4294967295
2.4742 0.50206447 0.8913877 4294967295
2.4745455 -0.9024018 0.89353716 4294967295
2.46 2.264106 0.85755557 4294967295
2.4711626 2.2352042 0.86465931 4294967295
2.4812727 2.2133026 0.87465864 4294967295
2.4720001 0.50161809 0.8652696 4294967295
2.4825001 -0.89530396 0.86154217 4294967295
2.4702084 -0.90911132 0.86285007 4294967295
2.46 2.2951808 0.83028585 4294967295
2.4643183 2.2595279 0.83975494 4294967295
2.4787729 2.2471466 0.83535719 4294967295
2.4633334 0.49985942 0.84023315 4294967295
2.4856668 -0.89446592 0.83671993 4294967295
2.473871 -0.91330338 0.83450067 4294967295
2.4649999 2.2502792 0.81280565 4294967295
2.4766874 2.2382841 0.80360186 4294967295
2.4890001 2.2144396 0.79544431 4294967295
2.4718001 0.50042248 0.80616534 4294967295
2.4890001 -0.89823419 0.81854391 4294967295
2.4776363 -0.91292423 0.80646974 4294967295
2.4706895 2.2291586 0.77622151 4294967295
2.4845355 2.2104549 0.77580082 4294967295
2.4795001 0.50025254 0.77424693 4294967295
2.4778571 -0.91855592 0.77613688 4294967295
2.4771776 2.2310853 0.7450853 4294967295
2.4865003 2.2136476 0.75477815 4294967295
2.4770002 0.50263268 0.74523807 4294967295
2.4769201 -0.9143098 0.74491155 4294967295
2.4753587 2.232003 0.71440619 4294967295
2.4890001 0.51084262 0.70304585 4294967295
2.4705999 0.50706619 0.71886516 4294967295
2.4713638 -0.90906048 0.71477658 4294967295
2.4766665 2.2280056 0.68554127 4294967295
2.4865 2.2150912 0.67834765 4294967295
2.4695001 0.51257008 0.67581725 4294967295
2.4734001 -0.92301023 0.68524879 4294967295
2.47 -0.93149316 0.67299443 4294967295
2.4686999 2.2244306 0.66317821 4294967295
2.4805195 2.2140038 0.65477729 4294967295
2.4745002 0.52221459 0.65031856 4294967295
2.473125 -0.93337673 0.65527046 4294967295
2.4795001 2.2203367 0.61604321 4294967295
2.4773843 2.2153518 0.62613714 4294967295
2.4840002 0.52710634 0.63639432 4294967295
2.4751818 -0.94439584 0.62789363 4294967295
2.4890001 -0.96753305 0.61064732 4294967295
2.46 2.2942295 0.58533382 4294967295
2.46 2.2685452 0.58105308 4294967295
2.4730954 2.2311199 0.59284735 4294967295
2.4765 2.2176802 0.60444623 4294967295
2.4649999 -0.96678245 0.60691369 4294967295
2.46 2.2942295 0.57534546 4294967295
2.4619999 2.253819 0.56853437 4294967295
2.4781189 2.2363372 0.56370825 4294967295
2.4724002 0.51776689 0.56646347 4294967295
2.4812 0.50117493 0.55510056 4294967295
2.4860001 -0.94329506 0.55285865 4294967295
2.4890001 -0.96175814 0.55289829 4294967295
2.4767501 -0.99580926 0.55704725 4294967295
2.4734874 2.2334852 0.53702474 4294967295
2.484333 2.2121956 0.53055573 4294967295
2.4732502 0.48464853 0.54552484 4294967295
2.4759002 0.46506634 0.53837442 4294967295
2.4749167 0.43568969 0.52783859 4294967295
2.4749999 0.40524113 0.52847755 4294967295
2.478889 0.37776542 0.53232551 4294967295
2.4737778 0.34317601 0.52783364 4294967295
2.4720001 0.3152121 0.52687216 4294967295
2.4747274 0.28552386 0.52976084 4294967295
2.4789999 0.25571528 0.53264558 4294967295
2.4755833 0.22568786 0.52880192 4294967295
2.4795454 0.1940487 0.52663136 4294967295
2.4776998 0.16361079 0.52688599 4294967295
2.4786 0.13490126 0.52688861 4294967295
2.4854286 0.10891136 0.52566797 4294967295
2.4854286 0.072681554 0.52484298 4294967295
2.4768 0.04287279 0.52688336 4294967295
2.4804287 0.016615275 0.52565825 4294967295
2.4890001 -0.0060113464 0.52402377 4294967295
2.4828751 -0.19752215 0.52545762 4294967295
2.4728999 -0.22399068 0.52744877 4294967295
2.4750001 -0.25705546 0.5272004 4294967295
2.48 -0.28507829 0.52400923 4294967295
2.4830003 -0.4351716 0.52401406 4294967295
2.4757273 -0.46418822 0.52714384 4294967295
2.4732001 -0.49658951 0.52973646 4294967295
2.4793334 -0.52274024 0.53232723 4294967295
2.4689999 -0.55589807 0.52686381 4294967295
2.4710002 -0.58501631 0.52686936 4294967295
2.4809999 -0.61328453 0.52689683 4294967295
2.4830003 -0.64259022 0.52401406 4294967295
2.4806669 -0.67362386 0.5240103 4294967295
2.4793637 -0.70648295 0.52663314 4294967295
2.4805715 -0.73321241 0.52648515 4294967295
2.484 -0.76388305 0.52401572 4294967295
2.4806669 -0.7944966 0.5240103 4294967295
2.4790001 -0.82477659 0.52565759 4294967295
2.4811666 -0.85509908 0.52689856 4294967295
2.4744287 -0.88599133 0.52975142 4294967295
2.476182 -0.91344589 0.54229128 4294967295
2.4690001 -0.9425754 0.54690546 4294967295
2.4733334 -0.97578549 0.54695266 4294967295
2.4664617 2.2293708 0.50704545 4294967295
2.4800665 2.2093468 0.50675315 4294967295
2.46 0.42498398 0.5182693 4294967295
2.46 0.41927636 0.5182693 4294967295
2.4633334 0.19122648 0.51826692 4294967295
2.4649999 0.16562323 0.51826578 4294967295
2.4645834 0.13080961 0.51303118 4294967295
2.4673333 0.10519204 0.50730711 4294967295
2.4674346 0.078050338 0.50757563 4294967295
2.4635715 0.047545742 0.51745141 4294967295
2.4665 0.012157148 0.51731342 4294967295
2.4722857 -0.016217016 0.51253861 4294967295
2.4739995 -0.043286555 0.51253325 4294967295
2.4721997 -0.073086128 0.51368469 4294967295
2.473182 -0.10742947 0.51461732 4294967295
2.4713686 -0.13559096 0.51013505 4294967295
2.4734206 -0.16318266 0.51012582 4294967295
2.4676998 -0.19088341 0.51540655 4294967295
2.4648752 -0.29118308 0.51327026 4294967295
2.4736087 -0.31527296 0.50705087 4294967295
2.4797142 -0.34475437 0.50374752 4294967295
2.4801817 -0.37557384 0.50440621 4294967295
2.472923 -0.40538475 0.50658607 4294967295
2.4672856 -0.43120509 0.51295841 4294967295
2.46 -0.45398948 0.5182693 4294967295
2.4641669 -0.61675656 0.51731509 4294967295
2.4669228 -0.64634562 0.51343131 4294967295
2.4661815 -0.67255706 0.51514852 4294967295
2.46 -0.69370949 0.5182693 4294967295
2.4662499 -0.7426787 0.51683795 4294967295
2.4671998 -0.76443809 0.5154081 4294967295
2.4653635 -0.79401594 0.5151512 4294967295
2.4635711 -0.82753748 0.50902253 4294967295
2.4644001 -0.85505188 0.50683099 4294967295
2.4623075 -0.87629288 0.505521 4294967295
2.4625001 2.2222836 0.48970041 4294967295
2.4744444 2.2043078 0.47498751 4294967295
2.46 0.40215349 0.47926721 4294967295
2.4614284 0.074955732 0.47665435 4294967295
2.4650002 0.059817653 0.46964368 4294967295
2.4625001 -0.32209477 0.48779789 4294967295
2.4659998 -0.3463898 0.48394355 4294967295
2.4649999 -0.37341139 0.48538604 4294967295
2.4616668 -0.39717835 0.48971066 4294967295
2.4636841 -0.85751396 0.48036364 4294967295
2.4652939 -0.87789887 0.47621587 4294967295
2.4753125 2.2244911 0.43856528 4294967295
2.4779375 2.211751 0.45105568 4294967295
2.461875 0.069021054 0.44901088 4294967295
2.4646876 0.052305773 0.44536188 4294967295
2.46 -0.87064576 0.45548546 4294967295
2.4757597 2.234798 0.41486073 4294967295
2.4783888 2.2353086 0.38568649 4294967295
2.4848335 2.210721 0.37508336 4294967295
2.4677145 2.2257555 0.36694765 4294967295
2.476707 2.2040255 0.35610944 4294967295
2.4768889 2.1940584 0.32733598 4294967295
2.4714284 2.1889563 0.31592941 4294967295
2.4698 2.2001565 0.28620079 4294967295
2.4732943 2.1869452 0.29513162 4294967295
2.4622221 2.2267921 0.26341507 4294967295
2.4724102 2.2030218 0.26703873 4294967295
2.478375 2.188442 0.25948626 4294967295
2.4625001 2.2222836 0.24688295 4294967295
2.4631817 2.2039306 0.24706757 4294967295
2.4734859 2.1764979 0.23492962 4294967295
2.47 2.2204587 0.19160542 4294967295
2.4702997 2.203692 0.20053542 4294967295
2.4793911 2.179846 0.21010822 4294967295
2.4677331 2.2245178 0.17320374 4294967295
2.481931 2.2113066 0.17393562 4294967295
2.4656923 2.224498 0.1508159 4294967295
2.4769208 2.2045646 0.14427334 4294967295
2.4815001 2.1876013 0.13250139 4294967295
2.4675 2.1931593 0.11966157 4294967295
2.476625 2.1863966 0.11483377 4294967295
2.4675 2.2224977 0.073145062 4294967295
2.4752328 2.2017677 0.084667057 4294967295
2.4765 2.1889508 0.098806769 4294967295
2.4752645 2.228869 0.052564472 4294967295
2.4846251 2.2141404 0.064996183 4294967295
2.4768603 2.2292538 0.024447739 4294967295
2.46 2.2514224 0.0017296672 4294967295
2.4726732 2.2315881 -0.0047397614 4294967295
2.4790001 2.2170463 -0.016652465 4294967295
2.4719996 2.2293065 -0.033344269 4294967295
2.4828463 2.2151554 -0.038755178 4294967295
2.4684072 2.2298288 -0.06462729 4294967295
2.4812062 2.2108722 -0.065890789 4294967295
2.4707568 2.2325735 -0.095900059 4294967295
2.4842381 2.2107401 -0.094362676 4294967295
2.4616668 2.2948346 -0.13284528 4294967295
2.4738123 2.2330422 -0.12481552 4294967295
2.4890001 2.2134769 -0.12084055 4294967295
2.4625001 2.2965639 -0.14877284 4294967295
2.4737775 2.2308238 -0.15376604 4294967295
2.4860001 2.2152238 -0.15832061 4294967295
2.4625001 2.2508509 -0.19591004 4294967295
2.4738441 2.233309 -0.18607026 4294967295
2.4847145 2.2155602 -0.17766345 4294967295
2.4630554 2.256434 -0.21257693 4294967295
2.4758837 2.2353268 -0.21595269 4294967295
2.46 2.2514224 -0.23513657 4294967295
2.4719687 2.2297022 -0.23843586 4294967295
2.4767501 2.2142835 -0.25319749 4294967295
2.4771106 2.2108529 -0.273588 4294967295
2.4890001 2.2086647 -0.29023784 4294967295
2.4930003 1.4732844 1.9078965 4294967295
2.493556 1.4605967 1.9067609 4294967295
2.4946668 1.2654145 1.9093093 4294967295
2.4936252 1.2509072 1.9075226 4294967295
2.506 0.80171531 1.9120183 4294967295
2.5060003 -0.89757419 1.9088318 4294967295
2.4988 -0.90291876 1.9108419 4294967295
2.4930003 1.4631622 1.8948822 4294967295
2.5033 0.79777741 1.8831218 4294967295
2.5017331 -0.89352232 1.8838178 4294967295
2.5075836 2.1975036 1.8490973 4294967295
2.5048184 2.1745853 1.8570125 4294967295
2.5039232 2.1468127 1.8611217 4294967295
2.5092502 2.112361 1.8562758 4294967295
2.5006924 2.0847011 1.8535892 4294967295
2.4930003 2.0647175 1.8486087 4294967295
2.501111 0.82282048 1.8426008 4294967295
2.503391 0.79206336 1.8511022 4294967295
2.5012307 -0.89192361 1.8547637 4294967295
2.5043809 2.2056935 1.8239411 4294967295
2.5140004 2.143888 1.8189749 4294967295
2.510118 2.1157236 1.8262228 4294967295
2.5020001 2.087075 1.8232222 4294967295
2.4930003 2.0623074 1.8240259 4294967295
2.4930003 1.5065435 1.8139036 4294967295
2.4930003 1.4920831 1.8139036 4294967295
2.4966669 1.2677752 1.8173413 4294967295
2.50072 1.2470914 1.8181188 4294967295
2.4942501 1.2237316 1.8131034 4294967295
2.493 1.1768448 1.8139036 4294967295
2.493 1.1502377 1.8179524 4294967295
2.493 1.125808 1.8210487 4294967295
2.493 1.1016505 1.8167957 4294967295
2.493 0.90498823 1.8139036 4294967295
2.5036151 0.88402539 1.8207353 4294967295
2.5070496 0.85365576 1.8330932 4294967295
2.5127499 0.82324165 1.8285074 4294967295
2.5117142 0.79667896 1.8265185 4294967295
2.5013075 -0.89775354 1.825348 4294967295
2.5024667 2.2054834 1.7951927 4294967295
2.5170002 2.1634326 1.8088403 4294967295
2.5119171 2.1425529 1.7979771 4294967295
2.5006194 2.1128893 1.7940924 4294967295
2.4933128 2.0837784 1.7952657 4294967295
2.4930003 2.0626516 1.8039879 4294967295
2.5024617 1.9602112 1.7826242 4294967295
2.5028129 1.9349108 1.7899531 4294967295
2.5036845 1.9046276 1.7934384 4294967295
2.5020001 1.8739042 1.7924342 4294967295
2.5030003 1.845639 1.8030281 4294967295
2.5062633 1.8138496 1.8030053 4294967295
2.4996114 1.7853734 1.7925097 4294967295
2.498667 1.7572783 1.7849396 4294967295
2.5026877 1.7257748 1.7862557 4294967295
2.5038819 1.6955775 1.7908282 4294967295
2.5039051 1.6649921 1.7935368 4294967295
2.5041611 1.633971 1.7924905 4294967295
2.5071723 1.606755 1.79716 4294967295
2.506 1.5748483 1.8015501 4294967295
2.5046668 1.5454564 1.7975614 4294967295
2.5051112 1.5164282 1.7986848 4294967295
2.5022228 1.4859812 1.8041581 4294967295
2.5042503 1.4559491 1.7964777 4294967295
2.503 1.4244982 1.787779 4294967295
2.5020399 1.393798 1.7881589 4294967295
2.5044997 1.3651432 1.7953691 4294967295
2.5044227 1.3346435 1.792758 4294967295
2.5046003 1.3052664 1.7915395 4294967295
2.5025263 1.2788038 1.8023329 4294967295
2.5136669 1.2390939 1.8071336 4294967295
2.5051427 1.2141227 1.8048238 4294967295
2.5025001 1.1849362 1.8023559 4294967295
2.5036774 1.1545168 1.7976727 4294967295
2.5001426 1.1246846 1.794376 4294967295
2.5000591 1.0958883 1.7955306 4294967295
2.5027995 1.0643477 1.7951541 4294967295
2.5019679 1.0336937 1.7928697 4294967295
2.5032918 1.0057575 1.7964703 4294967295
2.5034995 0.97536629 1.7954189 4294967295
2.4984736 0.94664001 1.78927 4294967295
2.4944587 0.91226625 1.7915074 4294967295
2.5067499 0.88586187 1.7954892 4294967295
2.508889 0.8541649 1.7956432 4294967295
2.5025625 0.82571679 1.7942013 4294967295
2.5080416 0.79695737 1.7943145 4294967295
2.4967499 -0.89957625 1.8028094 4294967295
2.5081429 -0.9026413 1.7909977 4294967295
2.5019476 2.2030232 1.7653658 4294967295
2.5106366 2.111892 1.7706182 4294967295
2.5000479 2.0872624 1.7628447 4294967295
2.4978004 2.0587761 1.7514672 4294967295
2.5047503 2.0206711 1.7565564 4294967295
2.5013893 1.9936125 1.7718201 4294967295
2.5008001 1.9754198 1.7784816 4294967295
2.5170002 1.8422396 1.7533615 4294967295
2.5170002 1.8218002 1.7562815 4294967295
2.5112004 1.7820665 1.7778997 4294967295
2.5005457 1.7589892 1.7787765 4294967295
2.4930003 1.737911 1.7791985 4294967295
2.5163474 1.6292961 1.766116 4294967295
2.5160625 1.6084087 1.7598338 4294967295
2.5170002 1.5435722 1.7779725 4294967295
2.5170002 1.5239668 1.7796409 4294967295
2.517 1.4159292 1.7796409 4294967295
2.5146472 1.3916101 1.7688509 4294967295
2.5142498 1.3642443 1.7640479 4294967295
2.5169995 1.3380643 1.7679611 4294967295
2.517 1.1239357 1.7796409 4294967295
2.5104001 0.93926126 1.7763314 4294967295
2.5053158 0.91617686 1.7750021 4294967295
2.5104616 0.88712186 1.7754644 4294967295
2.5076313 0.8548739 1.7724888 4294967295
2.5025907 0.82453597 1.7718796 4294967295
2.5068572 0.8053152 1.7745541 4294967295
2.5027499 -0.91117388 1.7652447 4294967295
2.5015416 2.2067082 1.7331985 4294967295
2.5115004 2.0790665 1.7467743 4294967295
2.506 2.0551248 1.7450513 4294967295
2.4980001 2.0369737 1.7469491 4294967295
2.5170002 1.8655992 1.7387619 4294967295
2.5121055 1.8438733 1.7345451 4294967295
2.5096841 1.8197145 1.7361368 4294967295
2.5170002 1.6261646 1.7446017 4294967295
2.5170002 1.6144848 1.7446017 4294967295
2.5120001 1.3723186 1.7479974 4294967295
2.5044999 -0.91688865 1.7327075 4294967295
2.5000556 2.2013671 1.7092836 4294967295
2.505429 2.1875117 1.6957841 4294967295
2.5109999 -0.8984009 1.695068 4294967295
2.5027273 -0.90792489 1.7070409 4294967295
2.5106001 2.1928751 1.6669264 4294967295
2.4986429 2.1857357 1.677282 4294967295
2.5014546 -0.89849228 1.6774114 4294967295
2.51 -0.90289277 1.6654888 4294967295
2.5120003 2.2232461 1.6314321 4294967295
2.5 2.2058001 1.644779 4294967295
2.4930003 2.1890774 1.6577306 4294967295
2.5038462 -0.90804744 1.6456845 4294967295
2.5100002 2.2535007 1.6043379 4294967295
2.5011113 2.2351913 1.6179048 4294967295
2.4930003 2.2179983 1.6288097 4294967295
2.5036998 -0.9064303 1.616127 4294967295
2.5108888 2.255265 1.5862719 4294967295
2.4930003 2.2469194 1.5860066 4294967295
2.5023332 -0.89916205 1.581989 4294967295
2.4955001 -0.90347195 1.5980737 4294967295
2.5052938 2.2535405 1.5525523 4294967295
2.4930003 2.2469194 1.5622915 4294967295
2.517 0.55746841 1.5460461 4294967295
2.4992499 -0.89902663 1.559103 4294967295
2.5093334 -0.90362549 1.5468032 4294967295
2.503917 2.2552879 1.5247163 4294967295
2.5050001 0.52283865 1.5222636 4294967295
2.5020001 -0.91453576 1.5254058 4294967295
2.5030003 2.2501247 1.5054948 4294967295
2.5037143 2.2395232 1.4920604 4294967295
2.5170002 2.2159915 1.4818077 4294967295
2.493 0.51166356 1.5015576 4294967295
2.4978335 -0.92363024 1.49377 4294967295
2.4967504 2.224221 1.4755156 4294967295
2.5024667 2.203939 1.4681283 4294967295
2.5043335 2.1835048 1.4563013 4294967295
2.5042224 -0.91855788 1.4633442 4294967295
2.5043337 2.1960979 1.4261237 4294967295
2.5009234 2.1839638 1.4417372 4294967295
2.5027499 -0.91188544 1.4327981 4294967295
2.5008574 2.2083826 1.4033064 4294967295
2.5005999 -0.91840774 1.4038246 4294967295
2.493 -0.93958861 1.3985991 4294967295
2.4978826 2.2025454 1.3814313 4294967295
2.5008752 2.1843665 1.3675711 4294967295
2.5050001 0.50831443 1.3638794 4294967295
2.4980001 -0.89761436 1.3702192 4294967295
2.5 -0.90881461 1.384156 4294967295
2.493 -0.94016701 1.3858739 4294967295
2.5170002 2.192632 1.3358109 4294967295
2.5013571 2.1814785 1.3464899 4294967295
2.5120001 0.50973487 1.3400186 4294967295
2.5008752 -0.89525712 1.3465412 4294967295
2.4930003 2.2295668 1.3137941 4294967295
2.5008159 2.20629 1.3148206 4294967295
2.4930003 2.1871495 1.3261039 4294967295
2.5013332 0.50757039 1.3162048 4294967295
2.5001428 -0.89893359 1.3146042 4294967295
2.5120001 -0.90070617 1.3050489 4294967295
2.4930003 2.2266748 1.2991111 4294967295
2.5030322 2.2098415 1.2865007 4294967295
2.5064001 0.50743288 1.2846962 4294967295
2.493 -0.89967769 1.296219 4294967295
2.5081251 -0.90221751 1.2849239 4294967295
2.50296 2.2140546 1.2534349 4294967295
2.493 0.50009519 1.2586218 4294967295
2.5064998 -0.90163314 1.2538954 4294967295
2.5017352 2.2057555 1.2243292 4294967295
2.5014 -0.89921349 1.2210451 4294967295
2.5120001 -0.90070617 1.2351098 4294967295
2.5011034 2.2063746 1.1945792 4294967295
2.5036874 -0.89516407 1.1938853 4294967295
2.5021925 2.2299469 1.1644239 4294967295
2.5027502 2.217943 1.1773033 4294967295
2.5046 -0.89513725 1.166159 4294967295
2.5029545 2.2331665 1.136444 4294967295
2.5018182 -0.89335203 1.1351149 4294967295
2.5033753 2.2250192 1.1135733 4294967295
2.5019093 2.2158771 1.0992461 4294967295
2.5032725 -0.89017683 1.1032531 4294967295
2.5027502 2.2040026 1.0756915 4294967295
2.4980001 -0.89857841 1.0862296 4294967295
2.5035455 -0.90769815 1.0721641 4294967295
2.50105 2.2297683 1.0370028 4294967295
2.5029233 2.2069228 1.0484679 4294967295
2.5040717 -0.91486233 1.0440264 4294967295
2.5023236 2.2325726 1.0165079 4294967295
2.5038333 -0.91647846 1.0142834 4294967295
2.4955001 2.2245579 0.99447066 4294967295
2.5043914 2.2096598 0.98182476 4294967295
2.5023844 -0.90974474 0.98493648 4294967295
2.4975386 2.1957123 0.96043062 4294967295
2.5040526 2.1865277 0.95061588 4294967295
2.5014663 -0.89652568 0.9527539 4294967295
2.493 -0.90546185 0.96941257 4294967295
2.493 2.1948617 0.93181527 4294967295
2.5017502 2.1856112 0.92503989 4294967295
2.5011666 -0.89874053 0.93220401 4294967295
2.5084002 -0.90173364 0.91864794 4294967295
2.5059998 2.1927013 0.8845408 4294967295
2.5003126 2.1864171 0.89640605 4294967295
2.5043333 0.50236869 0.89298278 4294967295
2.4963334 -0.89894485 0.88506269 4294967295
2.5066669 -0.90169168 0.90014267 4294967295
2.5060768 2.2327416 0.85815525 4294967295
2.503 2.2049282 0.8721633 4294967295
2.5054998 0.50260264 0.86993802 4294967295
2.5037777 -0.89193898 0.86678898 4294967295
2.5098751 2.2511995 0.83342445 4294967295
2.5018001 2.246119 0.83399141 4294967295
2.5017688 -0.88899177 0.83391142 4294967295
2.501467 2.2340145 0.81191492 4294967295
2.503 2.2060871 0.79852808 4294967295
2.493 0.50009519 0.79781502 4294967295
2.5058572 -0.89557946 0.80767596 4294967295
2.497875 -0.90360051 0.79714251 4294967295
2.5005 2.1950128 0.77288914 4294967295
2.5120001 2.1882763 0.76301998 4294967295
2.503 -0.90616816 0.77376175 4294967295
2.493 2.2237825 0.73226094 4294967295
2.5029142 2.2057147 0.74487901 4294967295
2.5120001 2.1882763 0.75719172 4294967295
2.5026667 0.50203431 0.75048524 4294967295
2.493 -0.89967769 0.74382931 4294967295
2.5036004 -0.9040671 0.74941623 4294967295
2.5031819 2.2222707 0.71410751 4294967295
2.5040667 2.2181325 0.71888 4294967295
2.5050001 0.50831443 0.72455645 4294967295
2.4988 -0.90988439 0.71535951 4294967295
2.5044191 2.209003 0.6858108 4294967295
2.5120001 0.51556313 0.68142426 4294967295
2.5015001 -0.92306 0.68944317 4294967295
2.503 -0.93232346 0.67503846 4294967295
2.505394 2.2041576 0.65685999 4294967295
2.5005 0.52480602 0.64876777 4294967295
2.4995 -0.93487585 0.65840882 4294967295
2.5036085 2.2127647 0.62481123 4294967295
2.5050001 0.53156251 0.62575197 4294967295
2.5026667 -0.94767791 0.62662953 4294967295
2.503 -0.96716774 0.61115724 4294967295
2.4960001 2.2229762 0.58541703 4294967295
2.5050433 2.2163033 0.59479898 4294967295
2.4979999 0.5300771 0.5819962 4294967295
2.493 -0.97776419 0.60211676 4294967295
2.4955001 2.2231107 0.57036 4294967295
2.50508 2.2150002 0.56311411 4294967295
2.5076666 0.52050662 0.5706144 4294967295
2.5039999 0.49358842 0.55600548 4294967295
2.5026667 -0.92637801 0.55307895 4294967295
2.5089998 -0.94910806 0.55898398 4294967295
2.5001667 -0.97474182 0.55499059 4294967295
2.5027499 -0.99900597 0.55889553 4294967295
2.5013998 2.2036259 0.53634989 4294967295
2.5036001 0.46155134 0.54379851 4294967295
2.5011666 0.43403086 0.536623 4294967295
2.5026002 0.40328708 0.5379923 4294967295
2.5037501 0.3744868 0.53858292 4294967295
2.5 0.34487629 0.53564245 4294967295
2.4980001 0.3156423 0.53562993 4294967295
2.5036001 0.28377891 0.53916007 4294967295
2.506 0.25268373 0.54149431 4294967295
2.5018334 0.22422473 0.53759855 4294967295
2.5049999 0.19445801 0.53567368 4294967295
2.5 0.16508162 0.53564245 4294967295
2.5020001 0.13616979 0.5356549 4294967295
2.5051668 0.10730097 0.53277683 4294967295
2.5032225 0.074289054 0.53244656 4294967295
2.4990001 0.043253046 0.53563619 4294967295
2.5027499 0.012093669 0.53348911 4294967295
2.5032501 -0.016933164 0.5276857 4294967295
2.5020001 -0.041591525 0.52623332 4294967295
2.4990001 -0.077072747 0.52549994 4294967295
2.5036669 -0.10380986 0.52664298 4294967295
2.4970002 -0.13638829 0.52403671 4294967295
2.5032499 -0.16794755 0.52623534 4294967295
2.5068333 -0.19508703 0.53278339 4294967295
2.4979999 -0.22337043 0.53562993 4294967295
2.5018001 -0.25275317 0.53565371 4294967295
2.5041428 -0.28367674 0.53152686 4294967295
2.5012856 -0.31403223 0.52571052 4294967295
2.5132 -0.34719706 0.52406293 4294967295
2.5132 -0.376331 0.52406293 4294967295
2.4996669 -0.40619192 0.52404106 4294967295
2.5011666 -0.43544456 0.52984661 4294967295
2.5091667 -0.46594667 0.53569978 4294967295
2.493 -0.49478474 0.53559864 4294967295
2.5121999 -0.5277167 0.54039067 4294967295
2.493 -0.55262655 0.53559864 4294967295
2.4960001 -0.58224493 0.53561741 4294967295
2.5074999 -0.61692351 0.53472531 4294967295
2.497 -0.64621329 0.52983016 4294967295
2.4959998 -0.67489862 0.52982622 4294967295
2.5092001 -0.70293409 0.53454316 4294967295
2.5105002 -0.7341454 0.53474408 4294967295
2.5009999 -0.76330572 0.52984595 4294967295
2.5 -0.79613322 0.53067625 4294967295
2.5050001 -0.82408071 0.53350461 4294967295
2.5078332 -0.85556394 0.53569144 4294967295
2.5014999 -0.88677394 0.53928375 4294967295
2.5026667 -0.90895808 0.54727232 4294967295
2.5027499 2.20052 0.50663137 4294967295
2.4950001 -0.34467912 0.51824468 4294967295
2.4959998 -0.37375906 0.51824397 4294967295
2.493 -0.39066935 0.51824605 4294967295
2.5045712 2.1963148 0.47589961 4294967295
2.493 2.1890774 0.47197258 4294967295
2.5056 2.2233663 0.43220389 4294967295
2.5021334 2.2086866 0.44625527 4294967295
2.5031362 2.2322717 0.41291046 4294967295
2.5018001 2.2246406 0.39344764 4294967295
2.5032496 2.2067683 0.38088673 4294967295
2.5025332 2.1935582 0.35372597 4294967295
2.4942501 2.1887259 0.36199388 4294967295
2.5045791 2.1958575 0.3270821 4294967295
2.493 2.1890774 0.31001538 4294967295
2.5107498 2.1966484 0.29906097 4294967295
2.493 2.1890774 0.2926628 4294967295
2.5086665 2.197006 0.26536557 4294967295
2.493 2.1871495 0.25795773 4294967295
2.5043886 2.1738782 0.2331962 4294967295
2.5024738 2.1741502 0.20470706 4294967295
2.5004396 2.1967392 0.17293695 4294967295
2.5041428 2.187218 0.1854054 4294967295
2.5020714 2.1937039 0.15125895 4294967295
2.4946668 2.1876447 0.13912749 4294967295
2.5139999 2.1919582 0.11770716 4294967295
2.4973752 2.1849468 0.11481431 4294967295
2.5040834 2.197824 0.083959728 4294967295
2.493 2.1890774 0.096000522 4294967295
2.5029562 2.2116814 0.054420561 4294967295
2.5042579 2.2131739 0.025871038 4294967295
2.5021305 2.216507 -0.0042375922 4294967295
2.517 2.2218313 -0.027798593 4294967295
2.5014737 2.2126877 -0.037097514 4294967295
2.5025599 2.1988406 -0.064710677 4294967295
2.5011818 2.19993 -0.095039904 4294967295
2.5029263 2.2070112 -0.12441814 4294967295
2.502923 2.2089317 -0.15472084 4294967295
2.5015416 2.2108192 -0.18404156 4294967295
2.5034997 2.2231174 -0.21749908 4294967295
2.5018001 2.2176688 -0.2038334 4294967295
2.5104003 2.2229848 -0.23779708 4294967295
2.501467 2.2146752 -0.24902976 4294967295
2.506846 2.2068 -0.27657694 4294967295
2.5082777 2.2024622 -0.29909241 4294967295
2.5469999 0.80640131 1.9305725 4294967295
2.5369999 -0.8978976 1.9309206 4294967295
2.5395 -0.90171975 1.9322935 4294967295
2.5419998 0.80334085 1.9115813 4294967295
2.5345001 -0.89699835 1.911854 4294967295
2.533875 0.78900319 1.885825 4294967295
2.5369999 0.77969015 1.875001 4294967295
2.5395 -0.89386559 1.8841585 4294967295
2.5320003 2.2018702 1.8494105 4294967295
2.5320005 2.1760769 1.8524954 4294967295
2.526737 2.1458895 1.8554747 4294967295
2.5220003 2.12677 1.8582124 4294967295
2.5220001 0.82774353 1.8406579 4294967295
2.5220001 0.78093171 1.8523608 4294967295
2.5361667 0.77844912 1.8519948 4294967295
2.5310001 -0.89577413 1.8512292 4294967295
2.5275557 2.2018173 1.8243474 4294967295
2.524143 2.1766841 1.8217063 4294967295
2.5220003 2.1501758 1.8328561 4294967295
2.5403335 1.2679473 1.8119298 4294967295
2.5330002 1.2544856 1.8111447 4294967295
2.5260003 0.87476271 1.8216548 4294967295
2.5253332 0.8561753 1.827171 4294967295
2.5232501 0.83327669 1.8296038 4294967295
2.5220001 0.78190696 1.8231035 4294967295
2.5356364 0.7755211 1.8242662 4294967295
2.5250001 -0.8983317 1.8234903 4294967295
2.5432501 -0.90157831 1.8252451 4294967295
2.5350559 2.2050769 1.7997717 4294967295
2.5330718 2.1738698 1.800674 4294967295
2.5270004 2.1485758 1.7875713 4294967295
2.5395002 1.9902917 1.7840241 4294967295
2.5331113 1.9637157 1.7896607 4294967295
2.5313752 1.9335016 1.7941667 4294967295
2.5345001 1.9041845 1.7867005 4294967295
2.536783 1.8758805 1.7923417 4294967295
2.5356367 1.8459699 1.799101 4294967295
2.5293076 1.818294 1.7894021 4294967295
2.5390003 1.7864667 1.7835782 4294967295
2.5363753 1.7533863 1.7893373 4294967295
2.5303335 1.7257668 1.7921845 4294967295
2.5379999 1.6903586 1.791316 4294967295
2.5288754 1.6646423 1.786311 4294967295
2.5270004 1.6007876 1.7867337 4294967295
2.524857 1.5781019 1.7864956 4294967295
2.5356841 1.5146754 1.7926943 4294967295
2.5336671 1.4855417 1.8002119 4294967295
2.536545 1.4547346 1.7910099 4294967295
2.52825 1.4310584 1.7823309 4294967295
2.5333333 1.3055754 1.7897772 4294967295
2.5261669 1.2774872 1.8047374 4294967295
2.534857 1.236078 1.8062049 4294967295
2.5350001 1.2113615 1.8015734 4294967295
2.5349412 1.1841729 1.7913597 4294967295
2.5295 1.1569046 1.7834382 4294967295
2.5355003 1.1274807 1.782414 4294967295
2.5346668 1.0965247 1.7872905 4294967295
2.5333333 1.0657703 1.7850529 4294967295
2.5311668 1.0338385 1.7847657 4294967295
2.5360909 1.0056688 1.7929271 4294967295
2.5351818 0.97590947 1.7892625 4294967295
2.527 0.9554348 1.7817082 4294967295
2.5344999 0.7919383 1.7934228 4294967295
2.5369999 0.77969015 1.8073088 4294967295
2.54 -0.90956396 1.7970446 4294967295
2.5470002 2.2246752 1.7651072 4294967295
2.528429 2.2134795 1.7660745 4294967295
2.5396926 2.1421332 1.767857 4294967295
2.5276253 2.1197772 1.7592885 4294967295
2.5470002 2.0739837 1.7532881 4294967295
2.5350003 2.0553875 1.7557116 4294967295
2.5357506 2.0236192 1.7706386 4294967295
2.5270002 2.001992 1.77526 4294967295
2.5420003 1.9006501 1.7656059 4294967295
2.5335627 1.876408 1.7669946 4294967295
2.5292222 1.8466176 1.7688122 4294967295
2.5322177 1.8163165 1.7660495 4294967295
2.5270004 1.7928787 1.7768204 4294967295
2.5401821 1.6652566 1.7660497 4294967295
2.5220003 1.6457791 1.764589 4294967295
2.5300004 1.5989192 1.7626234 4294967295
2.5345006 1.5782257 1.7673812 4294967295
2.5333047 1.5454439 1.7701448 4294967295
2.5257504 1.5277888 1.7752254 4294967295
2.5353332 1.4219315 1.7699705 4294967295
2.5286667 1.4035822 1.7593765 4294967295
2.5220001 1.3543758 1.7762918 4294967295
2.5326002 1.3316066 1.7620393 4294967295
2.5335002 1.3152736 1.7726034 4294967295
2.5395 1.1501818 1.7776396 4294967295
2.5369999 1.1387527 1.7778774 4294967295
2.5344999 0.94062424 1.7766284 4294967295
2.5320001 0.91327101 1.7724524 4294967295
2.5320003 0.88387442 1.7709769 4294967295
2.539 0.85627949 1.7706085 4294967295
2.5351818 0.82511127 1.7710832 4294967295
2.5320001 0.80752689 1.7753985 4294967295
2.53825 -0.92189676 1.7681614 4294967295
2.5361667 2.2107739 1.7333173 4294967295
2.5445001 2.1125293 1.7454295 4294967295
2.5323846 2.0871499 1.7448457 4294967295
2.5420003 1.9018228 1.7437804 4294967295
2.5305715 1.8760675 1.7369227 4294967295
2.5353336 1.8458325 1.7299918 4294967295
2.5355718 1.8230442 1.7393488 4294967295
2.5440004 1.6607275 1.7400236 4294967295
2.5335627 1.6364855 1.740886 4294967295
2.5292726 1.6090097 1.7457598 4294967295
2.534857 1.3898343 1.7473919 4294967295
2.5336668 1.363747 1.7472067 4294967295
2.5332499 1.3412956 1.7480932 4294967295
2.5369999 -0.91555071 1.7356887 4294967295
2.5315003 2.1976149 1.705819 4294967295
2.5470002 1.7135056 1.7148767 4294967295
2.5332499 -0.89803326 1.7010726 4294967295
2.5386667 -0.90240788 1.7158744 4294967295
2.5331113 2.204057 1.6753548 4294967295
2.5369999 -0.8978976 1.6895833 4294967295
2.5344999 -0.90582871 1.6707875 4294967295
2.5470002 2.2542226 1.6350987 4294967295
2.5326252 2.229732 1.642029 4294967295
2.5220003 2.2086906 1.6534109 4294967295
2.536 -0.91048187 1.6455803 4294967295
2.536375 2.2631965 1.6150028 4294967295
2.5270002 2.2482364 1.6234169 4294967295
2.5311666 -0.90463549 1.6164175 4294967295
2.5365005 2.2643323 1.5816376 4294967295
2.5220001 -0.8984403 1.5846561 4294967295
2.5469999 -0.90143681 1.5937325 4294967295
2.534308 2.2651422 1.5571624 4294967295
2.5353334 0.55369985 1.5554894 4294967295
2.5369999 0.53246665 1.5424266 4294967295
2.5220001 -0.8984403 1.5656389 4294967295
2.5320001 -0.90787274 1.5521631 4294967295
2.5361669 2.2681508 1.5214695 4294967295
2.5369999 0.52658039 1.5365403 4294967295
2.5270002 -0.92366225 1.5247315 4294967295
2.5320001 -0.9313761 1.5110383 4294967295
2.5345004 2.2548885 1.5046501 4294967295
2.5348575 2.2325158 1.4928243 4294967295
2.5436668 2.2099524 1.4841261 4294967295
2.5357499 -0.93127811 1.4963071 4294967295
2.5370004 2.1974146 1.4675586 4294967295
2.5220003 2.1852846 1.4603124 4294967295
2.5380001 -0.91826028 1.466264 4294967295
2.5358891 2.2058125 1.4373753 4294967295
2.5220003 2.1852846 1.4486095 4294967295
2.5351253 -0.9111951 1.4350432 4294967295
2.5328338 2.2122867 1.4060625 4294967295
2.534143 -0.9094767 1.4043583 4294967295
2.5351253 2.2003219 1.3762224 4294967295
2.5320001 0.51379329 1.3641715 4294967295
2.5220001 -0.8984403 1.366689 4294967295
2.5345001 -0.90289336 1.379709 4294967295
2.5320003 2.2009945 1.3418361 4294967295
2.5469999 0.61138862 1.3337156 4294967295
2.527 0.5127787 1.3537157 4294967295
2.5220001 -0.8984403 1.3462088 4294967295
2.5320001 -0.90200275 1.3377354 4294967295
2.5375001 2.2128375 1.3159463 4294967295
2.5220001 -0.8984403 1.3169514 4294967295
2.5369999 -0.90378392 1.3128417 4294967295
2.5403335 2.2227764 1.2765775 4294967295
2.5313754 2.2132146 1.2876227 4294967295
2.5320001 0.5079186 1.281926 4294967295
2.5370002 -0.90612453 1.283419 4294967295
2.5382502 2.222913 1.2617128 4294967295
2.5297778 2.2135258 1.2499373 4294967295
2.5380001 -0.90414017 1.2543025 4294967295
2.5383639 2.2090883 1.2260083 4294967295
2.5328333 -0.89738858 1.2194768 4294967295
2.5395 -0.90171975 1.2340915 4294967295
2.5420001 2.2262001 1.1890976 4294967295
2.5305717 2.2128286 1.2001413 4294967295
2.5345001 -0.89210755 1.196412 4294967295
2.5345004 2.2354348 1.16468 4294967295
2.5311668 -0.89583313 1.1671462 4294967295
2.5332501 2.2400787 1.1348703 4294967295
2.5336666 -0.89377284 1.135462 4294967295
2.5347779 2.2283628 1.1069734 4294967295
2.5332499 -0.89216155 1.1089008 4294967295
2.5469999 -0.90143681 1.0973365 4294967295
2.5341432 2.2125993 1.0742656 4294967295
2.5341432 -0.90863746 1.0767832 4294967295
2.5345001 2.2255037 1.0327494 4294967295
2.5328336 2.2122879 1.0461285 4294967295
2.5386665 -0.91353148 1.0470133 4294967295
2.5354373 2.2314703 1.0152924 4294967295
2.5359998 -0.91519552 1.0183471 4294967295
2.5303333 2.221848 0.99570549 4294967295
2.5365 2.2066622 0.98019505 4294967295
2.5369999 -0.8978976 0.97145808 4294967295
2.5319998 -0.90786773 0.98720753 4294967295
2.5341427 2.1924376 0.957497 4294967295
2.5220001 2.1852846 0.95123446 4294967295
2.5331109 -0.89454764 0.95574021 4294967295
2.533875 2.1955626 0.92241275 4294967295
2.5220001 2.1852846 0.93660581 4294967295
2.5220001 -0.8984403 0.93368006 4294967295
2.5420001 -0.90438324 0.9251579 4294967295
2.5331111 2.1994698 0.89502102 4294967295
2.5295 -0.89816898 0.8850162 4294967295
2.5357499 -0.90480149 0.90210384 4294967295
2.5386667 2.2527256 0.85395193 4294967295
2.5344999 2.2313812 0.8598659 4294967295
2.5357499 2.2126286 0.87048256 4294967295
2.5320001 0.5020439 0.85307491 4294967295
2.5332499 -0.89362442 0.86497998 4294967295
2.5365834 2.2582252 0.83699524 4294967295
2.5370002 2.2411132 0.8251372 4294967295
2.5295002 -0.88838947 0.83416617 4294967295
2.5319998 2.2262273 0.81782687 4294967295
2.533 2.2118409 0.80442119 4294967295
2.527 0.50105256 0.79671222 4294967295
2.5357502 -0.89377195 0.8042866 4294967295
2.5335383 2.1979797 0.77413535 4294967295
2.5295002 0.50154823 0.7734921 4294967295
2.5295 -0.89816892 0.785254 4294967295
2.5380001 -0.90177637 0.77260578 4294967295
2.5469999 2.2246752 0.73094916 4294967295
2.5337861 2.2034605 0.74664867 4294967295
2.5469999 0.51092756 0.74276811 4294967295
2.5336666 -0.90455467 0.75140083 4294967295
2.5350771 2.2237442 0.71231711 4294967295
2.527 2.2159951 0.72048652 4294967295
2.5469999 0.51683706 0.71913022 4294967295
2.5220001 -0.91014326 0.72887862 4294967295
2.534857 2.206491 0.68289471 4294967295
2.5369999 0.52069414 0.67714447 4294967295
2.5369999 -0.93615836 0.68303072 4294967295
2.5340588 2.2043586 0.65240711 4294967295
2.5220001 0.52931845 0.64110655 4294967295
2.5245001 -0.94033188 0.65000379 4294967295
2.5353334 2.2223258 0.61429685 4294967295
2.5343335 2.2151573 0.62719709 4294967295
2.5419998 0.53645915 0.62733966 4294967295
2.5336668 -0.94960546 0.62992901 4294967295
2.5345001 -0.96758431 0.61524177 4294967295
2.5365834 2.2229249 0.59521681 4294967295
2.5369999 2.2159407 0.60650921 4294967295
2.5320001 0.53729194 0.58871472 4294967295
2.5320001 -0.98424816 0.60633874 4294967295
2.5345001 -0.99991244 0.59173149 4294967295
2.5411665 2.2235003 0.56732631 4294967295
2.5279999 2.2162857 0.56279004 4294967295
2.5345001 0.5113458 0.56526065 4294967295
2.5336668 0.49062508 0.55741674 4294967295
2.5369999 0.47949022 0.55353272 4294967295
2.5353334 -0.92081809 0.55351073 4294967295
2.5345001 -0.94111347 0.55938017 4294967295
2.5220001 -0.98328668 0.55918598 4294967295
2.5220001 -0.99498957 0.55918598 4294967295
2.5320003 2.2102563 0.53518862 4294967295
2.5295 0.46339187 0.54756474 4294967295
2.5320001 0.43447068 0.54171729 4294967295
2.5286667 0.41338667 0.54168874 4294967295
2.5245001 0.36875957 0.54165298 4294967295
2.5409999 0.34464386 0.54179448 4294967295
2.5345001 0.31731054 0.54173875 4294967295
2.5345001 0.28490415 0.54469347 4294967295
2.5389998 0.25602278 0.54766828 4294967295
2.5253334 0.21947254 0.54166013 4294967295
2.5349998 0.19678693 0.54174304 4294967295
2.5310001 0.16713089 0.54170871 4294967295
2.5378332 0.1351635 0.54176736 4294967295
2.53075 0.10107593 0.53731221 4294967295
2.5386667 0.071377091 0.53982401 4294967295
2.5329998 0.043841463 0.54172587 4294967295
2.54075 0.01742761 0.54179239 4294967295
2.5339999 -0.0149738 0.53585517 4294967295
2.5303333 -0.046183228 0.53193122 4294967295
2.5220001 -0.067531489 0.52992862 4294967295
2.5220001 -0.11434326 0.52992862 4294967295
2.5220001 -0.13482338 0.52992862 4294967295
2.5303335 -0.16367666 0.53193122 4294967295
2.5386667 -0.18576895 0.53588438 4294967295
2.5378332 -0.22398229 0.54176736 4294967295
2.5419998 -0.25386164 0.54180306 4294967295
2.5336668 -0.2912477 0.53585309 4294967295
2.5303335 -0.31624028 0.53193122 4294967295
2.533 -0.34406093 0.5299719 4294967295
2.539 -0.37430954 0.5299955 4294967295
2.5278335 -0.40490323 0.52995157 4294967295
2.5344999 -0.44125304 0.53585827 4294967295
2.527 -0.49858955 0.54167444 4294967295
2.5220001 -0.51224321 0.54163152 4294967295
2.53 -0.55496764 0.54170018 4294967295
2.5359998 -0.58569884 0.54175162 4294967295
2.5469999 -0.60891777 0.54184598 4294967295
2.5336668 -0.64982307 0.53585309 4294967295
2.5286667 -0.6749227 0.5358218 4294967295
2.5220001 -0.69363886 0.53578007 4294967295
2.5319998 -0.76396239 0.53584266 4294967295
2.5336664 -0.7938261 0.53585309 4294967295
2.5419998 -0.85541582 0.54180306 4294967295
2.5286667 -0.87733972 0.54168874 4294967295
2.5336668 -0.90257716 0.54761016 4294967295
2.5384998 2.2142963 0.50643921 4294967295
2.5351253 2.2106154 0.4777773 4294967295
2.5345001 2.224508 0.43786588 4294967295
2.529 2.2112823 0.45251721 4294967295
2.5358236 2.2380829 0.41335362 4294967295
2.5379999 2.2250388 0.39219481 4294967295
2.5314443 2.2084582 0.37921348 4294967295
2.5315001 2.2023177 0.35375136 4294967295
2.5359998 2.2091832 0.32404074 4294967295
2.5386665 2.2134607 0.29341725 4294967295
2.533 2.2112696 0.26550958 4294967295
2.5357499 2.2001305 0.24316615 4294967295
2.5386667 2.185976 0.22566903 4294967295
2.5469999 2.195128 0.19318697 4294967295
2.5320001 2.1821847 0.20360762 4294967295
2.5324545 2.1953979 0.17476428 4294967295
2.5332499 2.2023633 0.1469661 4294967295
2.5361667 2.2044196 0.11516261 4294967295
2.533875 2.210258 0.083919942 4294967295
2.5444999 2.223963 0.053302735 4294967295
2.5270002 2.2150199 0.053085148 4294967295
2.5469999 2.2246752 0.036585897 4294967295
2.5340834 2.2143579 0.023364365 4294967295
2.5353334 2.2236156 -0.0066065192 4294967295
2.53075 2.2163246 0.0073898435 4294967295
2.5374546 2.2291701 -0.035727024 4294967295
2.5469999 2.2246752 -0.055010974 4294967295
2.538111 2.2123215 -0.066093862 4294967295
2.5310001 2.2065773 -0.094837725 4294967295
2.5333633 2.2111487 -0.1262027 4294967295
2.5295 2.2123156 -0.15375668 4294967295
2.5436666 2.2237258 -0.19589239 4294967295
2.5301249 2.2143302 -0.18180686 4294967295
2.5335002 2.2287397 -0.21654224 4294967295
2.5328333 2.2284465 -0.24476349 4294967295
2.5320001 2.2174482 -0.25723809 4294967295
2.5469999 2.2246752 -0.26184255 4294967295
2.5329258 2.2043045 -0.27514458 4294967295
2.5373569 2.1960483 -0.29924798 4294967295
2.5440001 2.1825054 -0.30164832 4294967295
2.5676818 0.79669178 1.9455448 4294967295
2.562 0.76360214 1.9418451 4294967295
2.5700002 0.74689859 1.9456903 4294967295
2.5644999 -0.90316063 1.9432249 4294967295
2.5642502 0.79281729 1.9190102 4294967295
2.5685005 0.76761872 1.9207214 4294967295
2.5619998 -0.89722556 1.9127133 4294967295
2.562 -0.90080142 1.9269912 4294967295
2.5586669 0.78238606 1.8934888 4294967295
2.5634284 0.77760899 1.8861411 4294967295
2.5695 -0.89747673 1.8923533 4294967295
2.562 0.77398419 1.8571323 4294967295
