# .PCD v0.7 - Point Cloud Data file format
VERSION 0.7
FIELDS x y z rgb
SIZE 4 4 4 4
TYPE F F F U
COUNT 1 1 1 1
WIDTH 1063
HEIGHT 1
VIEWPOINT 0 0 0 1 0 0 0
POINTS 1063
DATA ascii
2.3199704 -0.94062757 -0.56912619 4278190080
2.3166728 -0.94872004 -0.56912619 4278190080
2.3178489 -0.95866293 -0.57025087 4278190080
2.3144884 -0.96674788 -0.57025087 4278190080
2.3155887 -0.97671455 -0.57137567 4278190080
2.3164752 -0.98710483 -0.57250041 4278190080
2.3174908 -0.99711037 -0.57362521 4278190080
2.3182886 -1.0075395 -0.57474989 4278190080
2.3195739 -1.0167736 -0.57587469 4278190080
2.3160107 -1.0248642 -0.57587469 4278190080
2.3168674 -1.0349294 -0.57699949 4278190080
2.3132408 -1.0430105 -0.57699949 4278190080
2.3140199 -1.0530968 -0.57812417 4278190080
2.3103299 -1.0611677 -0.57812417 4278190080
2.3110318 -1.0712749 -0.57924896 4278190080
2.311691 -1.0813996 -0.5803737 4278190080
2.3123078 -1.0915421 -0.5814985 4278190080
2.3128819 -1.1017019 -0.58262318 4278190080
2.3134131 -1.1118791 -0.58374798 4278190080
2.3139014 -1.1220734 -0.58487272 4278190080
2.3099706 -1.1301435 -0.58487272 4278190080
2.3103805 -1.1403563 -0.58599752 4278190080
2.3063858 -1.148414 -0.58599752 4278190080
2.3067164 -1.1586446 -0.5871222 4278190080
2.3026578 -1.1666895 -0.5871222 4278190080
2.3029096 -1.1769372 -0.588247 4278190080
2.2987874 -1.1849687 -0.588247 4278190080
2.294637 -1.1929858 -0.588247 4278190080
2.2947733 -1.2032506 -0.58937174 4278190080
2.2905591 -1.2112535 -0.58937174 4278190080
2.2863171 -1.2192416 -0.58937174 4278190080
2.2863381 -1.2295225 -0.59049654 4278190080
2.2820325 -1.2374958 -0.59049654 4278190080
2.286248 -1.2501287 -0.59274602 4278190080
2.2861364 -1.2604538 -0.59387076 4278190080
2.2902391 -1.2731605 -0.59612024 4278190080
2.2900307 -1.2835292 -0.59724504 4278190080
2.2940195 -1.2963086 -0.59949458 4278190080
2.2937136 -1.3067199 -0.60061926 4278190080
2.2933631 -1.3171449 -0.60174406 4278190080
2.2929673 -1.3275832 -0.6028688 4278190080
2.292527 -1.3380349 -0.60399359 4278190080
2.2920415 -1.3484997 -0.60511833 4278190080
2.2915108 -1.3589772 -0.60624307 4278190080
2.2911737 -1.3690677 -0.60736787 4278190080
2.2903135 -1.3799703 -0.60849261 4278190080
2.2854824 -1.3879566 -0.60849261 4278190080
2.2847791 -1.3984693 -0.60961735 4278190080
2.2840297 -1.408994 -0.61074209 4278190080
2.2832351 -1.4195305 -0.61186689 4278190080
2.2826438 -1.4296802 -0.61299163 4278190080
2.281508 -1.4406381 -0.61411637 4278190080
2.2805755 -1.4512087 -0.61524111 4278190080
2.279597 -1.4617903 -0.61636591 4278190080
2.2785723 -1.4723828 -0.61749059 4278190080
2.2775016 -1.482986 -0.61861539 4278190080
2.2766452 -1.4932021 -0.61974013 4278190080
2.2754836 -1.5038261 -0.62086493 4278190080
2.2742753 -1.5144602 -0.62198961 4278190080
2.2730205 -1.5251042 -0.62311441 4278190080
2.2717192 -1.5357577 -0.62423915 4278190080
2.2663445 -1.5436779 -0.62423915 4278190080
2.2649593 -1.5543363 -0.62536395 4278190080
2.2635272 -1.5650036 -0.62648863 4278190080
2.262048 -1.57568 -0.62761343 4278190080
2.2605219 -1.586365 -0.62873816 4278190080
2.2589488 -1.5970584 -0.62986296 4278190080
2.2573285 -1.6077602 -0.63098764 4278190080
2.255661 -1.6184702 -0.63211244 4278190080
2.2539461 -1.6291879 -0.63323718 4278190080
2.2521839 -1.6399136 -0.63436198 4278190080
2.2543025 -1.653528 -0.63661146 4278190080
2.2524352 -1.6642821 -0.63773626 4278190080
2.2505202 -1.6750432 -0.638861 4278190080
2.2485576 -1.6858113 -0.63998574 4278190080
2.246547 -1.696586 -0.64111048 4278190080
2.2444887 -1.7073671 -0.64223528 4278190080
2.2423823 -1.7181544 -0.64336002 4278190080
2.2402279 -1.728948 -0.64448476 4278190080
2.2572575 -1.7546974 -0.65123332 4278190080
2.2549543 -1.7655694 -0.65235806 4278190080
2.2352538 -1.7748185 -0.65010852 4278190080
2.2276738 -1.9952708 -0.6816017 4278190080
2.2170775 -1.9997717 -0.6804769 4278190080
2.2136898 -2.0107744 -0.6816017 4278190080
2.2210364 -2.0316422 -0.68610072 4278190080
2.2175145 -2.0426834 -0.68722546 4278190080
2.2178731 -2.0566509 -0.68947494 4278190080
2.2213628 -2.0743556 -0.69284922 4278190080
2.2105594 -2.0787597 -0.69172448 4278190080
2.2418306 -2.1237028 -0.70409679 4278190080
2.209728 -2.1079757 -0.6962235 4278190080
2.2093832 -2.1224265 -0.69847304 4278190080
0.60146153 -0.62370247 -0.19120839 4278190080
0.69025892 -0.72080201 -0.22157678 4278190080
0.64745158 -0.68084222 -0.20807971 4278190080
0.60158712 -0.63705081 -0.1934579 4278190080
0.56270194 -0.60005563 -0.1810856 4278190080
0.82045883 -0.94482857 -0.28006408 4278190080
0.80761141 -0.93661785 -0.2766898 4278190080
0.7758202 -0.90612477 -0.26656699 4278190080
0.75056332 -0.8828451 -0.2586937 4278190080
1.9381623 -2.3789639 -0.69959778 4278190080
1.9267826 -2.3819273 -0.69847304 4278190080
1.9123548 -2.3810415 -0.6962235 4278190080
1.8949194 -2.3762753 -0.69284922 4278190080
1.8809794 -2.3749077 -0.69059974 4278190080
1.866655 -2.3738 -0.6883502 4278190080
1.8553593 -2.376461 -0.68722546 4278190080
1.8440681 -2.3790727 -0.68610072 4278190080
1.82981 -2.377773 -0.68385118 4278190080
1.8185412 -2.3802745 -0.68272644 4278190080
1.8013889 -2.3749633 -0.67935216 4278190080
1.7901571 -2.3773448 -0.67822742 4278190080
1.7643458 -2.3601668 -0.67147887 4278190080
1.7619033 -2.3741355 -0.67372841 4278190080
1.7593846 -2.3881159 -0.67597789 4278190080
1.6061997 -2.3652265 -0.65123332 4278190080
1.5929004 -2.3624611 -0.64898378 4278190080
1.5927725 -2.3801537 -0.65235806 4278190080
1.5763686 -2.373524 -0.64898378 4278190080
1.5627115 -2.3708768 -0.6467343 4278190080
0.30081558 -0.60045302 -0.14621818 4278190080
0.28571603 -0.57531905 -0.13946965 4278190080
1.0958432 -2.3694496 -0.59387076 4278190080
1.0895954 -2.3776894 -0.59499556 4278190080
1.0732324 -2.3637342 -0.59049654 4278190080
1.0709709 -2.380795 -0.59387076 4278190080
1.0666199 -2.393419 -0.59612024 4278190080
1.0425184 -2.3614726 -0.5871222 4278190080
1.0381731 -2.3740246 -0.58937174 4278190080
1.0279433 -2.3731637 -0.588247 4278190080
0.36526495 -0.87619942 -0.21032923 4278190080
0.36963978 -0.89548218 -0.21482825 4278190080
0.3720412 -0.9102962 -0.21820252 4278190080
0.35789698 -0.88449252 -0.21145399 4278190080
0.34937251 -0.87216884 -0.20807971 4278190080
0.33555099 -0.84621036 -0.20133118 4278190080
0.32903516 -0.83830643 -0.19908167 4278190080
0.78147745 -2.3423815 -0.56125283 4278190080
0.77634776 -2.3543487 -0.56350237 4278190080
0.76208687 -2.338516 -0.55900335 4278190080
0.75989246 -2.3597112 -0.56350237 4278190080
0.74721962 -2.3484218 -0.56012815 4278190080
0.7375564 -2.3463681 -0.55900335 4278190080
0.7283262 -2.3441486 -0.55787861 4278190080
0.71870965 -2.3420193 -0.55675381 4278190080
0.71194327 -2.3491762 -0.55787861 4278190080
0.69675529 -2.3283103 -0.5522548 4278190080
0.68862355 -2.3307283 -0.5522548 4278190080
0.6804837 -2.3331177 -0.5522548 4278190080
0.66417897 -2.3378115 -0.5522548 4278190080
0.55002981 -2.3322444 -0.5443815 4278190080
0.53699011 -2.3502758 -0.54775578 4278190080
0.52023411 -2.3141103 -0.53875774 4278190080
0.51361036 -2.3205793 -0.53988248 4278190080
0.50550675 -2.3223579 -0.53988248 4278190080
0.49943638 -2.3336363 -0.54213202 4278190080
0.48526967 -2.3067605 -0.53538346 4278190080
0.47820103 -2.3132114 -0.53650826 4278190080
0.46299312 -2.3212712 -0.537633 4278190080
0.40697709 -2.3366897 -0.53875774 4278190080
0.39881817 -2.3380961 -0.53875774 4278190080
0.38423511 -2.3010316 -0.52975976 4278190080
0.35173661 -2.3012946 -0.52863497 4278190080
0.34513977 -2.3121452 -0.53088444 4278190080
0.31459185 -2.2132077 -0.50726461 4278190080
0.32023987 -2.310807 -0.52975976 4278190080
0.31217185 -2.3119109 -0.52975976 4278190080
0.29911509 -2.338196 -0.53538346 4278190080
0.28854594 -2.3198876 -0.53088444 4278190080
0.28143686 -2.3256683 -0.53200924 4278190080
0.27615884 -2.3508294 -0.537633 4278190080
0.26519382 -2.3275764 -0.53200924 4278190080
0.25706759 -2.3284879 -0.53200924 4278190080
0.24842018 -2.3245268 -0.53088444 4278190080
0.22919902 -2.2922301 -0.52301121 4278190080
-0.011250056 -0.74945569 -0.16421425 4278190080
-0.01733898 -0.7883243 -0.1732123 4278190080
-0.02095951 -0.82235086 -0.1810856 4278190080
-0.023265466 -0.80279344 -0.17658657 4278190080
-0.025435043 -0.78323019 -0.17208755 4278190080
-0.028343953 -0.78800535 -0.1732123 4278190080
-0.030902378 -0.78303355 -0.17208755 4278190080
-0.033635445 -0.7829209 -0.17208755 4278190080
-0.036006305 -0.77793843 -0.1709628 4278190080
-0.038721554 -0.77780801 -0.1709628 4278190080
-0.040918 -0.7679382 -0.16871329 4278190080
-0.043322116 -0.7629267 -0.16758853 4278190080
-0.72983319 -2.2772605 -0.54325676 4278190080
-0.73627496 -2.2700648 -0.54213202 4278190080
-0.74571359 -2.27211 -0.54325676 4278190080
-0.74903423 -2.2556221 -0.53988248 4278190080
-0.75961119 -2.262363 -0.54213202 4278190080
-0.76750392 -2.2596974 -0.54213202 4278190080
-0.77696985 -2.2616124 -0.54325676 4278190080
-0.78645873 -2.2634883 -0.5443815 4278190080
-0.79596996 -2.2653258 -0.5455063 4278190080
-0.80387241 -2.2625334 -0.5455063 4278190080
-0.81341249 -2.2642984 -0.54663104 4278190080
-0.8213113 -2.2614453 -0.54663104 4278190080
-0.82920039 -2.2585647 -0.54663104 4278190080
-0.83877409 -2.2602241 -0.54775578 4278190080
-0.84665853 -2.2572825 -0.54775578 4278190080
-0.85798663 -2.2634242 -0.55000532 4278190080
-0.86413938 -2.2558663 -0.54888058 4278190080
-0.87200874 -2.252836 -0.54888058 4278190080
-1.1479119 -2.2793944 -0.5803737 4278190080
-1.1514484 -2.2666864 -0.57812417 4278190080
-1.1593535 -2.2626534 -0.57812417 4278190080
-1.1694815 -2.2629209 -0.57924896 4278190080
-1.1773734 -2.2588248 -0.57924896 4278190080
-1.1848575 -2.2549081 -0.57924896 4278190080
-1.1927212 -2.2507584 -0.57924896 4278190080
-1.2005708 -2.2465813 -0.57924896 4278190080
-1.2107165 -2.2466655 -0.5803737 4278190080
-1.2185514 -2.2424257 -0.5803737 4278190080
-1.2287128 -2.2424309 -0.5814985 4278190080
-1.2388886 -2.2423925 -0.58262318 4278190080
-1.2514503 -2.2465665 -0.58487272 4278190080
-1.2616704 -2.2464323 -0.58599752 4278190080
-1.2719045 -2.246254 -0.5871222 4278190080
-1.2821531 -2.2460315 -0.588247 4278190080
-1.2924153 -2.2457647 -0.58937174 4278190080
-1.3022995 -2.245681 -0.59049654 4278190080
-1.312589 -2.2453275 -0.59162122 4278190080
-1.3228923 -2.2449293 -0.59274602 4278190080
-1.3332083 -2.2444863 -0.59387076 4278190080
-1.3435378 -2.2439988 -0.59499556 4278190080
-1.3513625 -2.2392955 -0.59499556 4278190080
-1.3617024 -2.2387271 -0.59612024 4278190080
-1.3746015 -2.2422669 -0.59836978 4278190080
-1.3845894 -2.2418416 -0.59949458 4278190080
-1.3924066 -2.2369947 -0.59949458 4278190080
-1.4027954 -2.2362478 -0.60061926 4278190080
-1.4135863 -2.2352087 -0.60174406 4278190080
-1.4239985 -2.234369 -0.6028688 4278190080
-1.4344219 -2.2334843 -0.60399359 4278190080
-1.4448566 -2.2325535 -0.60511833 4278190080
-1.455302 -2.2315772 -0.60624307 4278190080
-1.476068 -2.2470987 -0.61186689 4278190080
-1.4919696 -2.2541201 -0.61524111 4278190080
-1.5214536 -2.2813237 -0.62423915 4278190080
-1.5212562 -2.2638679 -0.62086493 4278190080
-1.5291492 -2.258544 -0.62086493 4278190080
-1.5370238 -2.2531924 -0.62086493 4278190080
-1.5476388 -2.2518284 -0.62198961 4278190080
-1.5527163 -2.2424073 -0.62086493 4278190080
-1.5688965 -2.2489605 -0.62423915 4278190080
-1.557128 -2.215569 -0.61636591 4278190080
-1.5841683 -2.2382293 -0.62423915 4278190080
-1.5919714 -2.2326858 -0.62423915 4278190080
-1.775371 -2.2658427 -0.65573233 4278190080
-1.7862873 -2.2634561 -0.65685701 4278190080
-1.7820513 -2.2419519 -0.65235806 4278190080
-1.8050901 -2.2547338 -0.65798181 4278190080
-1.8190662 -2.2560039 -0.66023135 4278190080
-1.8330723 -2.2572043 -0.66248083 4278190080
-1.847109 -2.2583342 -0.66473037 4278190080
-1.8518832 -2.2481127 -0.66360563 4278190080
-1.8628298 -2.2453842 -0.66473037 4278190080
-1.8706567 -2.2388675 -0.66473037 4278190080
-1.8784603 -2.2323244 -0.66473037 4278190080
-1.8862411 -2.2257538 -0.66473037 4278190080
-1.8967738 -2.2231927 -0.66585511 4278190080
-1.9076974 -2.2202535 -0.66697985 4278190080
-1.9218115 -2.2209489 -0.66922939 4278190080
-1.9327536 -2.2178998 -0.67035413 4278190080
-1.9469106 -2.2184632 -0.67260367 4278190080
-1.9643213 -2.2226052 -0.67597789 4278190080
-1.9785455 -2.2230134 -0.67822742 4278190080
-1.9927965 -2.2233493 -0.6804769 4278190080
-2.0070744 -2.2236121 -0.68272644 4278190080
-2.0213778 -2.2238028 -0.68497592 4278190080
-2.0320301 -2.2206817 -0.68610072 4278190080
-2.0463719 -2.2207406 -0.6883502 4278190080
-2.057425 -2.217155 -0.68947494 4278190080
-2.0684781 -2.2135196 -0.69059974 4278190080
-2.0795307 -2.2098339 -0.69172448 4278190080
-2.0972855 -2.2131696 -0.69509876 4278190080
-2.0915444 -2.1917372 -0.69059974 4278190080
-2.1093092 -2.1949615 -0.69397402 4278190080
-2.3253117 -2.226779 -0.73446518 4278190080
-2.3189485 -2.2052197 -0.72996616 4278190080
-2.326632 -2.1971118 -0.72996616 4278190080
-2.3129647 -2.1689818 -0.72321761 4278190080
-2.3920491 -2.2127366 -0.74346322 4278190080
-2.608531 -1.9365594 -0.74121368 4278190080
-2.6152749 -1.9274423 -0.74121368 4278190080
-2.6062593 -1.9067951 -0.73671466 4278190080
-2.5655963 -1.8633312 -0.72321761 4278190080
-2.5799892 -1.8600619 -0.72546715 4278190080
-2.5702975 -1.8401526 -0.72096813 4278190080
-2.5651097 -1.8222549 -0.71759385 4278190080
-2.5435846 -1.7936369 -0.70972055 4278190080
-2.54983 -1.7847474 -0.70972055 4278190080
-2.5680475 -1.7841746 -0.71309483 4278190080
-2.5822811 -1.7807311 -0.71534431 4278190080
-2.5908549 -1.644206 -0.69959778 4278190080
-2.5553532 -1.6091915 -0.6883502 4278190080
-2.556823 -1.5976803 -0.68722546 4278190080
-2.5541031 -1.5836112 -0.68497592 4278190080
-2.5596154 -1.5746862 -0.68497592 4278190080
-2.5609384 -1.5632031 -0.68385118 4278190080
-2.562212 -1.5517306 -0.68272644 4278190080
-2.563437 -1.5402684 -0.6816017 4278190080
-2.5604284 -1.5263219 -0.67935216 4278190080
-2.5657406 -1.5173751 -0.67935216 4278190080
-2.5707583 -1.5088584 -0.67935216 4278190080
-2.5717993 -1.4974242 -0.67822742 4278190080
-2.6139057 -1.4021517 -0.67597789 4278190080
-2.6144834 -1.3907305 -0.67485315 4278190080
-2.593467 -1.3679584 -0.66810465 4278190080
-2.589592 -1.3543816 -0.66585511 4278190080
-2.585654 -1.3408486 -0.66360563 4278190080
-2.598984 -1.3362702 -0.66585511 4278190080
-2.5949521 -1.3227644 -0.66360563 4278190080
-2.6438189 -1.2452142 -0.66585511 4278190080
-2.6746373 -1.248341 -0.67260367 4278190080
-2.6478119 -1.2251438 -0.66473037 4278190080
-2.6432149 -1.2118331 -0.66248083 4278190080
-2.6871331 -1.0982401 -0.66135603 4278190080
-2.6819179 -1.085199 -0.65910655 4278190080
-2.6449873 -1.0595263 -0.64898378 4278190080
-2.6305544 -1.0431041 -0.64448476 4278190080
-2.126256 -0.83455485 -0.51851219 4278190080
-2.6729856 -1.0282043 -0.65235806 4278190080
-2.662899 -1.0136681 -0.64898378 4278190080
-2.2568202 -0.80539328 -0.5443815 4278190080
-2.3193414 -0.81858957 -0.55900335 4278190080
-2.6762016 -0.93457144 -0.6456095 4278190080
-2.6610274 -0.91886365 -0.64111048 4278190080
-2.6135023 -0.89225483 -0.62873816 4278190080
-2.3709407 -0.77265358 -0.56687665 4278190080
-2.4014471 -0.77333295 -0.57362521 4278190080
-1.9881573 -0.60973847 -0.47127247 4278190080
-1.9576346 -0.59290951 -0.46339917 4278190080
-1.9643601 -0.58746803 -0.46452394 4278190080
-1.9430366 -0.57370961 -0.45890015 4278190080
-1.9730906 -0.57510346 -0.46564868 4278190080
-1.979768 -0.56955969 -0.46677345 4278190080
-2.6831715 -0.73151654 -0.63323718 4278190080
-2.6339567 -0.70823085 -0.62086493 4278190080
-2.6411216 -0.70028102 -0.62198961 4278190080
-2.6341233 -0.68859267 -0.61974013 4278190080
-2.6835673 -0.69201958 -0.63098764 4278190080
-2.7331843 -0.69464791 -0.64223528 4278190080
-2.745044 -0.68747032 -0.64448476 4278190080
-2.671747 -0.6592114 -0.62648863 4278190080
-2.6503615 -0.64412874 -0.62086493 4278190080
-2.6289036 -0.62920344 -0.61524111 4278190080
-2.631084 -0.62002248 -0.61524111 4278190080
-2.6332321 -0.61083466 -0.61524111 4278190080
-2.6305988 -0.60055506 -0.61411637 4278190080
-2.632679 -0.59136903 -0.61411637 4278190080
-2.6299701 -0.58112466 -0.61299163 4278190080
-2.6319826 -0.57194024 -0.61299163 4278190080
-2.6291988 -0.5617317 -0.61186689 4278190080
-2.6359112 -0.55355203 -0.61299163 4278190080
-2.6425989 -0.54533237 -0.61411637 4278190080
-2.6540358 -0.5380407 -0.61636591 4278190080
-2.6606758 -0.52972382 -0.61749059 4278190080
-2.6816342 -0.52417165 -0.62198961 4278190080
-2.6595247 -0.51021844 -0.61636591 4278190080
-2.6517138 -0.49912962 -0.61411637 4278190080
-2.6389821 -0.4876774 -0.61074209 4278190080
-2.6502559 -0.48019996 -0.61299163 4278190080
-2.6615095 -0.47264975 -0.61524111 4278190080
-2.6823423 -0.46669632 -0.61974013 4278190080
-2.6743498 -0.45569381 -0.61749059 4278190080
-2.6615078 -0.44395125 -0.61411637 4278190080
-2.6534247 -0.43308872 -0.61186689 4278190080
-2.6452985 -0.42228803 -0.60961735 4278190080
-2.641943 -0.41229984 -0.60849261 4278190080
-2.6433659 -0.4030754 -0.60849261 4278190080
-2.6495757 -0.39456359 -0.60961735 4278190080
-2.6557579 -0.38601333 -0.61074209 4278190080
-2.6619127 -0.37742475 -0.61186689 4278190080
-2.6632142 -0.36813006 -0.61186689 4278190080
-2.6548264 -0.35753113 -0.60961735 4278190080
-2.6512275 -0.34762865 -0.60849261 4278190080
-2.6475923 -0.33775565 -0.60736787 4278190080
-2.6439202 -0.32791227 -0.60624307 4278190080
-2.6450489 -0.3186807 -0.60624307 4278190080
-2.6461451 -0.30944598 -0.60624307 4278190080
-2.6423683 -0.29965848 -0.60511833 4278190080
-2.6433983 -0.29043323 -0.60511833 4278190080
-2.6395514 -0.28068924 -0.60399359 4278190080
-2.6405151 -0.2714732 -0.60399359 4278190080
-2.6414008 -0.26271534 -0.60399359 4278190080
-2.6423018 -0.25349367 -0.60399359 4278190080
-2.6528728 -0.24516556 -0.60624307 4278190080
-2.6586065 -0.23587158 -0.60736787 4278190080
-2.6788306 -0.22824369 -0.61186689 4278190080
-2.6747553 -0.21849492 -0.61074209 4278190080
-2.6755016 -0.20915709 -0.61074209 4278190080
-2.6519239 -0.19800302 -0.60511833 4278190080
-2.6379874 -0.18816783 -0.60174406 4278190080
-2.6289067 -0.1782992 -0.59949458 4278190080
-2.6295133 -0.16912097 -0.59949458 4278190080
-2.6252246 -0.15964563 -0.59836978 4278190080
-2.6209283 -0.14974512 -0.59724504 4278190080
-2.6214349 -0.14059561 -0.59724504 4278190080
-2.6170208 -0.13165694 -0.59612024 4278190080
-2.6271975 -0.12297607 -0.59836978 4278190080
-2.6470799 -0.11464806 -0.6028688 4278190080
-2.6669362 -0.10618275 -0.60736787 4278190080
-2.6770279 -0.097226538 -0.60961735 4278190080
-2.6724815 -0.087721691 -0.60849261 4278190080
-2.6484227 -0.077677734 -0.6028688 4278190080
-2.6243267 -0.067803532 -0.59724504 4278190080
-2.6196766 -0.058533821 -0.59612024 4278190080
-2.6247361 -0.049481057 -0.59724504 4278190080
-2.6346354 -0.040468503 -0.59949458 4278190080
-2.639632 -0.031328917 -0.60061926 4278190080
-2.6445971 -0.022155646 -0.60174406 4278190080
-2.6446583 -0.012924285 -0.60174406 4278190080
-2.6398153 -0.0036859643 -0.60061926 4278190080
-2.6300685 0.0055081863 -0.59836978 4278190080
-2.6300333 0.014689365 -0.59836978 4278190080
-2.6250944 0.02382545 -0.59724504 4278190080
-2.6249952 0.032988455 -0.59724504 4278190080
-2.6248641 0.042151056 -0.59724504 4278190080
-2.6344428 0.051503599 -0.59949458 4278190080
-2.6342468 0.060699768 -0.59949458 4278190080
-2.6340189 0.0698945 -0.59949458 4278190080
-2.6288893 0.078942142 -0.59836978 4278190080
-2.6237288 0.087954834 -0.59724504 4278190080
-2.6185369 0.096932456 -0.59612024 4278190080
-2.6133149 0.10587561 -0.59499556 4278190080
-2.6129296 0.114997 -0.59499556 4278190080
-2.6125121 0.12411698 -0.59499556 4278190080
-2.6120629 0.13323545 -0.59499556 4278190080
-2.611582 0.14235231 -0.59499556 4278190080
-2.6110692 0.15146811 -0.59499556 4278190080
-2.6105247 0.1605814 -0.59499556 4278190080
-2.6099482 0.16969271 -0.59499556 4278190080
-2.6142001 0.17913499 -0.59612024 4278190080
-2.6232774 0.18895908 -0.59836978 4278190080
-2.622602 0.19811542 -0.59836978 4278190080
-2.646178 0.20918836 -0.60399359 4278190080
-2.6309035 0.21676223 -0.60061926 4278190080
-2.6252768 0.22552736 -0.59949458 4278190080
-2.6147687 0.23382193 -0.59724504 4278190080
-2.6041925 0.24250084 -0.59499556 4278190080
-2.6081791 0.25205818 -0.59612024 4278190080
-2.6169786 0.26213187 -0.59836978 4278190080
-2.6209412 0.27131042 -0.59949458 4278190080
-2.6490431 0.28356871 -0.60624307 4278190080
-2.618983 0.289601 -0.59949458 4278190080
-2.6179564 0.29874104 -0.59949458 4278190080
-2.6072206 0.30673966 -0.59724504 4278190080
-2.6061339 0.31583855 -0.59724504 4278190080
-2.6050155 0.32493359 -0.59724504 4278190080
-2.6038656 0.33402467 -0.59724504 4278190080
-2.6026838 0.34311169 -0.59724504 4278190080
-2.60147 0.35219523 -0.59724504 4278190080
-2.600225 0.36127377 -0.59724504 4278190080
-2.598948 0.37034789 -0.59724504 4278190080
-2.5976393 0.37941754 -0.59724504 4278190080
-2.5962992 0.38848254 -0.59724504 4278190080
-2.5949273 0.39754349 -0.59724504 4278190080
-2.5935237 0.40659893 -0.59724504 4278190080
-2.596899 0.41642073 -0.59836978 4278190080
-2.6002374 0.42627108 -0.59949458 4278190080
-2.6131482 0.43775964 -0.6028688 4278190080
-2.6356144 0.45098761 -0.60849261 4278190080
-2.6244259 0.45850784 -0.60624307 4278190080
-2.6371982 0.47023144 -0.60961735 4278190080
-2.6115746 0.47507429 -0.60399359 4278190080
-2.59553 0.48152137 -0.60061926 4278190080
-2.5890462 0.48967373 -0.59949458 4278190080
-2.5921049 0.49963012 -0.60061926 4278190080
-2.5903451 0.5086751 -0.60061926 4278190080
-2.5885539 0.51771384 -0.60061926 4278190080
-2.586731 0.52674627 -0.60061926 4278190080
-2.5848763 0.53577298 -0.60061926 4278190080
-2.5829904 0.54479247 -0.60061926 4278190080
-2.5858366 0.55482745 -0.60174406 4278190080
-2.588644 0.56488883 -0.6028688 4278190080
-2.5866563 0.57392132 -0.6028688 4278190080
-2.5846372 0.58294749 -0.6028688 4278190080
-2.5873353 0.59305435 -0.60399359 4278190080
-2.5852494 0.60208207 -0.60399359 4278190080
-2.5878732 0.6122241 -0.60511833 4278190080
-2.5857203 0.62125361 -0.60511833 4278190080
-2.5835359 0.6302762 -0.60511833 4278190080
-2.58132 0.63929045 -0.60511833 4278190080
-2.579073 0.64829689 -0.60511833 4278190080
-2.5767941 0.65729547 -0.60511833 4278190080
-2.5744841 0.66628605 -0.60511833 4278190080
-2.5721426 0.67526913 -0.60511833 4278190080
-2.5744774 0.68549687 -0.60624307 4278190080
-2.5720692 0.69447911 -0.60624307 4278190080
-2.5743282 0.70473939 -0.60736787 4278190080
-2.5765469 0.71502376 -0.60849261 4278190080
-2.5740352 0.72401375 -0.60849261 4278190080
-2.5714922 0.73299426 -0.60849261 4278190080
-2.568918 0.74196589 -0.60849261 4278190080
-2.5663126 0.7509284 -0.60849261 4278190080
-2.5590048 0.75849736 -0.60736787 4278190080
-2.5563414 0.76742584 -0.60736787 4278190080
-2.5583081 0.7777614 -0.60849261 4278190080
-2.5555778 0.78668666 -0.60849261 4278190080
-2.5574675 0.79705197 -0.60961735 4278190080
-2.5546696 0.80597419 -0.60961735 4278190080
-2.5518405 0.81488729 -0.60961735 4278190080
-2.5443447 0.82229155 -0.60849261 4278190080
-2.5599809 0.83722532 -0.61299163 4278190080
-2.5431674 0.84156454 -0.60961735 4278190080
-2.5448341 0.85198319 -0.61074209 4278190080
-2.4131484 0.84554529 -0.5814985 4278190080
-2.4055901 0.85233635 -0.5803737 4278190080
-2.3294897 0.86216646 -0.56462717 4278190080
-2.3127768 0.86517167 -0.56125283 4278190080
-2.2915144 0.86634851 -0.55675381 4278190080
-2.2566195 0.86217064 -0.54888058 4278190080
-2.2006192 0.85842794 -0.53650826 4278190080
-2.0651412 0.85583162 -0.50726461 4278190080
-2.0486588 0.85739297 -0.50389034 4278190080
-2.0052655 0.84746993 -0.49376756 4278190080
-1.892187 0.83889717 -0.46902296 4278190080
-1.9025877 0.85146713 -0.47239718 4278190080
-1.8907242 0.85409194 -0.4701477 4278190080
-1.8301044 0.83441222 -0.45552585 4278190080
-1.8271804 0.84079576 -0.45552585 4278190080
-1.8064135 0.83927572 -0.45102683 4278190080
-1.7902398 0.83937162 -0.44765261 4278190080
-1.7739408 0.83967471 -0.4442783 4278190080
-1.757957 0.83925599 -0.44090405 4278190080
-1.7418493 0.83904445 -0.43752977 4278190080
-1.7257646 0.83873075 -0.43415552 4278190080
-1.7097034 0.83831507 -0.43078128 4278190080
-1.6936662 0.837798 -0.427407 4278190080
-1.6776539 0.83717883 -0.42403275 4278190080
-1.6616666 0.83645815 -0.42065847 4278190080
-1.6500489 0.83784187 -0.41840896 4278190080
-1.6341056 0.83693379 -0.41503468 4278190080
-1.6225171 0.83816117 -0.41278517 4278190080
-1.6066197 0.83706635 -0.40941089 4278190080
-1.5950626 0.83813703 -0.40716138 4278190080
-1.5749083 0.83457494 -0.40266237 4278190080
-1.5633919 0.83547479 -0.40041286 4278190080
-1.5475997 0.83399379 -0.39703861 4278190080
-1.5361178 0.83473843 -0.3947891 4278190080
-1.5246496 0.83541322 -0.39253959 4278190080
-1.5131956 0.83601815 -0.39029008 4278190080
-1.4974999 0.83418244 -0.3869158 4278190080
-1.4860834 0.83463353 -0.38466629 4278190080
-1.4704427 0.8326143 -0.38129202 4278190080
-1.4548345 0.83049613 -0.37791777 4278190080
-1.4434816 0.83070928 -0.37566826 4278190080
-1.427931 0.82840854 -0.37229398 4278190080
-1.4166195 0.82846934 -0.37004447 4278190080
-1.4053253 0.82846087 -0.36779496 4278190080
-1.3898603 0.82589501 -0.36442071 4278190080
-1.37861 0.82573473 -0.3621712 4278190080
-1.3673778 0.82550597 -0.35992166 4278190080
-1.3561639 0.82520932 -0.35767215 4278190080
-1.349122 0.82739115 -0.35654742 4278190080
-1.3379376 0.82697242 -0.35429791 4278190080
-1.3309076 0.82906169 -0.35317314 4278190080
-1.3238795 0.83111197 -0.3520484 4278190080
-1.3127359 0.8305189 -0.34979889 4278190080
-1.3057209 0.83247703 -0.34867412 4278190080
-1.2946095 0.83176291 -0.34642461 4278190080
-1.2835191 0.83098143 -0.3441751 4278190080
-1.2724501 0.83013272 -0.34192559 4278190080
-1.2654735 0.83189344 -0.34080085 4278190080
-1.2544388 0.83092487 -0.33855134 4278190080
-1.2434262 0.82988948 -0.33630183 4278190080
-1.2324364 0.82878745 -0.33405232 4278190080
-1.2213248 0.82783216 -0.33180282 4278190080
-1.2103813 0.82659519 -0.32955328 4278190080
-1.1954479 0.82253051 -0.32617903 4278190080
-1.1847049 0.82094055 -0.32392952 4278190080
-1.1738428 0.81949329 -0.32168001 4278190080
-1.1630052 0.81798029 -0.3194305 4278190080
-1.1521925 0.81640196 -0.31718099 4278190080
-1.1453705 0.81758833 -0.31605622 4278190080
-1.1344565 0.81609064 -0.31380671 4278190080
-1.131601 0.82004565 -0.31380671 4278190080
-1.1247965 0.82111835 -0.31268197 4278190080
-1.1219236 0.82503957 -0.31268197 4278190080
-1.1190368 0.8289507 -0.31268197 4278190080
-1.1161364 0.83285177 -0.31268197 4278190080
-1.1054337 0.83088833 -0.31043246 4278190080
-1.0986422 0.83180141 -0.30930769 4278190080
-1.0918581 0.83267695 -0.30818295 4278190080
-1.0812179 0.83054745 -0.30593345 4278190080
-1.0744591 0.83133525 -0.30480868 4278190080
-1.0677079 0.83208597 -0.30368394 4278190080
-1.0609645 0.83279997 -0.30255917 4278190080
-1.0542293 0.83347678 -0.3014344 4278190080
-1.0475023 0.83411682 -0.30030963 4278190080
-1.0407839 0.83472008 -0.29918489 4278190080
-1.0301386 0.83240527 -0.29693538 4278190080
-1.0234481 0.83292079 -0.29581061 4278190080
-1.0167667 0.83339977 -0.29468587 4278190080
-1.0102397 0.83366615 -0.2935611 4278190080
-0.99608332 0.82784557 -0.29018685 4278190080
-0.99692345 0.83444446 -0.29131159 4278190080
-0.96406317 0.81296748 -0.28231359 4278190080
-1.002067 0.85101789 -0.29468587 4278190080
-1.0027927 0.8576771 -0.29581061 4278190080
-1.0034838 0.86435199 -0.29693538 4278190080
-0.8180989 0.88811934 -0.26994124 4278190080
-0.80841738 0.88378 -0.26769173 4278190080
-0.81187892 0.89380896 -0.26994124 4278190080
-0.7957018 0.88216686 -0.26544222 4278190080
-0.77009726 0.8658585 -0.2586937 4278190080
-0.7702952 0.87219298 -0.25981846 4278190080
-0.72869927 0.83092225 -0.24632141 4278190080
-0.72899383 0.83713484 -0.24744616 4278190080
-0.73244047 0.84704471 -0.24969567 4278190080
-0.73265278 0.8532927 -0.25082043 4278190080
-0.73283058 0.85955226 -0.25194517 4278190080
-0.72967535 0.86223233 -0.25194517 4278190080
-0.72666097 0.86477429 -0.25194517 4278190080
-0.72051686 0.86356467 -0.25082043 4278190080
-0.71128201 0.85857117 -0.24857092 4278190080
-0.70518583 0.85728627 -0.24744616 4278190080
-0.69602549 0.85219604 -0.24519666 4278190080
-0.68997771 0.85083646 -0.24407187 4278190080
-0.68700355 0.85323972 -0.24407187 4278190080
-0.68097895 0.85182726 -0.24294712 4278190080
-0.6780014 0.85419911 -0.24294712 4278190080
-0.67486596 0.85667843 -0.24294712 4278190080
-0.67187154 0.85902894 -0.24294712 4278190080
-0.66588092 0.85752094 -0.24182236 4278190080
-0.66288358 0.85984004 -0.24182236 4278190080
-0.65691692 0.85828012 -0.24069761 4278190080
-0.65391701 0.86056793 -0.24069761 4278190080
-0.64797515 0.85895598 -0.23957285 4278190080
-0.64497292 0.86121255 -0.23957285 4278190080
-0.63905609 0.85954899 -0.2384481 4278190080
-0.6331585 0.85785478 -0.23732334 4278190080
-0.62728083 0.85612977 -0.23619859 4278190080
-0.61855727 0.85043436 -0.2339491 4278190080
-0.60988122 0.84468853 -0.23169959 4278190080
-0.60409093 0.84285241 -0.23057483 4278190080
-0.59832072 0.84098637 -0.22945008 4278190080
-0.59538156 0.84306973 -0.22945008 4278190080
-0.59523153 0.84913218 -0.23057483 4278190080
-0.59226394 0.85120469 -0.23057483 4278190080
-0.58928913 0.85326689 -0.23057483 4278190080
-0.58630687 0.85531878 -0.23057483 4278190080
-0.58057725 0.85333216 -0.22945008 4278190080
-0.57486868 0.85131603 -0.22832532 4278190080
-0.56646895 0.84522349 -0.22607581 4278190080
-0.55811882 0.83908272 -0.2238263 4278190080
-0.5523563 0.8370564 -0.22270153 4278190080
-0.54676205 0.83490372 -0.22157678 4278190080
-0.5438444 0.83680713 -0.22157678 4278190080
-0.54092014 0.83870041 -0.22157678 4278190080
-0.53798902 0.84058356 -0.22157678 4278190080
-0.53505164 0.84245634 -0.22157678 4278190080
-0.53210765 0.84431887 -0.22157678 4278190080
-0.52915728 0.84617108 -0.22157678 4278190080
-0.52620041 0.84801298 -0.22157678 4278190080
-0.52323687 0.84984475 -0.22157678 4278190080
-0.51772749 0.84750849 -0.22045203 4278190080
-0.51476604 0.84931052 -0.22045203 4278190080
-0.50928766 0.84692705 -0.21932727 4278190080
-0.50383222 0.8445158 -0.21820252 4278190080
-0.49825272 0.8421638 -0.21707776 4278190080
-0.49531004 0.84389788 -0.21707776 4278190080
-0.48990995 0.84141147 -0.21595301 4278190080
-0.48453304 0.83889788 -0.21482825 4278190080
-0.48160183 0.84058404 -0.21482825 4278190080
-0.47866476 0.84226 -0.21482825 4278190080
-0.47332951 0.83968168 -0.2137035 4278190080
-0.47039562 0.8413288 -0.2137035 4278190080
-0.4674558 0.84296578 -0.2137035 4278190080
-0.4645105 0.84459233 -0.2137035 4278190080
-0.46155953 0.84620857 -0.2137035 4278190080
-0.45860294 0.84781456 -0.2137035 4278190080
-0.45564076 0.84941018 -0.2137035 4278190080
-0.45038489 0.84669441 -0.21257874 4278190080
-0.44742665 0.84826136 -0.21257874 4278190080
-0.44446298 0.84981799 -0.21257874 4278190080
-0.43925112 0.84703934 -0.21145399 4278190080
-0.43629178 0.84856743 -0.21145399 4278190080
-0.43111438 0.84574485 -0.21032923 4278190080
-0.42376482 0.83854818 -0.20807971 4278190080
-0.41850725 0.83573949 -0.20695496 4278190080
-0.41558725 0.83719534 -0.20695496 4278190080
-0.41251612 0.83871287 -0.20695496 4278190080
-0.40973255 0.84007621 -0.20695496 4278190080
-0.40679768 0.8415013 -0.20695496 4278190080
-0.40385786 0.84291613 -0.20695496 4278190080
-0.39882317 0.83991992 -0.2058302 4278190080
-0.39588892 0.84130692 -0.2058302 4278190080
-0.39486101 0.84716797 -0.20695496 4278190080
-0.39190125 0.8485412 -0.20695496 4278190080
-0.38893697 0.849904 -0.20695496 4278190080
-0.38797972 0.85569352 -0.20807971 4278190080
-0.38299417 0.85259855 -0.20695496 4278190080
-0.37803498 0.8494792 -0.2058302 4278190080
-0.37310201 0.84633583 -0.20470545 4278190080
-0.37014553 0.847633 -0.20470545 4278190080
-0.36525047 0.84444839 -0.20358069 4278190080
-0.36244813 0.84565496 -0.20358069 4278190080
-0.35744354 0.84249282 -0.20245594 4278190080
-0.35450032 0.84373546 -0.20245594 4278190080
-0.34968159 0.84046966 -0.20133118 4278190080
-0.34489 0.83718055 -0.20020643 4278190080
-0.33997995 0.83392775 -0.19908167 4278190080
-0.33524352 0.83059162 -0.19795692 4278190080
-0.33234221 0.83175677 -0.19795692 4278190080
-0.327645 0.82838142 -0.19683217 4278190080
-0.32475147 0.82952005 -0.19683217 4278190080
-0.32361394 0.83519143 -0.19795692 4278190080
-0.32069665 0.83631593 -0.19795692 4278190080
-0.31604701 0.83287537 -0.19683217 4278190080
-0.31313786 0.83397347 -0.19683217 4278190080
-0.31022489 0.83506143 -0.19683217 4278190080
-0.3073079 0.83613926 -0.19683217 4278190080
-0.30438739 0.8372069 -0.19683217 4278190080
-0.30146319 0.83826429 -0.19683217 4278190080
-0.30016798 0.84390157 -0.19795692 4278190080
-0.29883707 0.84954 -0.19908167 4278190080
-0.29586962 0.85057801 -0.19908167 4278190080
-0.29289877 0.85160559 -0.19908167 4278190080
-0.28992438 0.85262281 -0.19908167 4278190080
-0.28524604 0.84906149 -0.19795692 4278190080
-0.28074497 0.84542847 -0.19683217 4278190080
-0.27627298 0.8417744 -0.19570743 4278190080
-0.27333301 0.84273362 -0.19570743 4278190080
-0.27038971 0.84368259 -0.19570743 4278190080
-0.26744309 0.84462124 -0.19570743 4278190080
-0.26449302 0.8455497 -0.19570743 4278190080
-0.26153994 0.84646779 -0.19570743 4278190080
-0.25843585 0.84742069 -0.19570743 4278190080
-0.25688088 0.85298258 -0.19683217 4278190080
-0.25375295 0.85391831 -0.19683217 4278190080
-0.25106892 0.85471129 -0.19683217 4278190080
-0.24657875 0.85094643 -0.19570743 4278190080
-0.24092774 0.84243375 -0.1934579 4278190080
-0.23533899 0.83389229 -0.19120839 4278190080
-0.23242676 0.83470869 -0.19120839 4278190080
-0.22822125 0.83081704 -0.19008364 4278190080
-0.22659387 0.83631092 -0.19120839 4278190080
-0.22367327 0.83709681 -0.19120839 4278190080
-0.22199091 0.8425836 -0.19233315 4278190080
-0.22012526 0.8481071 -0.1934579 4278190080
-0.21716352 0.84887034 -0.1934579 4278190080
-0.21300793 0.84489924 -0.19233315 4278190080
-0.21005765 0.84563756 -0.19233315 4278190080
-0.20594639 0.84163344 -0.19120839 4278190080
-0.20186567 0.83761102 -0.19008364 4278190080
-0.1989409 0.83831048 -0.19008364 4278190080
-0.19712161 0.84374392 -0.19120839 4278190080
-0.19417547 0.84442681 -0.19120839 4278190080
-0.1912265 0.84509951 -0.19120839 4278190080
-0.18721659 0.84100646 -0.19008364 4278190080
-0.18323806 0.8368957 -0.18895888 4278190080
-0.17929007 0.83276755 -0.18783413 4278190080
-0.17638233 0.83338827 -0.18783413 4278190080
-0.17347202 0.83399892 -0.18783413 4278190080
-0.17138885 0.83940244 -0.18895888 4278190080
-0.16941552 0.84477234 -0.19008364 4278190080
-0.16740721 0.85013855 -0.19120839 4278190080
-0.1635139 0.84593445 -0.19008364 4278190080
-0.16055986 0.8465001 -0.19008364 4278190080
-0.15656599 0.84229308 -0.18895888 4278190080
-0.15362471 0.84283453 -0.18895888 4278190080
-0.14982513 0.8385697 -0.18783413 4278190080
-0.14689688 0.83908761 -0.18783413 4278190080
-0.1439673 0.8395952 -0.18783413 4278190080
-0.14103551 0.84009266 -0.18783413 4278190080
-0.13810199 0.84057987 -0.18783413 4278190080
-0.13439421 0.83624667 -0.18670937 4278190080
-0.13147417 0.83671069 -0.18670937 4278190080
-0.12781353 0.83234912 -0.18558462 4278190080
-0.12490714 0.8327902 -0.18558462 4278190080
-0.12199922 0.83322114 -0.18558462 4278190080
-0.11825648 0.82883972 -0.18445987 4278190080
-0.11536283 0.82924742 -0.18445987 4278190080
-0.11312179 0.83447278 -0.18558462 4278190080
-0.11020806 0.83486259 -0.18558462 4278190080
-0.10729345 0.83524215 -0.18558462 4278190080
-0.10437708 0.83561158 -0.18558462 4278190080
-0.10145988 0.83597082 -0.18558462 4278190080
-0.097825646 0.83149862 -0.18445987 4278190080
-0.094370492 0.8269946 -0.18333511 4278190080
-0.091482989 0.82731897 -0.18333511 4278190080
-0.088075824 0.82278913 -0.18221036 4278190080
-0.085203484 0.82309151 -0.18221036 4278190080
-0.082814381 0.82823163 -0.18333511 4278190080
-0.079923071 0.82851565 -0.18333511 4278190080
-0.07748121 0.83364052 -0.18445987 4278190080
-0.075004533 0.83875841 -0.18558462 4278190080
-0.072076537 0.83901507 -0.18558462 4278190080
-0.069547243 0.84411699 -0.18670937 4278190080
-0.066070817 0.83950937 -0.18558462 4278190080
-0.063139804 0.83973491 -0.18558462 4278190080
-0.05986014 0.83509076 -0.18445987 4278190080
-0.056613229 0.83043408 -0.18333511 4278190080
-0.053714391 0.83062661 -0.18333511 4278190080
-0.050814461 0.83080906 -0.18333511 4278190080
-0.048048768 0.83585358 -0.18445987 4278190080
-0.045130625 0.83601618 -0.18445987 4278190080
-0.042212378 0.83616865 -0.18445987 4278190080
-0.03929317 0.83631086 -0.18445987 4278190080
-0.036373481 0.83644295 -0.18445987 4278190080
-0.033259127 0.83169687 -0.18333511 4278190080
-0.030355586 0.83180791 -0.18333511 4278190080
-0.027291436 0.8270396 -0.18221036 4278190080
-0.024260508 0.82226008 -0.1810856 4278190080
-0.021389961 0.82233977 -0.1810856 4278190080
-0.018629272 0.82728004 -0.18221036 4278190080
-0.015833912 0.83221096 -0.18333511 4278190080
-0.013080473 0.8420037 -0.18558462 4278190080
-0.010141073 0.84204423 -0.18558462 4278190080
-0.0072432118 0.84694618 -0.18670937 4278190080
-0.0042870445 0.84696627 -0.18670937 4278190080
-0.0013227215 0.84210426 -0.18558462 4278190080
0.0016165099 0.84210372 -0.18558462 4278190080
0.0047032866 0.84209216 -0.18558462 4278190080
0.007598225 0.83719897 -0.18445987 4278190080
0.010581947 0.84203881 -0.18558462 4278190080
0.0134431 0.83712554 -0.18445987 4278190080
0.016364865 0.8370735 -0.18445987 4278190080
0.019286875 0.83701128 -0.18445987 4278190080
0.022078976 0.83206874 -0.18333511 4278190080
0.024983481 0.83198655 -0.18333511 4278190080
0.02788768 0.83189428 -0.18333511 4278190080
0.030610876 0.82692337 -0.18221036 4278190080
0.033694584 0.83167934 -0.18333511 4278190080
0.036597215 0.83155668 -0.18333511 4278190080
0.039731037 0.83629018 -0.18445987 4278190080
0.042650171 0.83614641 -0.18445987 4278190080
0.045833502 0.84085709 -0.18558462 4278190080
0.048768539 0.84069192 -0.18558462 4278190080
0.051849376 0.84050757 -0.18558462 4278190080
0.054783158 0.84032142 -0.18558462 4278190080
0.057715826 0.84012508 -0.18558462 4278190080
0.060297366 0.83505934 -0.18445987 4278190080
0.063211635 0.83484375 -0.18445987 4278190080
0.066125572 0.83461803 -0.18445987 4278190080
0.069038711 0.83438212 -0.18445987 4278190080
0.071950562 0.83413607 -0.18445987 4278190080
0.075007662 0.83386672 -0.18445987 4278190080
0.077917673 0.83359981 -0.18445987 4278190080
0.080827184 0.83332276 -0.18445987 4278190080
0.083735265 0.83303559 -0.18445987 4278190080
0.086642765 0.83273816 -0.18445987 4278190080
0.089549214 0.83243066 -0.18445987 4278190080
0.092454128 0.83211303 -0.18445987 4278190080
0.094803467 0.82694507 -0.18333511 4278190080
0.097689204 0.82660913 -0.18333511 4278190080
0.10057419 0.82626307 -0.18333511 4278190080
0.1036018 0.82588893 -0.18333511 4278190080
0.10648423 0.82552224 -0.18333511 4278190080
0.10950909 0.82512641 -0.18333511 4278190080
0.11224473 0.82475871 -0.18333511 4278190080
0.11512318 0.82436186 -0.18333511 4278190080
0.11799977 0.823955 -0.18333511 4278190080
0.12087537 0.82353806 -0.18333511 4278190080
0.12374905 0.82311118 -0.18333511 4278190080
0.12662166 0.82267416 -0.18333511 4278190080
0.13025066 0.82703966 -0.18445987 4278190080
0.13328092 0.82655674 -0.18445987 4278190080
0.13616507 0.82608652 -0.18445987 4278190080
0.13985711 0.8304103 -0.18558462 4278190080
0.14275511 0.82991707 -0.18558462 4278190080
0.14565092 0.82941371 -0.18558462 4278190080
0.1485454 0.82890022 -0.18558462 4278190080
0.15143764 0.82837671 -0.18558462 4278190080
0.1552213 0.83263236 -0.18670937 4278190080
0.15903652 0.83687162 -0.18783413 4278190080
0.16288276 0.84109437 -0.18895888 4278190080
0.16581792 0.84052068 -0.18895888 4278190080
0.16971022 0.84471321 -0.19008364 4278190080
0.17280543 0.84408545 -0.19008364 4278190080
0.17475675 0.83870775 -0.18895888 4278190080
0.17768349 0.83809257 -0.18895888 4278190080
0.18060808 0.83746719 -0.18895888 4278190080
0.18248636 0.83207297 -0.18783413 4278190080
0.18538989 0.83143085 -0.18783413 4278190080
0.18829073 0.83077872 -0.18783413 4278190080
0.19118972 0.83011639 -0.18783413 4278190080
0.19408639 0.82944387 -0.18783413 4278190080
0.19698024 0.8287614 -0.18783413 4278190080
0.20001635 0.82803392 -0.18783413 4278190080
0.20406613 0.83206224 -0.18895888 4278190080
0.2069695 0.83134484 -0.18895888 4278190080
0.20986991 0.83061737 -0.18895888 4278190080
0.21276821 0.82987964 -0.18895888 4278190080
0.21566346 0.82913196 -0.18895888 4278190080
0.21855654 0.82837409 -0.18895888 4278190080
0.22144695 0.82760608 -0.18895888 4278190080
0.22447866 0.8267889 -0.18895888 4278190080
0.22865644 0.83069742 -0.19008364 4278190080
0.23155445 0.82989424 -0.19008364 4278190080
0.23430525 0.82912183 -0.19008364 4278190080
0.23734243 0.8282575 -0.19008364 4278190080
0.24023232 0.82742393 -0.19008364 4278190080
0.24311928 0.82658029 -0.19008364 4278190080
0.24600284 0.82572669 -0.19008364 4278190080
0.24888384 0.8248629 -0.19008364 4278190080
0.25176138 0.82398915 -0.19008364 4278190080
0.2560761 0.8277595 -0.19120839 4278190080
0.25896415 0.82686055 -0.19120839 4278190080
0.26199287 0.82590586 -0.19120839 4278190080
0.26636326 0.82962501 -0.19233315 4278190080
0.26925775 0.82869011 -0.19233315 4278190080
0.27062729 0.82311702 -0.19120839 4278190080
0.27503639 0.82679021 -0.19233315 4278190080
0.27792093 0.82582504 -0.19233315 4278190080
0.28094575 0.82480091 -0.19233315 4278190080
0.28382331 0.82381517 -0.19233315 4278190080
0.28669697 0.82281947 -0.19233315 4278190080
0.2911866 0.82640862 -0.1934579 4278190080
0.29421347 0.82533586 -0.1934579 4278190080
0.2970928 0.82430375 -0.1934579 4278190080
0.29996809 0.8232618 -0.1934579 4278190080
0.30115631 0.81763804 -0.19233315 4278190080
0.30400875 0.81658173 -0.19233315 4278190080
0.30685705 0.8155157 -0.19233315 4278190080
0.31143364 0.81899321 -0.1934579 4278190080
0.31429031 0.81790125 -0.1934579 4278190080
0.31890696 0.82134068 -0.19458267 4278190080
0.32177219 0.82022244 -0.19458267 4278190080
0.326572 0.82356638 -0.19570743 4278190080
0.32944453 0.82242155 -0.19570743 4278190080
0.33245695 0.82120842 -0.19570743 4278190080
0.33702153 0.82461113 -0.19683217 4278190080
0.33989766 0.82342982 -0.19683217 4278190080
0.34464464 0.82673502 -0.19795692 4278190080
0.3494184 0.83001721 -0.19908167 4278190080
0.35231373 0.82879239 -0.19908167 4278190080
0.35520479 0.82755744 -0.19908167 4278190080
0.35809109 0.82631266 -0.19908167 4278190080
0.36097345 0.82505757 -0.19908167 4278190080
0.36385098 0.82379264 -0.19908167 4278190080
0.36672449 0.82251745 -0.19908167 4278190080
0.36959356 0.82123226 -0.19908167 4278190080
0.37245768 0.81993723 -0.19908167 4278190080
0.3773481 0.82306063 -0.20020643 4278190080
0.38036209 0.82167214 -0.20020643 4278190080
0.38322812 0.82033932 -0.20020643 4278190080
0.38608906 0.81899673 -0.20020643 4278190080
0.3889457 0.81764394 -0.20020643 4278190080
0.38968948 0.81188911 -0.19908167 4278190080
0.39039743 0.80613929 -0.19795692 4278190080
0.39320919 0.80477154 -0.19795692 4278190080
0.3981697 0.80776399 -0.19908167 4278190080
0.40329796 0.81066096 -0.20020643 4278190080
0.40831017 0.81360263 -0.20133118 4278190080
0.41569164 0.82079321 -0.20358069 4278190080
0.42062679 0.82374907 -0.20470545 4278190080
0.42573053 0.82660687 -0.2058302 4278190080
0.4308593 0.82943898 -0.20695496 4278190080
0.43375167 0.82793009 -0.20695496 4278190080
0.43663922 0.82641089 -0.20695496 4278190080
0.43966511 0.82480502 -0.20695496 4278190080
0.44254172 0.82326519 -0.20695496 4278190080
0.44309086 0.81743252 -0.2058302 4278190080
0.4436051 0.81160581 -0.20470545 4278190080
0.44408366 0.80578578 -0.20358069 4278190080
0.44689384 0.80423063 -0.20358069 4278190080
0.4496986 0.80266565 -0.20358069 4278190080
0.45489347 0.80533308 -0.20470545 4278190080
0.46011284 0.80797374 -0.2058302 4278190080
0.46535575 0.81058794 -0.20695496 4278190080
0.47076496 0.81309289 -0.20807971 4278190080
0.47605586 0.81565243 -0.20920448 4278190080
0.48137075 0.81818467 -0.21032923 4278190080
0.48670909 0.82068962 -0.21145399 4278190080
0.48957059 0.81898588 -0.21145399 4278190080
0.49494088 0.82144475 -0.21257874 4278190080
0.49794817 0.81962526 -0.21257874 4278190080
0.50080633 0.817882 -0.21257874 4278190080
0.50380051 0.81604105 -0.21257874 4278190080
0.50650388 0.81436586 -0.21257874 4278190080
0.50934321 0.81259304 -0.21257874 4278190080
0.51217675 0.81081003 -0.21257874 4278190080
0.5150041 0.80901718 -0.21257874 4278190080
0.51782465 0.80721468 -0.21257874 4278190080
0.52342564 0.80940211 -0.2137035 4278190080
0.52890736 0.81165195 -0.21482825 4278190080
0.53173751 0.80980068 -0.21482825 4278190080
0.53724897 0.81200284 -0.21595301 4278190080
0.54278272 0.81417602 -0.21707776 4278190080
0.54562157 0.8122763 -0.21707776 4278190080
0.54845333 0.81036693 -0.21707776 4278190080
0.55402362 0.81247252 -0.21820252 4278190080
0.55685604 0.81053388 -0.21820252 4278190080
0.56522757 0.81659669 -0.22045203 4278190080
0.57100403 0.8185153 -0.22157678 4278190080
0.57665926 0.82050294 -0.22270153 4278190080
0.58233482 0.82246131 -0.2238263 4278190080
0.5852024 0.82042348 -0.2238263 4278190080
0.58806276 0.81837559 -0.2238263 4278190080
0.59091562 0.81631809 -0.2238263 4278190080
0.59376168 0.81425029 -0.2238263 4278190080
0.59660006 0.81217289 -0.2238263 4278190080
0.59943157 0.8100853 -0.2238263 4278190080
0.60225582 0.80798787 -0.2238263 4278190080
0.60214716 0.80198485 -0.22270153 4278190080
0.60788184 0.80376375 -0.2238263 4278190080
0.60773122 0.79776162 -0.22270153 4278190080
0.61347824 0.79950041 -0.2238263 4278190080
0.61938429 0.80110085 -0.22495106 4278190080
0.62816375 0.80662131 -0.22720057 4278190080
0.63398206 0.80825722 -0.22832532 4278190080
0.64284003 0.8136847 -0.23057483 4278190080
0.65174347 0.81906009 -0.23282434 4278190080
0.6545983 0.81678033 -0.23282434 4278190080
0.65744561 0.8144902 -0.23282434 4278190080
0.6602844 0.81219053 -0.23282434 4278190080
0.66311562 0.80988061 -0.23282434 4278190080
0.66593879 0.80756086 -0.23282434 4278190080
0.671866 0.80897945 -0.2339491 4278190080
0.67468596 0.80662912 -0.2339491 4278190080
0.68063599 0.80799538 -0.23507385 4278190080
0.68660414 0.80932951 -0.23619859 4278190080
0.68956572 0.80680764 -0.23619859 4278190080
0.69555622 0.80808794 -0.23732334 4278190080
0.70156395 0.80933619 -0.2384481 4278190080
0.70758849 0.81055272 -0.23957285 4278190080
0.71363038 0.81173658 -0.24069761 4278190080
0.71968871 0.8128885 -0.24182236 4278190080
0.71927989 0.80673486 -0.24069761 4278190080
0.73185623 0.81509411 -0.24407187 4278190080
0.73424858 0.80636287 -0.24294712 4278190080
0.73061252 0.79648602 -0.24069761 4278190080
0.75322318 0.81540275 -0.24744616 4278190080
0.72951865 0.7842319 -0.2384481 4278190080
0.74890518 0.79945791 -0.24407187 4278190080
0.74834794 0.79329526 -0.24294712 4278190080
0.75446808 0.79421026 -0.24407187 4278190080
0.75723594 0.79157168 -0.24407187 4278190080
0.76337427 0.79243255 -0.24519666 4278190080
0.76952809 0.79325968 -0.24632141 4278190080
0.77569652 0.79405391 -0.24744616 4278190080
0.78188026 0.79481429 -0.24857092 4278190080
0.78807873 0.79554111 -0.24969567 4278190080
0.79098916 0.79264748 -0.24969567 4278190080
0.79720467 0.79331785 -0.25082043 4278190080
0.80343407 0.79395497 -0.25194517 4278190080
0.80967796 0.79455775 -0.25306994 4278190080
0.8124463 0.79172683 -0.25306994 4278190080
0.81520516 0.78888589 -0.25306994 4278190080
0.81795412 0.7860353 -0.25306994 4278190080
0.81730431 0.7796694 -0.25194517 4278190080
0.82709432 0.78351295 -0.25419468 4278190080
0.81917888 0.77060658 -0.25082043 4278190080
0.8645857 0.80765057 -0.26431748 4278190080
0.83168209 0.77149546 -0.25306994 4278190080
0.81645387 0.75208366 -0.24744616 4278190080
1.1274358 0.82576281 -0.31380671 4278190080
1.1303116 0.82182205 -0.31380671 4278190080
1.1331731 0.81787187 -0.31380671 4278190080
1.0647355 0.76283795 -0.2935611 4278190080
1.0834069 0.77022201 -0.29806012 4278190080
1.0940502 0.77205324 -0.30030963 4278190080
1.1047189 0.77382016 -0.30255917 4278190080
1.1034133 0.76717782 -0.3014344 4278190080
1.1421722 0.78822565 -0.3115572 4278190080
1.0886455 0.74569035 -0.29581061 4278190080
