# .PCD v0.7 - Point Cloud Data file format
VERSION 0.7
FIELDS x y z rgb
SIZE 4 4 4 4
TYPE F F F U
COUNT 1 1 1 1
WIDTH 1102
HEIGHT 1
VIEWPOINT 0 0 0 1 0 0 0
POINTS 1102
DATA ascii
1.321 0.7645784 -0.035684466 4294967295
1.3380002 0.70008963 -0.024383307 4294967295
1.3343333 0.67509055 -0.031997383 4294967295
1.3326669 0.64662021 -0.028218448 4294967295
1.3413571 0.34065172 -0.020902097 4294967295
1.3422223 0.32115036 -0.02073276 4294967295
1.3312857 0.16145992 -0.02068609 4294967295
1.3367674 0.134418 -0.022890329 4294967295
1.3361852 0.11085194 -0.022647798 4294967295
1.3387001 0.064166732 -0.021065056 4294967295
1.3389258 0.046632539 -0.021692455 4294967295
1.3407501 0.024366679 -0.020268619 4294967295
1.3390476 -0.079932347 -0.021366775 4294967295
1.3368213 -0.10281779 -0.020945489 4294967295
1.3416667 -0.14591111 -0.020508111 4294967295
1.3426841 -0.1648237 -0.021354318 4294967295
1.340889 -0.19318749 -0.020195305 4294967295
1.3373215 -0.22606662 -0.021591067 4294967295
1.3370769 -0.25532356 -0.024297297 4294967295
1.3384137 -0.28521633 -0.021475911 4294967295
1.3346847 -0.31516829 -0.021210968 4294967295
1.33675 -0.33430699 -0.020591021 4294967295
1.3367332 -0.40754339 -0.021505713 4294967295
1.337 -0.42045724 -0.020700514 4294967295
1.3334445 -0.475694 -0.020617783 4294967295
1.3399614 -0.49313268 -0.021646082 4294967295
1.339 -0.68639308 -0.02026242 4294967295
1.3404285 -0.69565457 -0.020305514 4294967295
1.3345997 -0.73954213 -0.021103978 4294967295
1.3387778 -0.76321644 -0.021755636 4294967295
1.3786249 -0.92853749 1.2779098 4294967295
1.3723683 -0.9323144 1.2795393 4294967295
1.3597617 -0.92889094 1.2568135 4294967295
1.3700856 -0.93128181 1.2550533 4294967295
1.3647949 -0.92605954 1.2222284 4294967295
1.3679092 -0.93046832 1.2354362 4294967295
1.3643399 -0.92093503 1.1937087 4294967295
1.3641053 -0.91646272 1.166333 4294967295
1.3651139 -0.92358357 1.1348301 4294967295
1.3625003 -0.92523408 1.1055295 4294967295
1.3748572 -0.93044186 1.098228 4294967295
1.3656667 -0.92666668 1.0752227 4294967295
1.375 -0.93008405 1.0868944 4294967295
1.3654723 -0.92502296 1.0462463 4294967295
1.3789999 0.51019168 1.0021566 4294967295
1.3652251 -0.92590129 1.0136374 4294967295
1.3693334 -0.93100148 1.001948 4294967295
1.3789999 0.51019168 0.9989571 4294967295
1.3679655 0.49721107 0.98329937 4294967295
1.3730769 0.46853688 0.97582698 4294967295
1.3702691 -0.92299569 0.98205614 4294967295
1.361689 -0.93312478 0.98803711 4294967295
1.3559999 0.48280233 0.96894562 4294967295
1.3644893 0.46290004 0.95563352 4294967295
1.3635188 -0.92340189 0.95612097 4294967295
1.375 -0.93008405 0.94014359 4294967295
1.3731251 0.78279483 0.91607839 4294967295
1.3673528 0.76971412 0.92625403 4294967295
1.3669376 0.48965907 0.92239785 4294967295
1.3624285 0.47446775 0.93515724 4294967295
1.357125 -0.92742413 0.93664634 4294967295
1.3664584 -0.93345618 0.92378408 4294967295
1.354 0.84022558 0.89288723 4294967295
1.3599436 0.82326078 0.88872486 4294967295
1.3671097 0.79401833 0.89367926 4294967295
1.355 0.77953798 0.90888178 4294967295
1.3690666 0.50142246 0.90273547 4294967295
1.3631428 -0.92641801 0.88881916 4294967295
1.3678999 -0.93192101 0.90161562 4294967295
1.3667755 0.82153499 0.86724514 4294967295
1.3768654 0.80274349 0.86655974 4294967295
1.3651228 -0.91916984 0.86581004 4294967295
1.3708118 0.82147878 0.83422959 4294967295
1.3747884 0.80336791 0.8348186 4294967295
1.364511 -0.9237327 0.83427864 4294967295
1.3685 0.8207981 0.80484951 4294967295
1.3753104 0.80062485 0.80418617 4294967295
1.3645625 -0.91949838 0.80555147 4294967295
1.3652562 0.82044762 0.77548486 4294967295
1.3723474 0.80025578 0.77548659 4294967295
1.3645911 -0.9238798 0.77591407 4294967295
1.3737501 0.84464228 0.74159944 4294967295
1.3714341 0.82484102 0.7460838 4294967295
1.3751523 0.80110258 0.74538875 4294967295
1.364485 -0.9260149 0.74649835 4294967295
1.3737143 -0.93057764 0.73667812 4294967295
1.3722064 0.82069474 0.71512926 4294967295
1.3744854 0.79960233 0.71418202 4294967295
1.3650833 -0.92747933 0.71469361 4294967295
1.3744167 -0.93021965 0.71514833 4294967295
1.3677852 0.82050353 0.68616509 4294967295
1.3707852 0.80014205 0.68373746 4294967295
1.3600416 -0.9259941 0.68284833 4294967295
1.3743572 -0.93101251 0.68780696 4294967295
1.3672918 0.81489807 0.65411335 4294967295
1.3706985 0.79795593 0.65539473 4294967295
1.3652728 -0.91931999 0.65449834 4294967295
1.3715 0.84312975 0.61449772 4294967295
1.3733044 0.82372504 0.62284827 4294967295
1.3727601 0.79715985 0.62604785 4294967295
1.364154 -0.9169355 0.62622362 4294967295
1.3739998 0.84426636 0.60151523 4294967295
1.3740822 0.82386732 0.59703881 4294967295
1.3730718 0.7977075 0.59463382 4294967295
1.3634166 -0.92310208 0.59645432 4294967295
1.3658574 0.81921828 0.56621301 4294967295
1.367769 0.7970733 0.56454349 4294967295
1.3650699 -0.92032075 0.56418943 4294967295
1.3634286 0.81679672 0.53485787 4294967295
1.3676764 0.79498464 0.53441948 4294967295
1.3654165 -0.92231458 0.534751 4294967295
1.3656772 0.81629342 0.50266236 4294967295
1.3673012 0.79424536 0.50599468 4294967295
1.3723127 0.77556461 0.49496463 4294967295
1.3755333 0.48869306 0.49712023 4294967295
1.3656532 -0.91526151 0.50578082 4294967295
1.3729856 0.82166839 0.47496158 4294967295
1.3698745 0.79370046 0.47377148 4294967295
1.3718125 0.77368855 0.47963458 4294967295
1.3776429 0.48777014 0.47222662 4294967295
1.3646866 -0.91785491 0.47272685 4294967295
1.3684473 0.81719232 0.44685647 4294967295
1.37017 0.79856044 0.44526684 4294967295
1.3775176 0.48972246 0.4443185 4294967295
1.3790001 0.47819653 0.44544095 4294967295
1.3644429 -0.91928142 0.44573322 4294967295
1.3660666 0.81675881 0.41328669 4294967295
1.3691357 0.8004905 0.41141057 4294967295
1.3788333 0.49040186 0.42652142 4294967295
1.3650981 -0.91751498 0.41576567 4294967295
1.3624997 0.81521815 0.38518435 4294967295
1.3665975 0.79510456 0.38427821 4294967295
1.3648812 -0.92366248 0.38581765 4294967295
1.375 -0.93008405 0.37228185 4294967295
1.3675209 0.8183381 0.3534435 4294967295
1.3686568 0.79220074 0.35499972 4294967295
1.3781112 0.77844882 0.35596135 4294967295
1.3693334 0.51293498 0.35437316 4294967295
1.3654617 -0.92538971 0.35307688 4294967295
1.3756666 -0.93053502 0.36582741 4294967295
1.3714896 0.82010305 0.32544637 4294967295
1.3722703 0.79407942 0.32497594 4294967295
1.3784546 0.77631634 0.32263026 4294967295
1.3785 0.51320505 0.33832252 4294967295
1.3788846 0.48923054 0.316616 4294967295
1.3789999 0.47819653 0.31746036 4294967295
1.3677561 -0.92769802 0.3248443 4294967295
1.3623668 -0.93109059 0.32244247 4294967295
1.3671668 0.81702906 0.29700232 4294967295
1.3669257 0.79385436 0.29535231 4294967295
1.375108 0.77519625 0.29449862 4294967295
1.3789998 0.4896234 0.30694765 4294967295
1.3634305 -0.92142951 0.29603851 4294967295
1.366639 0.81591845 0.26503161 4294967295
1.3655289 0.79351121 0.26394936 4294967295
1.3724054 0.77470225 0.26500008 4294967295
1.3641579 -0.91627055 0.26506376 4294967295
1.3615882 0.81557894 0.2335752 4294967295
1.3572869 0.7930975 0.23487377 4294967295
1.3674251 0.77620214 0.23903871 4294967295
1.3774166 0.46380049 0.22474918 4294967295
1.3655308 -0.92060632 0.23552465 4294967295
1.374204 0.82134384 0.2022725 4294967295
1.3707255 0.79831129 0.20878467 4294967295
1.3786665 0.48127967 0.20715308 4294967295
1.375355 0.47138122 0.21011534 4294967295
1.3650727 -0.9263826 0.20434943 4294967295
1.375 -0.93008405 0.20319939 4294967295
1.365842 0.81579489 0.178069 4294967295
1.3708931 0.80148768 0.17240861 4294967295
1.3790001 0.4909946 0.16068411 4294967295
1.3642654 -0.91201425 0.17631686 4294967295
1.3629129 0.81495869 0.14395949 4294967295
1.3682737 0.79916054 0.14589834 4294967295
1.3785 0.53239512 0.14642119 4294967295
1.376727 0.49163654 0.14568922 4294967295
1.3545001 -0.89735484 0.13485116 4294967295
1.3637334 -0.90430284 0.1483148 4294967295
1.3626859 0.8163467 0.11616448 4294967295
1.3664743 0.79769593 0.11555946 4294967295
1.3773961 0.48889449 0.11456931 4294967295
1.3769524 0.47596255 0.10903808 4294967295
1.3559999 -0.89655322 0.11949468 4294967295
1.3689998 -0.90482295 0.11250901 4294967295
1.3737442 0.82068312 0.0845052 4294967295
1.3724656 0.80005783 0.085622102 4294967295
1.3786896 0.48911941 0.083552986 4294967295
1.3787998 0.47556758 0.096115261 4294967295
1.3658462 -0.91448492 0.0845415 4294967295
1.3778334 0.81434566 0.057445288 4294967295
1.3768508 0.80233872 0.055752605 4294967295
1.3769826 0.48967919 0.056481212 4294967295
1.3648233 -0.91368997 0.058045834 4294967295
1.3752971 0.81808662 0.022465944 4294967295
1.3737388 0.79993927 0.023488581 4294967295
1.378 0.51301891 0.010676503 4294967295
1.3780874 0.49268666 0.022653461 4294967295
1.3546666 -0.89851731 0.015104294 4294967295
1.3671577 -0.90790898 0.025545329 4294967295
1.3595835 1.1798182 -0.0080134273 4294967295
1.3647141 1.155162 -0.011393189 4294967295
1.3667272 1.1249735 -0.012964666 4294967295
1.3633573 1.095657 -0.015303493 4294967295
1.36568 1.0654219 -0.016564906 4294967295
1.3642173 1.035585 -0.015177608 4294967295
1.3601667 1.0081469 -0.01586473 4294967295
1.355 0.98388469 -0.018548429 4294967295
1.3656923 0.93957978 -0.018389046 4294967295
1.365409 0.91522413 -0.014459372 4294967295
1.3645171 0.88469964 -0.012703955 4294967295
1.3666843 0.85322309 -0.0087216496 4294967295
1.365521 0.82384819 -0.0017638803 4294967295
1.3662937 0.79456866 -0.0015583038 4294967295
1.3666223 0.76693296 -0.0085580945 4294967295
1.3636924 0.73827833 -0.014567733 4294967295
1.3536667 0.71752459 -0.018018484 4294967295
1.3625624 0.5443958 0.0011838078 4294967295
1.3679465 0.52427012 -0.0027466416 4294967295
1.3678313 0.49426091 -0.000898242 4294967295
1.3655332 0.46632978 -0.010669291 4294967295
1.3653077 0.43578604 -0.013614237 4294967295
1.3627499 0.40601394 -0.016870975 4294967295
1.3573333 0.37778202 -0.018683493 4294967295
1.3565383 0.25396594 -0.018184721 4294967295
1.35875 0.22445647 -0.018850625 4294967295
1.3578888 0.19574252 -0.018640697 4294967295
1.3582222 0.1597029 -0.019124806 4294967295
1.3604 0.1415882 -0.019426942 4294967295
1.3626665 0.10595997 -0.018247902 4294967295
1.3584 0.083397567 -0.018004715 4294967295
1.3540001 -0.017408922 -0.018150985 4294967295
1.358 -0.030061526 -0.01974082 4294967295
1.357 -0.32127416 -0.019343376 4294967295
1.3555555 -0.34451067 -0.018769264 4294967295
1.357 -0.36220428 -0.019343376 4294967295
1.3594999 -0.43661126 -0.018361092 4294967295
1.3599999 -0.4627023 -0.0186373 4294967295
1.3563333 -0.53144366 -0.018024981 4294967295
1.3618749 -0.55506891 -0.015938818 4294967295
1.3639998 -0.58588755 -0.01350373 4294967295
1.3645834 -0.61379057 -0.013104737 4294967295
1.3655 -0.64404392 -0.015185595 4294967295
1.3602222 -0.66865283 -0.017810464 4294967295
1.358 -0.71693414 -0.01974082 4294967295
1.3580002 -0.72323579 -0.01974082 4294967295
1.3543999 -0.80301619 -0.018309951 4294967295
1.3599999 -0.82715476 -0.017693698 4294967295
1.364818 -0.8539446 -0.015530467 4294967295
1.3634242 -0.88511175 -0.0094351768 4294967295
1.3736665 -0.90403092 0.00058805943 4294967295
1.373 1.0001525 -0.02131927 4294967295
1.3679999 0.97146368 -0.02233845 4294967295
1.3633077 0.95326138 -0.020849645 4294967295
1.3752501 0.72577912 -0.021808624 4294967295
1.3656875 0.70843989 -0.031309009 4294967295
1.3615556 0.67956853 -0.039754748 4294967295
1.3773999 0.39774153 -0.021059752 4294967295
1.3728 0.37317297 -0.0221138 4294967295
1.3678999 0.34419918 -0.025094867 4294967295
1.363647 0.31392193 -0.023648083 4294967295
1.3654546 0.28510445 -0.023553848 4294967295
1.3721666 0.25242621 -0.02218771 4294967295
1.3726667 0.22918755 -0.022385299 4294967295
1.3754286 0.1897352 -0.023476601 4294967295
1.3734546 0.16455208 -0.022111297 4294967295
1.3646924 0.13164179 -0.020545423 4294967295
1.3662223 0.1106032 -0.020508349 4294967295
1.36825 0.072107673 -0.02353549 4294967295
1.36825 0.043136708 -0.025393963 4294967295
1.3660475 0.015622588 -0.022319973 4294967295
1.3728 -0.010981614 -0.023069501 4294967295
1.368 -0.051220115 -0.024342179 4294967295
1.3627857 -0.077837691 -0.023893416 4294967295
1.3657598 -0.10449177 -0.023187637 4294967295
1.3634167 -0.13245708 -0.023464382 4294967295
1.3692223 -0.16689272 -0.027377844 4294967295
1.3632777 -0.19481856 -0.02323097 4294967295
1.3641999 -0.22529395 -0.022441208 4294967295
1.3666955 -0.25469995 -0.028144121 4294967295
1.3650414 -0.28608099 -0.023976803 4294967295
1.3690001 -0.31276843 -0.021839142 4294967295
1.3732221 -0.34583136 -0.022604823 4294967295
1.3637778 -0.37748647 -0.023075819 4294967295
1.3652631 -0.40631419 -0.024283946 4294967295
1.3731818 -0.43359223 -0.022290349 4294967295
1.3700001 -0.4689061 -0.021310627 4294967295
1.3672776 -0.49323928 -0.024120271 4294967295
1.3665 -0.52455962 -0.023423076 4294967295
1.3775001 -0.54665112 -0.021099031 4294967295
1.3653333 -0.68273783 -0.021224737 4294967295
1.3674347 -0.70354545 -0.022921383 4294967295
1.3694 -0.73520088 -0.023199379 4294967295
1.3656666 -0.76404864 -0.027209699 4294967295
1.3678821 -0.79309082 -0.023845494 4294967295
1.3735713 -0.82578754 -0.020917058 4294967295
1.3749999 -0.84075743 -0.020117044 4294967295
1.4053334 -0.91907883 1.303731 4294967295
1.3909317 -0.91919684 1.2823902 4294967295
1.381 -0.93093842 1.29123 4294967295
1.3915598 -0.92229718 1.2561693 4294967295
1.381 -0.93093842 1.2543821 4294967295
1.3920147 -0.92236733 1.226072 4294967295
1.3914233 -0.91751844 1.1960793 4294967295
1.3925692 -0.91877663 1.1638095 4294967295
1.3919411 -0.92279869 1.1359923 4294967295
1.404 -0.93015528 1.1216533 4294967295
1.3929025 -0.92782408 1.1034043 4294967295
1.3894374 -0.93093467 1.1077516 4294967295
1.3919855 -0.92455578 1.0745951 4294967295
1.3916595 -0.92786181 1.0457282 4294967295
1.4065001 -0.93017697 1.0460367 4294967295
1.3925002 0.49414116 1.0064737 4294967295
1.404 0.47709328 1.0011251 4294967295
1.3909309 -0.92518938 1.0150495 4294967295
1.3864413 0.4939175 0.99406987 4294967295
1.3908181 0.46575603 0.98438668 4294967295
1.409 0.44937024 0.97668558 4294967295
1.3906223 -0.91883272 0.98562562 4294967295
1.3873862 0.45731899 0.95189393 4294967295
1.3896875 0.44522497 0.95833409 4294967295
1.392509 -0.92592824 0.95383263 4294967295
1.3864737 0.78231877 0.91944242 4294967295
1.3951637 0.77098715 0.92397779 4294967295
1.393 0.74484313 0.92948365 4294967295
1.3864241 0.48739177 0.91935819 4294967295
1.3931651 0.46756867 0.92435682 4294967295
1.3962001 0.44593522 0.91519684 4294967295
1.3945816 -0.9269051 0.92873216 4294967295
1.3875151 -0.93237263 0.9217028 4294967295
1.383793 0.7839793 0.89167899 4294967295
1.3935103 0.77590936 0.89682561 4294967295
1.3880242 0.49228936 0.8942197 4294967295
1.4002776 0.46962851 0.89681768 4294967295
1.3981999 0.44657546 0.90700543 4294967295
1.3931041 -0.92290419 0.89186686 4294967295
1.3882858 -0.93190908 0.90508938 4294967295
1.3864647 0.78753155 0.86458117 4294967295
1.3942382 0.77877241 0.86360228 4294967295
1.3899232 0.51299268 0.85862243 4294967295
1.3907441 0.49427497 0.86554945 4294967295
1.3993336 0.47237855 0.86540264 4294967295
1.3917015 -0.9179728 0.86427307 4294967295
1.3854479 0.78900534 0.83481163 4294967295
1.39385 0.77876407 0.83675826 4294967295
1.3909549 0.51549459 0.8377856 4294967295
1.3935485 0.49439311 0.83569956 4294967295
1.3983891 0.47409669 0.83589232 4294967295
1.3917413 -0.92367065 0.83613241 4294967295
1.3845489 0.78679883 0.80587053 4294967295
1.3908949 0.77836072 0.80402279 4294967295
1.391 0.51518768 0.80603355 4294967295
1.3921453 0.49466127 0.80508322 4294967295
1.3973333 0.47546929 0.8033545 4294967295
1.3920346 -0.920416 0.80468112 4294967295
1.3890001 0.78604233 0.77439344 4294967295
1.3910002 0.77927464 0.7836647 4294967295
1.3909999 0.51301759 0.77102417 4294967295
1.3915588 0.49488789 0.77373922 4294967295
1.3962567 0.47436979 0.77451879 4294967295
1.3918619 -0.92553431 0.77497315 4294967295
1.3858712 0.78680134 0.74489146 4294967295
1.3914119 0.77741259 0.74158955 4294967295
1.3910216 0.52045929 0.74115205 4294967295
1.3911822 0.49513677 0.7451241 4294967295
1.3933779 0.47311965 0.74532861 4294967295
1.3916377 -0.92627501 0.74430537 4294967295
1.381 -0.93093842 0.73584294 4294967295
1.3842142 0.7855612 0.71447009 4294967295
1.390095 0.77507591 0.71284086 4294967295
1.39 0.54006165 0.7165556 4294967295
1.3907686 0.52372825 0.71594042 4294967295
1.3918207 0.49497831 0.71600783 4294967295
1.3952965 0.47250992 0.7141515 4294967295
1.3911054 -0.92600012 0.71607256 4294967295
1.409 -0.93019867 0.70534855 4294967295
1.386963 0.78635538 0.68498021 4294967295
1.3954194 0.77756417 0.68788701 4294967295
1.3926916 0.52132589 0.68669087 4294967295
1.3916202 0.49463531 0.68487203 4294967295
1.3985307 0.47277173 0.68515444 4294967295
1.3927463 -0.92352194 0.68330288 4294967295
1.3815714 -0.93132359 0.68891788 4294967295
1.3899307 0.7847023 0.65641403 4294967295
1.398 0.77995265 0.66822195 4294967295
1.3965808 0.51680058 0.65562361 4294967295
1.3938943 0.49468157 0.65537906 4294967295
1.4013394 0.4720633 0.6540994 4294967295
1.3917574 -0.91564548 0.65566915 4294967295
1.3889998 0.78685951 0.62418497 4294967295
1.3902764 0.49218175 0.62581885 4294967295
1.3953675 0.4699972 0.62610722 4294967295
1.3920177 -0.91786033 0.62525064 4294967295
1.3866744 0.78559101 0.59586984 4294967295
1.3881345 0.490594 0.59450084 4294967295
1.3922163 0.47135192 0.59568274 4294967295
1.3915416 -0.92739248 0.59651524 4294967295
1.4062001 -0.93095893 0.58818007 4294967295
1.3890787 0.78632033 0.56549376 4294967295
1.3878335 0.48949054 0.56416053 4294967295
1.3928084 0.47286174 0.56378102 4294967295
1.3924 -0.92373878 0.56230575 4294967295
1.404 -0.93015528 0.57601881 4294967295
1.3895587 0.7842322 0.53608656 4294967295
1.3897413 0.49076766 0.53497076 4294967295
1.3910228 0.4726764 0.5363273 4294967295
1.3915468 -0.91990101 0.53531528 4294967295
1.3900667 0.78131181 0.51408565 4294967295
1.3848572 0.77675045 0.50113022 4294967295
1.3860236 0.4895227 0.50969833 4294967295
1.3928 0.47659403 0.50446773 4294967295
1.3917501 -0.91452354 0.5056752 4294967295
1.38225 0.78238946 0.46290317 4294967295
1.3835 0.77443117 0.46798357 4294967295
1.3820667 0.48438969 0.47263893 4294967295
1.3848507 0.47358942 0.4747346 4294967295
1.3927287 -0.91685176 0.47471476 4294967295
1.3840749 0.78526413 0.44339564 4294967295
1.38775 0.77825743 0.44737309 4294967295
1.381 0.49704701 0.44212866 4294967295
1.3821707 0.47256637 0.4449583 4294967295
1.3906794 -0.91103303 0.44402856 4294967295
1.3880556 0.78876001 0.41589993 4294967295
1.3854001 0.51320314 0.40459356 4294967295
1.3825848 0.49590009 0.412788 4294967295
1.3815502 0.47403112 0.4160535 4294967295
1.3907611 -0.9143638 0.41629362 4294967295
1.3892645 0.78549039 0.38697553 4294967295
1.3874999 0.77891999 0.37254912 4294967295
1.385579 0.51431835 0.38485608 4294967295
1.3843464 0.49611282 0.38412666 4294967295
1.3831818 0.47497976 0.38248682 4294967295
1.3914928 -0.92151666 0.38456878 4294967295
1.381 -0.93093842 0.37163723 4294967295
1.3858334 0.77798414 0.35504243 4294967295
1.3825999 0.51184416 0.35671002 4294967295
1.3831124 0.4956696 0.35536417 4294967295
1.3868442 0.47447073 0.3549149 4294967295
1.3913823 -0.92299557 0.35609573 4294967295
1.381 -0.93093842 0.366831 4294967295
1.3825002 0.77531409 0.33298969 4294967295
1.3827502 0.51350307 0.32236716 4294967295
1.3822343 0.4973602 0.32861456 4294967295
1.3860611 0.47400272 0.32469615 4294967295
1.3919582 -0.92263192 0.32386619 4294967295
1.3832594 0.51497751 0.29436323 4294967295
1.3829082 0.49559385 0.29302648 4294967295
1.3878132 0.47167954 0.29493546 4294967295
1.3908335 -0.91795784 0.29653227 4294967295
1.3833333 0.77497965 0.25583896 4294967295
1.3848097 0.51463562 0.2664198 4294967295
1.3853012 0.49484324 0.26510382 4294967295
1.3912308 0.47364774 0.26551014 4294967295
1.3915399 -0.91593444 0.26461887 4294967295
1.3857273 0.77690393 0.23346755 4294967295
1.3885202 0.51397264 0.2346178 4294967295
1.3866079 0.49432001 0.23576474 4294967295
1.3886429 0.47099388 0.2364476 4294967295
1.3908689 -0.91793346 0.23446685 4294967295
1.388087 0.84808171 0.20452791 4294967295
1.3827692 0.83710158 0.2038807 4294967295
1.3863748 0.78832114 0.20152315 4294967295
1.3875 0.77892059 0.2180281 4294967295
1.393963 0.51573008 0.20527622 4294967295
1.3868065 0.49642879 0.20508599 4294967295
1.3823333 0.47721481 0.19402492 4294967295
1.3911998 -0.91740006 0.20403126 4294967295
1.385852 0.79048425 0.17712617 4294967295
1.3963685 0.51738018 0.17392775 4294967295
1.387707 0.49418449 0.17417088 4294967295
1.3868865 0.47039816 0.17113641 4294967295
1.3918113 -0.91266078 0.1778284 4294967295
1.3895215 0.78851438 0.14407369 4294967295
1.39 0.54006165 0.13201761 4294967295
1.3843861 0.52148622 0.14445361 4294967295
1.3825791 0.50240266 0.14574102 4294967295
1.3874936 0.47012788 0.14516097 4294967295
1.3908888 -0.91015506 0.14549911 4294967295
1.3889772 0.78727651 0.11575693 4294967295
1.3911 0.54145473 0.11688095 4294967295
1.3896374 0.52557683 0.11367622 4294967295
1.3831515 0.50317478 0.11632586 4294967295
1.3892499 0.46951306 0.1171113 4294967295
1.3934231 -0.9106977 0.11466131 4294967295
1.3994 0.8748951 0.074847579 4294967295
1.389135 0.85437858 0.079124004 4294967295
1.382077 0.83520377 0.07601586 4294967295
1.3879499 0.79083031 0.085672349 4294967295
1.3986 0.54404896 0.091968179 4294967295
1.3928235 0.52168226 0.086553097 4294967295
1.3829451 0.49841869 0.084808469 4294967295
1.3889632 0.47159752 0.083974868 4294967295
1.3913332 -0.92096794 0.085556477 4294967295
1.4019998 0.87829649 0.064498693 4294967295
1.3906666 0.85269791 0.057614356 4294967295
1.3830769 0.82951629 0.05384773 4294967295
1.387659 0.79297185 0.053435028 4294967295
1.3889998 0.51830667 0.054858655 4294967295
1.3827919 0.50584799 0.053421915 4294967295
1.3898045 0.47532737 0.055467218 4294967295
1.3923123 -0.92340672 0.061324149 4294967295
1.3949565 0.84876382 0.022850513 4294967295
1.3840969 0.83187008 0.028313875 4294967295
1.389377 0.78790396 0.024662673 4294967295
1.3947144 0.77811426 0.013284504 4294967295
1.3905218 0.52120113 0.022335112 4294967295
1.3820295 0.49858618 0.027297646 4294967295
1.3906001 0.47516012 0.024558663 4294967295
1.3903682 -0.91635984 0.020203233 4294967295
1.398 1.2016203 -0.012933731 4294967295
1.3925418 1.1842598 -0.013801813 4294967295
1.3940568 1.1544774 -0.013165593 4294967295
1.3931051 1.1249083 -0.015050232 4294967295
1.3931216 1.0944443 -0.018202305 4294967295
1.3929689 1.0647703 -0.015847564 4294967295
1.3929771 1.0346394 -0.016435504 4294967295
1.3996249 1.0057111 -0.019228876 4294967295
1.3973572 0.97318351 -0.017884791 4294967295
1.3933332 0.94452178 -0.015856981 4294967295
1.3940001 0.91479802 -0.014324844 4294967295
1.3923752 0.88437229 -0.0097130537 4294967295
1.3890513 0.85684866 8.7738037e-05 4294967295
1.382 0.83675891 0.0075948238 4294967295
1.3833078 0.78434366 0.0050141811 4294967295
1.3917571 0.76712167 -0.003338635 4294967295
1.39 0.74152964 -0.017173052 4294967295
1.3847693 0.54469699 0.0032384396 4294967295
1.3843752 0.53052032 0.0048446655 4294967295
1.381 0.48209426 0.0047614574 4294967295
1.3898554 0.46580806 -0.0022983551 4294967295
1.3923159 0.43587461 -0.014065921 4294967295
1.3928499 0.41011921 -0.019035816 4294967295
1.3933334 0.15341885 -0.019771814 4294967295
1.3927368 0.13481833 -0.01908654 4294967295
1.3920001 0.10986268 -0.019614697 4294967295
1.3862857 -0.56369019 -0.019491255 4294967295
1.3910002 -0.58507961 -0.016978145 4294967295
1.3919284 -0.61510885 -0.014412463 4294967295
1.3924166 -0.6438157 -0.017518759 4294967295
1.391 -0.6633541 -0.01994729 4294967295
1.3903497 -0.86045635 -0.017588437 4294967295
1.392525 -0.88472557 -0.013653874 4294967295
1.3943224 -0.90922195 -0.0027514696 4294967295
1.3938463 1.005397 -0.021607757 4294967295
1.3860668 0.97740263 -0.022317231 4294967295
1.3839999 0.95678115 -0.020441175 4294967295
1.3948259 0.72779429 -0.026910245 4294967295
1.39 0.70829839 -0.043204784 4294967295
1.3876667 0.67703974 -0.046551526 4294967295
1.3931667 0.39824942 -0.020767391 4294967295
1.3929472 0.3740752 -0.022385538 4294967295
1.3939285 0.34638104 -0.024757743 4294967295
1.3942683 0.3150163 -0.026247323 4294967295
1.394842 0.28592989 -0.025929153 4294967295
1.3927001 0.25642061 -0.02328223 4294967295
1.3921739 0.22463457 -0.024181247 4294967295
1.3919567 0.19735821 -0.024378121 4294967295
1.3929999 0.1660209 -0.023353398 4294967295
1.3911428 0.13496377 -0.02042824 4294967295
1.3928888 0.10236908 -0.021019816 4294967295
1.3928334 0.074720837 -0.025628805 4294967295
1.3919616 0.044571254 -0.02800715 4294967295
1.393346 0.014041518 -0.02457279 4294967295
1.3934499 -0.013545103 -0.025574505 4294967295
1.3935333 -0.044861011 -0.029327929 4294967295
1.3919313 -0.07680323 -0.027976155 4294967295
1.393135 -0.10483193 -0.023287416 4294967295
1.3924444 -0.13456725 -0.027790546 4294967295
1.3933501 -0.16725859 -0.031517684 4294967295
1.3929188 -0.19441865 -0.026000142 4294967295
1.3929473 -0.22549972 -0.022723734 4294967295
1.3930979 -0.25563225 -0.025421321 4294967295
1.3926429 -0.28470334 -0.024639308 4294967295
1.3910794 -0.31488934 -0.021741509 4294967295
1.3931668 -0.34517959 -0.022384882 4294967295
1.3939258 -0.37473762 -0.02693224 4294967295
1.3931537 -0.40688914 -0.027734101 4294967295
1.3930912 -0.43426922 -0.023286104 4294967295
1.3909601 -0.46645084 -0.02249974 4294967295
1.3914282 -0.49590296 -0.024364531 4294967295
1.3924348 -0.52355796 -0.029196084 4294967295
1.3937858 -0.55311829 -0.02309525 4294967295
1.4 -0.57019889 -0.020192623 4294967295
1.409 -0.6555925 -0.020396173 4294967295
1.3923334 -0.67579985 -0.022242129 4294967295
1.3940401 -0.7070874 -0.024606287 4294967295
1.394371 -0.73453867 -0.023267567 4294967295
1.3940954 -0.76430893 -0.029447258 4294967295
1.3929615 -0.79591149 -0.02927655 4294967295
1.3925713 -0.8238951 -0.023429513 4294967295
1.3960768 -0.8486523 -0.021150529 4294967295
1.408 0.6989615 -0.052680612 4294967295
1.4286667 -0.92244238 1.3103822 4294967295
1.4272665 -0.92015457 1.2836237 4294967295
1.4282625 -0.92261505 1.2555039 4294967295
1.4280181 -0.92356485 1.2264402 4294967295
1.4263144 -0.92033333 1.1954956 4294967295
1.4263192 -0.92125946 1.1652026 4294967295
1.4283419 -0.92575485 1.1400783 4294967295
1.4279258 -0.93309945 1.1279678 4294967295
1.4298213 -0.92767876 1.0996592 4294967295
1.4257693 -0.93208164 1.1120083 4294967295
1.4294583 -0.9265998 1.0758816 4294967295
1.4279286 -0.93108398 1.0646962 4294967295
1.436 0.49129894 1.0337485 4294967295
1.4369999 -0.92734468 1.0521071 4294967295
1.4263672 -0.93251908 1.0452423 4294967295
1.4269999 0.4863435 1.0191466 4294967295
1.4241667 0.4745633 1.004169 4294967295
1.4261248 -0.92782003 1.014713 4294967295
1.4299999 -0.93122542 1.0183043 4294967295
1.4235998 0.46016985 0.99043936 4294967295
1.424 0.4475463 0.97824347 4294967295
1.4208335 -0.92754799 0.98816204 4294967295
1.4300417 -0.93343037 0.98129475 4294967295
1.4287416 -0.9252454 0.95216036 4294967295
1.4236363 -0.93113387 0.96580923 4294967295
1.4279331 0.77063411 0.92517066 4294967295
1.4349999 0.74732405 0.93517101 4294967295
1.4302856 -0.92666978 0.93199944 4294967295
1.4268682 -0.93273443 0.92122436 4294967295
1.4292799 0.7842561 0.89306295 4294967295
1.4210001 0.77815849 0.90428019 4294967295
1.4259411 0.46527845 0.89495951 4294967295
1.4273498 -0.9239834 0.89428568 4294967295
1.4237143 -0.93139172 0.90782946 4294967295
1.4285499 0.78820372 0.86634159 4294967295
1.427111 0.46923327 0.86445212 4294967295
1.4262052 -0.92303449 0.86491239 4294967295
1.4325 -0.93075418 0.85301727 4294967295
1.4277999 0.79082572 0.83722359 4294967295
1.4269445 0.47494873 0.83516383 4294967295
1.425923 -0.9269616 0.83085322 4294967295
1.4307499 -0.93127185 0.84375614 4294967295
1.4296112 0.79260504 0.80590308 4294967295
1.4292666 0.47771353 0.80550885 4294967295
1.4266249 -0.92712039 0.80644703 4294967295
1.4321429 -0.93028462 0.79573607 4294967295
1.4293332 0.79245245 0.77600056 4294967295
1.4217273 0.47351018 0.77959204 4294967295
1.4261999 -0.92891997 0.78205264 4294967295
1.4286153 -0.93216461 0.77354312 4294967295
1.4255832 0.78982246 0.74887085 4294967295
1.4257858 -0.9284727 0.74089271 4294967295
1.4279687 -0.93120831 0.7476902 4294967295
1.4263999 0.47013569 0.70366067 4294967295
1.4147501 -0.9282487 0.72415936 4294967295
1.4296428 -0.93480843 0.714818 4294967295
1.4241251 0.7870869 0.67923713 4294967295
1.4270556 0.47002143 0.68456012 4294967295
1.4273499 -0.92150116 0.68258876 4294967295
1.4293749 -0.93243623 0.69724494 4294967295
1.4265262 0.79219401 0.65470916 4294967295
1.4164999 0.46621987 0.66000599 4294967295
1.4256248 -0.91799337 0.65692568 4294967295
1.4292777 0.79905331 0.62510318 4294967295
1.4265882 -0.922961 0.62289232 4294967295
1.4227144 0.79561728 0.60389012 4294967295
1.4255832 0.47090939 0.58954918 4294967295
1.4322271 -0.92631972 0.6032657 4294967295
1.4273498 -0.93401086 0.59267205 4294967295
1.4256667 0.79868913 0.56125629 4294967295
1.4245 0.47227535 0.56670803 4294967295
1.4276923 -0.92721844 0.55517411 4294967295
1.4287859 -0.93495041 0.56978214 4294967295
1.4223 0.79383326 0.53583914 4294967295
1.4255 0.47116956 0.54711175 4294967295
1.427434 -0.92209011 0.53486389 4294967295
1.429 0.79226869 0.5106768 4294967295
1.4170001 0.47493541 0.50831634 4294967295
1.4269001 -0.9194786 0.50599492 4294967295
1.4345 0.79033136 0.46407348 4294967295
1.4269167 -0.92110044 0.47526729 4294967295
1.4282972 -0.91542053 0.44726133 4294967295
1.425 0.79832238 0.40986544 4294967295
1.4259396 -0.91920316 0.41363657 4294967295
1.4304444 0.80063206 0.38772815 4294967295
1.4266227 -0.9223159 0.38473594 4294967295
1.4349999 0.47763902 0.34585929 4294967295
1.4264264 -0.92256629 0.35428387 4294967295
1.4369999 0.47830474 0.31561211 4294967295
1.4278595 -0.92335594 0.32618102 4294967295
1.4288749 0.47227943 0.29439378 4294967295
1.4282765 -0.92294198 0.29386839 4294967295
1.4263999 0.47356784 0.26431549 4294967295
1.4298116 -0.92010152 0.26635548 4294967295
1.4288334 0.47142869 0.2427386 4294967295
1.426482 -0.92013294 0.23532274 4294967295
1.4213333 0.79626817 0.19581184 4294967295
1.4286032 -0.91473556 0.20592648 4294967295
1.4245882 0.79963642 0.17292994 4294967295
1.4294323 -0.91677445 0.17739606 4294967295
1.4281427 0.79983717 0.14503339 4294967295
1.4173332 0.46518177 0.13424894 4294967295
1.4272413 -0.92212832 0.14378911 4294967295
1.422357 0.79541856 0.11332098 4294967295
1.4259628 0.4667694 0.11292881 4294967295
1.429 -0.92479068 0.11739352 4294967295
1.4258181 0.7986117 0.087150246 4294967295
1.428 0.54819679 0.074360162 4294967295
1.415 0.53335977 0.075793892 4294967295
1.4260001 0.46800891 0.085460991 4294967295
1.4286363 -0.92567402 0.093210876 4294967295
1.4298332 -0.93619108 0.078059137 4294967295
1.4315 0.90768939 0.052339673 4294967295
1.4212856 0.88880062 0.050723016 4294967295
1.4289998 0.80591285 0.05661279 4294967295
1.4344 0.54666531 0.06570974 4294967295
1.4269998 0.47315273 0.055186689 4294967295
1.4267219 -0.93783975 0.057416618 4294967295
1.4326251 0.88196051 0.02000317 4294967295
1.4162 0.86568046 0.022841126 4294967295
1.4267915 0.79876775 0.025349706 4294967295
1.4302223 0.54795319 0.016080081 4294967295
1.4177499 0.53768581 0.020658314 4294967295
1.4294442 0.47565445 0.024729073 4294967295
1.4209998 -0.92696369 0.013749182 4294967295
1.4309543 -0.94030589 0.022959858 4294967295
1.4299089 1.2133454 -0.017997205 4294967295
1.4268667 1.1835698 -0.015416086 4294967295
1.4296757 1.1547679 -0.013785899 4294967295
1.4274515 1.1276302 -0.017941117 4294967295
1.427862 1.0947278 -0.017553091 4294967295
1.4267777 1.0650277 -0.015882254 4294967295
1.4276397 1.0379815 -0.018249094 4294967295
1.4299374 1.0023134 -0.017102659 4294967295
1.4274747 0.97620726 -0.015284002 4294967295
1.4272858 0.94470912 -0.014991045 4294967295
1.4275129 0.91544652 -0.01124686 4294967295
1.4260665 0.88692212 -0.0013266206 4294967295
1.4119999 0.86638927 0.0079380274 4294967295
1.4296665 0.78572571 0.0034679174 4294967295
1.4263446 0.76881665 -0.011749625 4294967295
1.4332001 0.55419064 0.006901741 4294967295
1.4280236 0.46252427 -0.0033763051 4294967295
1.4285356 0.43783176 -0.016857564 4294967295
1.4369999 0.40257651 -0.016607225 4294967295
1.4361763 0.37708247 -0.016703844 4294967295
1.4373751 0.31335145 -0.017939031 4294967295
1.4379998 0.28679425 -0.01817292 4294967295
1.438 -0.20532553 -0.01817292 4294967295
1.415 -0.59928948 -0.019414306 4294967295
1.4244283 -0.61958307 -0.018264949 4294967295
1.4277002 -0.64058864 -0.018271446 4294967295
1.4274998 -0.88900983 -0.015291512 4294967295
1.4288763 -0.91530174 -0.0040044785 4294967295
1.434 1.2325634 -0.02000308 4294967295
1.434 1.2292362 -0.02000308 4294967295
1.4268888 1.1216099 -0.020262003 4294967295
1.426 1.1082332 -0.020299077 4294967295
1.4285455 1.0271918 -0.020349383 4294967295
1.4217144 1.013712 -0.020555198 4294967295
1.4309 0.75414312 -0.02148211 4294967295
1.4291321 0.73492581 -0.032040715 4294967295
1.431 0.42649934 -0.020529687 4294967295
1.426147 0.40451792 -0.021601856 4294967295
1.424857 0.37450352 -0.02173692 4294967295
1.4272196 0.34435681 -0.023321927 4294967295
1.4254781 0.31477261 -0.023527801 4294967295
1.4262621 0.28507274 -0.023055196 4294967295
1.4286451 0.25621936 -0.02694881 4294967295
1.4286921 0.22410761 -0.028698385 4294967295
1.4292095 0.19400072 -0.027737379 4294967295
1.4287187 0.16632721 -0.025968909 4294967295
1.4276294 0.1348671 -0.022738516 4294967295
1.4295714 0.10491598 -0.025073886 4294967295
1.4305236 0.074457094 -0.028788447 4294967295
1.4298528 0.046301804 -0.032276154 4294967295
1.428393 0.015138119 -0.028411567 4294967295
1.4294999 -0.014827859 -0.03096807 4294967295
1.42945 -0.044905514 -0.036520004 4294967295
1.4274839 -0.074651696 -0.032275796 4294967295
1.4274284 -0.10504808 -0.025080144 4294967295
1.4286894 -0.13541597 -0.030789673 4294967295
1.4300681 -0.16670507 -0.034714639 4294967295
1.4281064 -0.19480871 -0.025302172 4294967295
1.4271796 -0.22439991 -0.022848547 4294967295
1.4278054 -0.25521702 -0.02262044 4294967295
1.4253436 -0.28392082 -0.024576604 4294967295
1.4284594 -0.31457755 -0.02291137 4294967295
1.4275552 -0.34404427 -0.02393955 4294967295
1.4275756 -0.37535992 -0.027398348 4294967295
1.4303548 -0.40505406 -0.033283412 4294967295
1.4286176 -0.43414095 -0.027027667 4294967295
1.4283333 -0.46462783 -0.026565433 4294967295
1.4270321 -0.49520835 -0.026651978 4294967295
1.4279706 -0.52437639 -0.030862927 4294967295
1.428913 -0.55600566 -0.032928169 4294967295
1.4287142 -0.58542883 -0.024038434 4294967295
1.4316667 -0.60966641 -0.020504177 4294967295
1.428875 -0.65488511 -0.020964384 4294967295
1.4289522 -0.67369884 -0.025348008 4294967295
1.4278749 -0.70645267 -0.029828548 4294967295
1.4281514 -0.73497468 -0.02461195 4294967295
1.4292892 -0.76476461 -0.026406586 4294967295
1.4295311 -0.79457009 -0.036025286 4294967295
1.4282122 -0.82475626 -0.029764891 4294967295
1.4275515 -0.85528082 -0.025439858 4294967295
1.4312726 -0.87485427 -0.021685183 4294967295
1.4322855 0.72548705 -0.054009616 4294967295
1.4282305 0.70756847 -0.058099329 4294967295
1.4662499 -0.92546654 1.3337352 4294967295
1.4545715 -0.92390794 1.3138785 4294967295
1.4527957 -0.917395 1.2834165 4294967295
1.4508432 -0.91693926 1.2557535 4294967295
1.4529729 -0.92340147 1.2255212 4294967295
1.4534999 -0.92354697 1.1950095 4294967295
1.4537805 -0.92270708 1.1648391 4294967295
1.4523516 -0.92489886 1.1347995 4294967295
1.4519413 -0.92409593 1.104794 4294967295
1.4517502 -0.92196822 1.0751483 4294967295
1.4551665 0.49051657 1.0366682 4294967295
1.4523469 -0.92694616 1.0449685 4294967295
1.4465001 -0.93056703 1.0391819 4294967295
1.4499999 0.48430496 1.0236115 4294967295
1.4559999 0.47077617 1.009716 4294967295
1.4519657 -0.9272818 1.0213826 4294967295
1.4562272 -0.93539244 1.0082614 4294967295
1.4495 0.4563843 0.99484551 4294967295
1.4555385 -0.92530715 0.97461951 4294967295
1.4526539 -0.93617719 0.98875725 4294967295
1.464 0.76242679 0.94016451 4294967295
1.4515868 -0.91911149 0.95495832 4294967295
1.462 0.7836681 0.91487575 4294967295
1.4523666 0.77150315 0.92761868 4294967295
1.4531538 -0.92553234 0.92387342 4294967295
1.4533809 0.78932124 0.89551574 4294967295
1.4542999 0.47056541 0.89652473 4294967295
1.4540405 -0.92271847 0.89645875 4294967295
1.4512308 0.79462051 0.86810863 4294967295
1.4542499 0.47096136 0.86482251 4294967295
1.451057 -0.92455816 0.86757135 4294967295
1.4605 -0.9328317 0.8544448 4294967295
1.448 0.79776913 0.84317172 4294967295
1.4607999 0.48147622 0.82876933 4294967295
1.4475 0.47608319 0.840047 4294967295
1.4471538 -0.92825955 0.83045691 4294967295
1.4580001 -0.93265688 0.83867848 4294967295
1.4614002 0.48303556 0.81057739 4294967295
1.442 0.47912908 0.80502075 4294967295
1.44804 -0.92799401 0.80130237 4294967295
1.4638333 -0.9332788 0.80850327 4294967295
1.449 0.79832006 0.76608109 4294967295
1.4450001 0.47761491 0.78719509 4294967295
1.4526252 -0.92793179 0.77588576 4294967295
1.4452001 -0.93057728 0.76640904 4294967295
1.4523752 -0.92847311 0.74659944 4294967295
1.4586999 -0.93115759 0.73757952 4294967295
1.4529999 0.47351667 0.70607978 4294967295
1.454965 -0.93539262 0.71458739 4294967295
1.4566 0.79912776 0.68118018 4294967295
1.4489999 0.47221312 0.69212216 4294967295
1.4529755 -0.92121291 0.68588859 4294967295
1.4400001 -0.93061805 0.69940335 4294967295
1.466 0.81108749 0.64141792 4294967295
1.4528333 0.80154532 0.65465409 4294967295
1.4539629 -0.92237884 0.65552562 4294967295
1.4505 0.80587733 0.6255337 4294967295
1.4533778 -0.9202714 0.62432587 4294967295
1.44525 0.80296052 0.604496 4294967295
1.4576668 0.47501507 0.58664531 4294967295
1.4516314 -0.92238599 0.59500515 4294967295
1.4416666 -0.93225008 0.58476722 4294967295
1.4582001 0.81015527 0.56295568 4294967295
1.444 0.80393648 0.5642367 4294967295
1.4453332 0.47437167 0.56590909 4294967295
1.4564346 -0.9276945 0.56425124 4294967295
1.4515554 -0.93252659 0.56966722 4294967295
1.466 0.81108749 0.54277819 4294967295
1.4505999 0.80256724 0.52908701 4294967295
1.4535218 -0.92041117 0.53635538 4294967295
1.4475 0.79916418 0.5063622 4294967295
1.4533428 -0.92235661 0.50741023 4294967295
1.4522368 -0.92138553 0.47437471 4294967295
1.4523 -0.91787708 0.44631806 4294967295
1.4519689 -0.92317241 0.41370958 4294967295
1.4536667 0.81100947 0.39418614 4294967295
1.45175 0.80655611 0.38085943 4294967295
1.4513863 -0.92019039 0.38482106 4294967295
1.442 0.79780918 0.34333694 4294967295
1.4554999 0.48108542 0.34505719 4294967295
1.4528837 -0.92017633 0.35474575 4294967295
1.4637499 0.4838123 0.32536992 4294967295
1.4536343 -0.91957372 0.32443643 4294967295
1.4614999 0.48136446 0.30532581 4294967295
1.4495001 0.47488564 0.29447645 4294967295
1.4520878 -0.91272599 0.29401553 4294967295
1.4515998 0.47417352 0.26302153 4294967295
1.4498076 -0.90968502 0.26585895 4294967295
1.451625 0.47305641 0.24364582 4294967295
1.4496726 -0.91375577 0.23425585 4294967295
1.449641 -0.90870786 0.20610929 4294967295
1.469 0.81615567 0.16109177 4294967295
1.4451429 0.80625391 0.17410219 4294967295
1.4523693 -0.91476911 0.17336786 4294967295
1.4651428 0.81401271 0.14845124 4294967295
1.447 0.80526912 0.13959509 4294967295
1.4532939 -0.92578244 0.14471743 4294967295
1.4627273 -0.93171924 0.14750525 4294967295
1.466 0.81108749 0.1108042 4294967295
1.4502501 0.80404907 0.11141184 4294967295
1.4502143 0.46682864 0.11255974 4294967295
1.4545001 -0.92593014 0.12052697 4294967295
1.4578182 -0.9334982 0.10726324 4294967295
1.4593333 0.81077564 0.074304879 4294967295
1.4502727 0.80358756 0.085556835 4294967295
1.4542646 0.46546826 0.084628105 4294967295
1.4454547 -0.92834133 0.088177949 4294967295
1.4576665 -0.93410718 0.081800014 4294967295
1.466 0.93693823 0.042776793 4294967295
1.449 0.91935873 0.043272465 4294967295
1.4533846 0.81420445 0.055229366 4294967295
1.4486667 0.55762857 0.059239 4294967295
1.4583871 0.46826068 0.056723237 4294967295
1.4566177 -0.94420308 0.056607306 4294967295
1.4634001 0.91556853 0.025952697 4294967295
1.4453334 0.89132029 0.018217623 4294967295
1.4585 0.81312948 0.023205251 4294967295
1.4451666 0.80346793 0.019378185 4294967295
1.442 0.55691975 0.015459776 4294967295
1.4567368 0.47301912 0.023216933 4294967295
1.4544857 -0.92229265 0.014062107 4294967295
1.4541602 -0.94353402 0.022552222 4294967295
1.457 1.2405751 -0.018727422 4294967295
1.4532499 1.215346 -0.016695023 4294967295
1.452762 1.184909 -0.012278438 4294967295
1.4519688 1.1541636 -0.011912525 4294967295
1.4523704 1.1273738 -0.016920626 4294967295
1.4545715 1.0955474 -0.014950097 4294967295
1.4545623 1.0642612 -0.015174806 4294967295
1.4537029 1.0346013 -0.013899088 4294967295
1.4513251 1.005053 -0.0096620321 4294967295
1.4513142 0.97514701 -0.010917366 4294967295
1.4511762 0.94505602 -0.0095105171 4294967295
1.451346 0.91614622 -0.0044904351 4294967295
1.44525 0.8960098 0.0042684078 4294967295
1.4542001 0.7905283 -0.0024780631 4294967295
1.4499999 0.77042049 -0.015423238 4294967295
1.443 0.56065392 0.0067398548 4294967295
1.4554083 0.46160018 0.00014990568 4294967295
1.4533273 0.43534955 -0.010997474 4294967295
1.4540693 0.40514642 -0.0089006424 4294967295
1.4541129 0.37547556 -0.0095812082 4294967295
1.454353 0.34518194 -0.016447961 4294967295
1.454875 0.31419551 -0.013623476 4294967295
1.4562863 0.28415352 -0.012848198 4294967295
1.4550626 0.25499362 -0.0095315576 4294967295
1.4599401 0.22700463 -0.011937022 4294967295
1.4589729 0.19541767 -0.016944766 4294967295
1.4593638 0.1688315 -0.018149614 4294967295
1.469 0.14812283 -0.019549727 4294967295
1.469 0.098702036 -0.019549787 4294967295
1.469 0.081660382 -0.019549727 4294967295
1.469 -0.1790769 -0.019549727 4294967295
1.4525757 -0.19584277 -0.018091321 4294967295
1.4503995 -0.22516641 -0.017695725 4294967295
1.4524074 -0.25169116 -0.018424034 4294967295
1.4673333 -0.52328873 -0.019501746 4294967295
1.4499472 -0.61975491 -0.018553376 4294967295
1.4516876 -0.64595205 -0.016432285 4294967295
1.4571035 -0.67260951 -0.016557992 4294967295
1.4679999 -0.69667095 -0.019182444 4294967295
1.4639999 -0.77288938 -0.019405782 4294967295
1.4656665 -0.78851342 -0.019453764 4294967295
1.4532799 -0.88723296 -0.013486624 4294967295
1.4516664 -0.9089269 0.0022556782 4294967295
1.466 1.2634697 -0.021849215 4294967295
1.459 1.2557384 -0.020948708 4294967295
1.4565454 0.75669122 -0.020799577 4294967295
1.4504508 0.73050624 -0.02958858 4294967295
1.443682 0.24909323 -0.02440542 4294967295
1.4476106 0.22600959 -0.024369478 4294967295
1.4434444 0.19578329 -0.021882772 4294967295
1.44716 0.16308846 -0.0214504 4294967295
1.4536662 0.13480932 -0.021665215 4294967295
1.4530884 0.10527144 -0.022312939 4294967295
1.451658 0.075021006 -0.022020757 4294967295
1.4540381 0.044949934 -0.025501013 4294967295
1.4523914 0.015325815 -0.023748517 4294967295
1.4508078 -0.016127186 -0.024358153 4294967295
1.4529232 -0.044981211 -0.029576898 4294967295
1.4529395 -0.075265542 -0.030281723 4294967295
1.4522758 -0.10522144 -0.023962736 4294967295
1.4533782 -0.13569395 -0.027362943 4294967295
1.4516155 -0.16464223 -0.02621454 4294967295
1.4442 -0.18341883 -0.021155477 4294967295
1.4532 -0.26547927 -0.020470917 4294967295
1.4511288 -0.28462064 -0.022194684 4294967295
1.4544443 -0.31451857 -0.02093643 4294967295
1.4535332 -0.34445602 -0.022503436 4294967295
1.4551071 -0.37571836 -0.025399029 4294967295
1.4517499 -0.40561661 -0.027573764 4294967295
1.452829 -0.43433434 -0.023532152 4294967295
1.4535429 -0.46470809 -0.023096383 4294967295
1.4557074 -0.49631453 -0.025517702 4294967295
1.4512104 -0.5256483 -0.023442686 4294967295
1.4554706 -0.55503076 -0.031566739 4294967295
1.4524688 -0.58322418 -0.024415255 4294967295
1.4585832 -0.6064555 -0.021349967 4294967295
1.4458126 -0.68027437 -0.022976398 4294967295
1.4562607 -0.7057023 -0.027254164 4294967295
1.4555238 -0.73421901 -0.024146855 4294967295
1.4504615 -0.76428479 -0.020877957 4294967295
1.4488959 -0.79649585 -0.026560128 4294967295
1.451833 -0.82226163 -0.028214037 4294967295
1.4524167 -0.85577607 -0.024484098 4294967295
1.4521427 -0.87249911 -0.021039367 4294967295
1.4560587 0.72886288 -0.057306051 4294967295
1.4541665 0.71174568 -0.06583482 4294967295
1.442 0.68740153 -0.063163877 4294967295
1.4866668 -0.92647338 1.3414937 4294967295
1.4867449 -0.92507988 1.3157694 4294967295
1.4866315 -0.91988796 1.2847524 4294967295
1.4864748 -0.9258852 1.2539726 4294967295
1.4864677 -0.92645699 1.2253928 4294967295
1.4858521 -0.92599922 1.1947603 4294967295
1.4862498 -0.92427391 1.1649778 4294967295
1.4861357 -0.92080641 1.1336434 4294967295
1.4852083 -0.91906357 1.1059958 4294967295
1.4868207 -0.92350918 1.07464 4294967295
1.48935 0.49191609 1.0447116 4294967295
1.4886557 -0.92403525 1.0441188 4294967295
1.4764545 -0.93050176 1.0511769 4294967295
1.47875 0.48360899 1.0267329 4294967295
1.4880624 0.46831802 1.0167698 4294967295
1.4890643 -0.92417902 1.0168772 4294967295
1.4799998 -0.93638992 1.0084895 4294967295
1.4879037 -0.91931081 0.98415124 4294967295
1.4781113 -0.93580151 0.99299169 4294967295
1.477 0.76577008 0.94046855 4294967295
1.485649 -0.92150736 0.95531607 4294967295
1.4866295 0.78530562 0.91662526 4294967295
1.4886169 0.77301681 0.92624396 4294967295
1.482 0.47609049 0.91094553 4294967295
1.4851803 -0.92294449 0.92527384 4294967295
1.4886981 0.79552728 0.89791405 4294967295
1.4892223 0.47494382 0.88636136 4294967295
1.486077 -0.92389899 0.89450121 4294967295
1.4923334 0.8135348 0.85827386 4294967295
1.4842727 0.80741394 0.870848 4294967295
1.4914999 0.4808639 0.85288358 4294967295
1.4859999 0.47613323 0.86545825 4294967295
1.4868095 -0.92749858 0.8742578 4294967295
1.4856765 -0.93334126 0.85878134 4294967295
1.4898666 0.81575805 0.83465934 4294967295
1.4873683 0.48489219 0.83551347 4294967295
1.491413 -0.92305678 0.83309299 4294967295
1.4806572 -0.9333207 0.83590615 4294967295
1.4882858 0.81452966 0.80677575 4294967295
1.476 0.809771 0.79463959 4294967295
1.492 0.48795024 0.80795312 4294967295
1.4899309 -0.92340678 0.80421066 4294967295
1.4797692 -0.93399376 0.80894864 4294967295
1.4901112 0.81405538 0.77479839 4294967295
1.4748749 0.8091538 0.77732348 4294967295
1.493 0.48655227 0.78914273 4294967295
1.4878801 -0.92285949 0.77545333 4294967295
1.4744999 -0.93032914 0.76732922 4294967295
1.4906 0.81432253 0.75066537 4294967295
1.4885615 -0.92482871 0.74622917 4294967295
1.4762144 -0.93052685 0.74501264 4294967295
1.4886667 0.48052913 0.7123667 4294967295
1.4883333 0.47927046 0.70427191 4294967295
1.4894545 -0.928527 0.71416211 4294967295
1.4774827 -0.93284333 0.71802139 4294967295
1.4928 0.81343907 0.67618954 4294967295
1.4903334 0.47760886 0.68550897 4294967295
1.4872108 -0.92211169 0.68367225 4294967295
1.4890002 0.81615561 0.65491974 4294967295
1.471 0.80702788 0.66230989 4294967295
1.4864601 -0.92496908 0.65514672 4294967295
1.4854999 0.82014585 0.62579322 4294967295
1.4868305 -0.92120808 0.62583166 4294967295
1.4869092 0.81981909 0.60332245 4294967295
1.49 0.48038206 0.58117867 4294967295
1.4863636 0.47873953 0.59294283 4294967295
1.4861666 -0.92450714 0.59503305 4294967295
1.4885 0.82155675 0.5621202 4294967295
1.4847692 0.48174122 0.5663954 4294967295
1.471 0.47938269 0.57357264 4294967295
1.4852 -0.92342454 0.56374675 4294967295
1.4710001 -0.93017435 0.56333369 4294967295
1.488 0.82029778 0.53720224 4294967295
1.4860001 -0.9186309 0.5350759 4294967295
1.4854 0.81698883 0.50514573 4294967295
1.4863108 -0.92229223 0.50548989 4294967295
1.482 0.81306279 0.46394145 4294967295
1.4863055 -0.92204314 0.47464991 4294967295
1.4920001 0.81854904 0.45490777 4294967295
1.4876295 -0.92282343 0.44519785 4294967295
1.4910001 0.82491922 0.40479165 4294967295
1.4870834 -0.92909628 0.41547781 4294967295
1.4874514 -0.93153787 0.41552919 4294967295
1.4871665 0.8213585 0.38353735 4294967295
1.4862274 -0.92527884 0.38408488 4294967295
1.4769999 0.81374657 0.34418935 4294967295
1.4859999 0.48771879 0.34311807 4294967295
1.4860001 -0.92299837 0.35529041 4294967295
1.4765 0.81347108 0.33568513 4294967295
1.4910001 0.48935986 0.33560106 4294967295
1.4861113 -0.92009932 0.3241207 4294967295
1.4875833 0.48391715 0.29662618 4294967295
1.4832499 0.47820374 0.28322303 4294967295
