# .PCD v0.7 - Point Cloud Data file format
VERSION 0.7
FIELDS x y z rgb
SIZE 4 4 4 4
TYPE F F F U
COUNT 1 1 1 1
WIDTH 1154
HEIGHT 1
VIEWPOINT 0 0 0 1 0 0 0
POINTS 1154
DATA ascii
2.7413747 2.2632599 -0.094910443 4294967295
2.7423844 2.254849 -0.12456077 4294967295
2.7446666 2.2366958 -0.13500905 4294967295
2.7414446 2.2906096 -0.16039711 4294967295
2.740437 2.262085 -0.15234143 4294967295
2.7378001 2.2321944 -0.15238363 4294967295
2.7391579 2.2118804 -0.15491271 4294967295
2.7461669 2.2929618 -0.18120223 4294967295
2.7457776 2.2623799 -0.19012016 4294967295
2.7427776 2.2337413 -0.18830991 4294967295
2.7423334 2.2142861 -0.17828369 4294967295
2.7428825 2.2385168 -0.21227694 4294967295
2.7446923 2.2327445 -0.24365228 4294967295
2.7472501 2.2258708 -0.27232999 4294967295
2.7379999 2.2199829 -0.28235728 4294967295
2.74575 2.233418 -0.30532694 4294967295
2.744 2.2518916 -0.33821386 4294967295
2.7383335 2.2456584 -0.32692027 4294967295
2.7454443 2.2613962 -0.36592913 4294967295
2.756 2.2665493 -0.38354802 4294967295
2.756 2.1770279 -0.38994241 4294967295
2.7620001 0.75912255 2.0624599 4294967295
2.7791252 -0.89250028 2.0639582 4294967295
2.779 0.75734717 2.0364981 4294967295
2.7743638 -0.88767231 2.0383289 4294967295
2.7620001 0.75271422 2.0176017 4294967295
2.7758887 -0.87938511 2.0050647 4294967295
2.7756 0.75642055 1.9734328 4294967295
2.7739999 -0.89166903 1.9782377 4294967295
2.7802 -0.90656477 1.9500496 4294967295
2.7741668 -0.91103393 1.9179747 4294967295
2.76775 0.75908744 1.8810185 4294967295
2.7820001 -0.91360646 1.8896695 4294967295
2.779 0.75734717 1.8559539 4294967295
2.7744 -0.907242 1.8569531 4294967295
2.779 0.75734717 1.8301524 4294967295
2.7723331 -0.90399957 1.8205639 4294967295
2.7732856 0.76498204 1.7948174 4294967295
2.7753334 -0.91141713 1.7865614 4294967295
2.773375 0.77591264 1.7663729 4294967295
2.77475 -0.91766346 1.7637655 4294967295
2.7723331 1.4148232 1.7240956 4294967295
2.7754374 1.3958839 1.737517 4294967295
2.7774665 1.3648275 1.736845 4294967295
2.7741668 1.3342474 1.728109 4294967295
2.7771666 1.3072182 1.7299505 4294967295
2.7775834 1.2778918 1.7295955 4294967295
2.7656667 1.2563614 1.7244076 4294967295
2.7724164 0.77644372 1.7348452 4294967295
2.779 -0.9158417 1.7398908 4294967295
2.7738948 2.2043529 1.6978356 4294967295
2.7718751 2.1790972 1.7005668 4294967295
2.7620003 2.1497259 1.6929139 4294967295
2.7755003 1.8994159 1.6932728 4294967295
2.7768466 1.8753124 1.7054842 4294967295
2.7763333 1.8440039 1.7091018 4294967295
2.7753501 1.816565 1.7070343 4294967295
2.7781541 1.7879326 1.7065374 4294967295
2.7764549 1.7545477 1.7015748 4294967295
2.7676003 1.732842 1.695707 4294967295
2.7705002 1.5038867 1.6911569 4294967295
2.7698998 1.4868581 1.6921883 4294967295
2.7724285 1.4516288 1.6951878 4294967295
2.7764001 1.4287145 1.7080334 4294967295
2.7850001 1.3556103 1.7177584 4294967295
2.7796314 1.3352422 1.7053795 4294967295
2.7766664 1.3057352 1.7073839 4294967295
2.7797499 1.2756592 1.7050263 4294967295
2.77 1.2497693 1.699875 4294967295
2.7820001 1.1422167 1.6928008 4294967295
2.7745557 1.1251957 1.6989596 4294967295
2.7771666 1.0994099 1.7090168 4294967295
2.7716999 1.0672425 1.7109553 4294967295
2.7733846 1.0344777 1.7074648 4294967295
2.7764616 1.0054028 1.7028383 4294967295
2.7767 0.97510827 1.7015089 4294967295
2.7763529 0.94419026 1.699497 4294967295
2.7733123 0.91383934 1.699975 4294967295
2.7730474 0.88408995 1.7058556 4294967295
2.7757304 0.85602874 1.7052413 4294967295
2.7675002 0.83207345 1.7011323 4294967295
2.7620001 0.78475577 1.6907778 4294967295
2.7759092 0.77464205 1.703704 4294967295
2.7620001 -0.90703845 1.716411 4294967295
2.7790003 2.2822337 1.665745 4294967295
2.7741435 2.2612283 1.6729348 4294967295
2.7745559 2.2317324 1.6832175 4294967295
2.7730002 2.216192 1.6890067 4294967295
2.7838001 2.1692781 1.684516 4294967295
2.7761431 2.1446252 1.6769705 4294967295
2.7664001 2.1210527 1.6669586 4294967295
2.7790003 1.9523264 1.6678942 4294967295
2.7728186 1.9329542 1.6789881 4294967295
2.7790003 1.9147122 1.6883053 4294967295
2.7850003 1.7411569 1.6876038 4294967295
2.7773004 1.7234554 1.6792052 4294967295
2.765667 1.7023304 1.6677243 4294967295
2.7728338 1.6011137 1.6701624 4294967295
2.7745719 1.5723058 1.6763173 4294967295
2.7777696 1.5457509 1.6791068 4294967295
2.7783754 1.5190312 1.6836029 4294967295
2.78125 1.4871465 1.6836085 4294967295
2.7815716 1.4596453 1.6880046 4294967295
2.7809997 1.33216 1.6781765 4294967295
2.7718573 1.3032702 1.674726 4294967295
2.7767496 1.2764202 1.6766239 4294967295
2.7772307 1.2441086 1.6793773 4294967295
2.7757781 1.2187259 1.6751404 4294967295
2.7745557 1.185288 1.6803594 4294967295
2.7721112 1.1563596 1.6857631 4294967295
2.784143 0.8491863 1.6835521 4294967295
2.7721877 0.82544345 1.6709585 4294967295
2.7732997 0.79278439 1.6723871 4294967295
2.7850001 0.77836734 1.684373 4294967295
2.773 0.62703532 1.6632713 4294967295
2.7620001 0.54123992 1.6651446 4294967295
2.7850001 0.5392853 1.6617571 4294967295
2.7802 -0.91301531 1.6726764 4294967295
2.7741671 2.2965009 1.6444474 4294967295
2.7620003 2.2778921 1.6587362 4294967295
2.7748573 2.1109874 1.6539108 4294967295
2.7755003 2.0869641 1.6425502 4294967295
2.7713337 2.0573258 1.6336428 4294967295
2.7758126 1.962827 1.641881 4294967295
2.7850003 1.922084 1.6359105 4294967295
2.7850003 1.9156222 1.6359105 4294967295
2.7790003 1.7116148 1.6592973 4294967295
2.7756672 1.6934669 1.6450409 4294967295
2.765667 1.6734546 1.6345723 4294967295
2.7775004 1.6269119 1.6361257 4294967295
2.7726667 1.6126348 1.6524038 4294967295
2.7850001 1.3879187 1.6466799 4294967295
2.7850001 1.3760723 1.6423721 4294967295
2.7850001 1.2759163 1.6423721 4294967295
2.779 0.81537694 1.6592973 4294967295
2.779 0.8089292 1.6592973 4294967295
2.7620001 0.63736463 1.6523279 4294967295
2.7688 0.54385918 1.642236 4294967295
2.7767999 0.5351156 1.6467918 4294967295
2.7762501 -0.90687537 1.6420563 4294967295
2.7763751 2.3050339 1.6131296 4294967295
2.7810004 2.0483756 1.6278554 4294967295
2.7708573 2.0252678 1.6265613 4294967295
2.7770002 1.9922493 1.6278639 4294967295
2.7735002 1.9752395 1.6280718 4294967295
2.7850003 1.930161 1.622987 4294967295
2.7809999 1.9085652 1.6201105 4294967295
2.7830002 1.6860964 1.6243442 4294967295
2.7764447 1.6656631 1.6245986 4294967295
2.7733335 1.6394932 1.6269373 4294967295
2.773 0.55626315 1.6214514 4294967295
2.7801666 -0.89579564 1.6156858 4294967295
2.7620001 -0.90063018 1.6266947 4294967295
2.7714448 2.2935224 1.5861765 4294967295
2.7830002 2.2672246 1.5748419 4294967295
2.7676668 -0.89605647 1.5904233 4294967295
2.7705002 -0.90340179 1.5754523 4294967295
2.7757146 2.256979 1.5631753 4294967295
2.7733335 2.244333 1.5454366 4294967295
2.7744 -0.91111064 1.5543996 4294967295
2.7705004 2.2431102 1.5240282 4294967295
2.779 -0.89972574 1.510999 4294967295
2.7722001 -0.90523505 1.5227247 4294967295
2.7744005 2.2430487 1.4964659 4294967295
2.773 -0.89778316 1.4927747 4294967295
2.7751667 2.2383082 1.4677641 4294967295
2.7770002 0.5463239 1.4565963 4294967295
2.779 -0.89972574 1.4755363 4294967295
2.77475 -0.90317225 1.4595859 4294967295
2.7745001 2.2566299 1.4263526 4294967295
2.7723336 2.2424517 1.4432199 4294967295
2.7746 0.53211278 1.4321738 4294967295
2.7746003 -0.91245264 1.4353887 4294967295
2.7726002 2.2630279 1.4066314 4294967295
2.7850001 0.69436556 1.3903668 4294967295
2.7705002 0.5203976 1.4050996 4294967295
2.7850001 -0.89520663 1.3968285 4294967295
2.7722001 -0.90651387 1.4069386 4294967295
2.7713337 2.2673719 1.3764268 4294967295
2.7850001 0.73959726 1.3645201 4294967295
2.779 0.69931734 1.382044 4294967295
2.7620001 0.5156067 1.3895872 4294967295
2.7744 -0.88792008 1.3793035 4294967295
2.7850003 2.2839375 1.3515968 4294967295
2.7676671 2.2739949 1.3421619 4294967295
2.7693336 -0.87732011 1.3469272 4294967295
2.7730002 2.2805302 1.3222783 4294967295
2.7802002 2.2722528 1.310168 4294967295
2.7850001 -0.87582159 1.3128266 4294967295
2.7722003 2.2541151 1.2963083 4294967295
2.772429 2.2460499 1.2816737 4294967295
2.7802 -0.87946481 1.2856693 4294967295
2.7820003 2.2556548 1.2506564 4294967295
2.7676003 2.2439749 1.2590742 4294967295
2.77475 -0.89190489 1.2600148 4294967295
2.7735 -0.90114921 1.245203 4294967295
2.7733338 2.2657743 1.2222867 4294967295
2.7752223 -0.91637361 1.2249119 4294967295
2.7790003 2.2822337 1.1821635 4294967295
2.7733002 2.2743278 1.1968956 4294967295
2.7810001 0.52560598 1.1955402 4294967295
2.7810001 -0.92832744 1.2062957 4294967295
2.779 -0.93196452 1.1918352 4294967295
2.7820003 2.2847011 1.1651261 4294967295
2.7620003 2.2778921 1.1652963 4294967295
2.7792001 0.52654743 1.1667356 4294967295
2.7725 -0.92655611 1.161319 4294967295
2.779 -0.93196452 1.1757158 4294967295
2.7781432 2.2829134 1.136843 4294967295
2.7662504 2.2781734 1.1357808 4294967295
2.773375 0.52174169 1.1333667 4294967295
2.7751667 -0.92530811 1.1383166 4294967295
2.772429 2.2754588 1.1061561 4294967295
2.772778 0.52118164 1.1049113 4294967295
2.773 -0.92351842 1.1035279 4294967295
2.7745001 2.2753267 1.0748808 4294967295
2.7753334 0.52989078 1.07504 4294967295
2.779 -0.92551672 1.0757756 4294967295
2.7814004 2.2861407 1.0446421 4294967295
2.7676671 2.2761309 1.048911 4294967295
2.7778001 -0.92382753 1.046536 4294967295
2.7750001 2.2895215 1.0165566 4294967295
2.779 0.51878023 1.0048573 4294967295
2.77475 -0.90798485 1.0169629 4294967295
2.7730002 2.2805302 0.99415278 4294967295
2.7741253 2.2693636 0.98226655 4294967295
2.7620001 -0.89422184 0.99868017 4294967295
2.7804999 2.2528198 0.9631685 4294967295
2.7731667 2.246347 0.95129061 4294967295
2.7805002 0.512609 0.95350736 4294967295
2.776 -0.89875442 0.95279706 4294967295
2.779 -0.90294266 0.9435966 4294967295
2.7761669 2.2428634 0.92544329 4294967295
2.7814002 0.51277488 0.92459416 4294967295
2.7761667 -0.90953922 0.92491162 4294967295
2.779 2.2532165 0.88556689 4294967295
2.7733333 2.244324 0.8976922 4294967295
2.7620001 0.5156067 0.88653469 4294967295
2.779 -0.91262126 0.89523852 4294967295
2.777 2.2561915 0.86873794 4294967295
2.77475 2.2465394 0.85281831 4294967295
2.7804999 0.51906025 0.8696239 4294967295
2.7781668 -0.90804207 0.86718082 4294967295
2.7728331 2.2289026 0.84079397 4294967295
2.7798574 2.2124515 0.82579172 4294967295
2.773 0.52409399 0.82687306 4294967295
2.7767999 -0.91447777 0.83629954 4294967295
2.7713888 2.1991615 0.8045522 4294967295
2.7822726 2.1842794 0.80442625 4294967295
2.7850001 0.526362 0.8152777 4294967295
2.779 2.253226 0.7630595 4294967295
2.7732503 2.2351444 0.77864486 4294967295
2.783 2.2112653 0.7892375 4294967295
2.7753334 0.53312814 0.777731 4294967295
2.773 -0.94282001 0.78183627 4294967295
2.7783334 2.2562597 0.74438053 4294967295
2.7850001 0.54897779 0.74419928 4294967295
2.773 -0.95568764 0.7335825 4294967295
2.7804999 2.2544422 0.71481168 4294967295
2.7620001 2.2458506 0.71351033 4294967295
2.7701428 -0.95193774 0.71270013 4294967295
2.7762141 2.2532444 0.6809299 4294967295
2.7620001 2.2458506 0.69108123 4294967295
2.7696667 0.54487836 0.68941998 4294967295
2.7780001 0.52396202 0.67810911 4294967295
2.7820001 0.39992803 0.67457134 4294967295
2.7714443 0.37447923 0.67524272 4294967295
2.772625 0.34630328 0.67647028 4294967295
2.776 0.31534216 0.67906678 4294967295
2.7708001 0.28582543 0.67876887 4294967295
2.7642 0.25305709 0.67839068 4294967295
2.7724288 0.22348876 0.67611206 4294967295
2.7802 0.19646341 0.67285693 4294967295
2.7850001 0.12573811 0.67312086 4294967295
2.7814002 0.10622118 0.67292291 4294967295
2.7752221 0.07236506 0.67545199 4294967295
2.76475 0.044649784 0.67842221 4294967295
2.7704999 0.014196702 0.6779573 4294967295
2.7804999 -0.0083325263 0.67448884 4294967295
2.7850001 -0.38473424 0.67312086 4294967295
2.7814002 -0.40358856 0.67292291 4294967295
2.7826002 -0.43605995 0.67298889 4294967295
2.7850001 -0.46550521 0.67312086 4294967295
2.7837999 -0.49436405 0.67305487 4294967295
2.7825999 -0.52644545 0.67298889 4294967295
2.7850001 -0.54627609 0.67312086 4294967295
2.783 -0.68147689 0.67301089 4294967295
2.773 -0.70476812 0.67246103 4294967295
2.773 -0.73693728 0.67246103 4294967295
2.773 -0.76588959 0.67246103 4294967295
2.7775002 -0.79292172 0.67270851 4294967295
2.7850001 -0.81766653 0.67312086 4294967295
2.7850001 -0.8661291 0.67312086 4294967295
2.7781429 -0.88747376 0.67458999 4294967295
2.7783999 -0.91563839 0.67598736 4294967295
2.7736876 -0.94384235 0.68416917 4294967295
2.7748282 2.258918 0.65368688 4294967295
2.7674999 0.51341647 0.66573763 4294967295
2.7791247 0.49903622 0.64982176 4294967295
2.7820001 0.46318913 0.64585024 4294967295
2.7752502 0.43491098 0.65489078 4294967295
2.7691426 0.40863815 0.66215861 4294967295
2.7667143 0.19276693 0.66386527 4294967295
2.7760997 0.16397874 0.66297609 4294967295
2.7701821 0.13558854 0.66004848 4294967295
2.7661252 0.1064429 0.66326207 4294967295
2.7620001 0.086249828 0.66544795 4294967295
2.7710001 -0.018919257 0.66207182 4294967295
2.7748334 -0.045331944 0.65970349 4294967295
2.7747276 -0.073133595 0.66202861 4294967295
2.7729287 -0.10642721 0.656385 4294967295
2.7784998 -0.1361803 0.65020907 4294967295
2.7789998 -0.16468172 0.64700925 4294967295
2.7794614 -0.19496928 0.64851862 4294967295
2.7783999 -0.22330402 0.64569134 4294967295
2.7819998 -0.25522551 0.64391315 4294967295
2.7790003 -0.28575155 0.64557177 4294967295
2.7770002 -0.31450719 0.65336388 4294967295
2.7767 -0.34493425 0.66043258 4294967295
2.7685001 -0.37387797 0.6647222 4294967295
2.7656667 -0.43982333 0.66564107 4294967295
2.7681112 -0.46731755 0.66292167 4294967295
2.7663999 -0.49768281 0.66567969 4294967295
2.7620001 -0.5257439 0.66544795 4294967295
2.7691426 -0.55877125 0.66215861 4294967295
2.7738333 -0.58538038 0.65482605 4294967295
2.7785714 -0.61500645 0.6529755 4294967295
2.7729445 -0.6468308 0.65495324 4294967295
2.7642 -0.66789609 0.66043717 4294967295
2.7620001 -0.80194211 0.65647632 4294967295
2.7677829 -0.825459 0.65291476 4294967295
2.7693636 -0.85600209 0.65475059 4294967295
2.7653003 -0.88052815 0.65985429 4294967295
2.7620001 -0.91131067 0.66437995 4294967295
2.7763848 2.270417 0.62705028 4294967295
2.7775455 0.49592778 0.62613571 4294967295
2.7708333 0.46690628 0.62520224 4294967295
2.7620001 0.44511527 0.63981473 4294967295
2.7620001 -0.11881614 0.63981473 4294967295
2.7620001 -0.12842859 0.63981473 4294967295
2.7620001 -0.16260627 0.63233835 4294967295
2.7619998 -0.19754682 0.63523734 4294967295
2.7620001 -0.22455329 0.6334064 4294967295
2.7620001 -0.25339067 0.6334064 4294967295
2.7620001 -0.28756833 0.63767862 4294967295
2.7620001 -0.30465716 0.63981473 4294967295
2.7620001 -0.61738271 0.63853306 4294967295
2.7630482 -0.64668304 0.62856084 4294967295
2.7707777 -0.67491984 0.62695944 4294967295
2.7756157 -0.70542473 0.62750912 4294967295
2.7767689 -0.73496705 0.62359399 4294967295
2.7749412 -0.76622123 0.62293702 4294967295
2.7729995 -0.79595846 0.62656367 4294967295
2.7752628 -0.82565612 0.62580806 4294967295
2.77 -0.85720503 0.62549651 4294967295
2.7620001 -0.8749969 0.63981473 4294967295
2.7796001 2.2749901 0.59543699 4294967295
2.7663999 0.48946723 0.60534966 4294967295
2.7620001 0.47395268 0.60777318 4294967295
2.7656667 -0.65585053 0.6057536 4294967295
2.7759092 -0.67798197 0.59710705 4294967295
2.7776251 -0.70595032 0.58571881 4294967295
2.7850001 -0.73366475 0.5826574 4294967295
2.7844546 -0.77110738 0.59321874 4294967295
2.7787998 -0.79649496 0.59542173 4294967295
2.7723994 -0.82457721 0.5962224 4294967295
2.7719998 -0.85380054 0.60304296 4294967295
2.779 2.2575107 0.57392073 4294967295
2.7707779 2.2408323 0.56019604 4294967295
2.7620001 -0.71158499 0.57573164 4294967295
2.7744999 -0.734119 0.57598382 4294967295
2.7731667 -0.76591569 0.57595694 4294967295
2.7620001 -0.7916888 0.57573164 4294967295
2.774667 2.2346773 0.53307408 4294967295
2.7748182 2.2392919 0.5063442 4294967295
2.7744 2.2411182 0.47298992 4294967295
2.7807143 2.2527657 0.44154197 4294967295
2.7705002 2.2463095 0.44950718 4294967295
2.7759998 2.2606087 0.41566882 4294967295
2.7850001 2.2839375 0.37911463 4294967295
2.7692859 2.2737892 0.38589677 4294967295
2.7850001 2.2839375 0.36619127 4294967295
2.7726252 2.2745783 0.35239118 4294967295
2.7739999 2.2669463 0.32534552 4294967295
2.77475 2.2626457 0.29594022 4294967295
2.7815716 2.2534606 0.26818419 4294967295
2.7674999 2.2471058 0.26440784 4294967295
2.7775834 2.2633362 0.23181045 4294967295
2.7674999 2.2471058 0.24836794 4294967295
2.7770002 2.281666 0.2066322 4294967295
2.7705002 2.2763183 0.20628798 4294967295
2.7750001 2.2641356 0.18389711 4294967295
2.7761667 2.2348111 0.1702264 4294967295
2.7710001 2.2210069 0.15544447 4294967295
2.7717276 2.2151594 0.14096802 4294967295
2.7712142 2.2253129 0.11297524 4294967295
2.77475 2.2159653 0.12372091 4294967295
2.7755001 2.2267597 0.08659333 4294967295
2.7835002 2.2165101 0.077272475 4294967295
2.77175 2.2248344 0.064674109 4294967295
2.7746665 2.2061608 0.05515337 4294967295
2.7770002 2.2258272 0.017632663 4294967295
2.77475 2.2119322 0.030384809 4294967295
2.7756 2.2568929 -0.0074370503 4294967295
2.7770002 2.2408535 0.0068956614 4294967295
2.7745554 2.2660658 -0.034149289 4294967295
2.7754548 2.2708228 -0.064424098 4294967295
2.7802 2.2825747 -0.09475714 4294967295
2.7715003 2.2749937 -0.10032755 4294967295
2.7764616 2.2630441 -0.1216706 4294967295
2.7740002 2.2334614 -0.13239849 4294967295
2.7850001 2.2193208 -0.1345886 4294967295
2.7620001 2.2875047 -0.16763252 4294967295
2.7620001 2.2778921 -0.16763252 4294967295
2.7732501 2.2212043 -0.14630759 4294967295
2.7684286 2.2152772 -0.1563673 4294967295
2.7632227 2.2917225 -0.18075627 4294967295
2.7620001 2.2778921 -0.18044913 4294967295
2.7761252 2.2243178 -0.18644422 4294967295
2.7620001 2.213809 -0.17404085 4294967295
2.7748182 2.2422166 -0.21588546 4294967295
2.7740002 2.2443345 -0.2446416 4294967295
2.7765834 2.2367625 -0.2727266 4294967295
2.776875 2.2402141 -0.3034063 4294967295
2.776125 2.2629595 -0.33619291 4294967295
2.7781429 2.2755468 -0.36410135 4294967295
2.7802 2.2722471 -0.39019513 4294967295
2.7835 2.2326539 -0.39901859 4294967295
2.7809999 2.2046628 -0.38815445 4294967295
2.7780001 2.1782892 -0.38860679 4294967295
2.809 0.7655229 2.0887074 4294967295
2.806 -0.88078928 2.0854027 4294967295
2.8005998 0.76192743 2.0632081 4294967295
2.8051171 -0.88059831 2.0658495 4294967295
2.8105001 0.75941086 2.0341232 4294967295
2.8149998 -0.8656621 2.0267453 4294967295
2.8025715 -0.87575912 2.0344863 4294967295
2.8125999 0.75997829 2.0058751 4294967295
2.8150001 -0.8656621 2.0136828 4294967295
2.8055713 -0.87670267 2.0016959 4294967295
2.7909999 0.76061743 1.9620943 4294967295
2.8056669 -0.89243567 1.9812326 4294967295
2.8047142 -0.90432471 1.9673064 4294967295
2.7934003 0.76127148 1.9438825 4294967295
2.8055718 -0.91018063 1.9426485 4294967295
2.8 0.76198161 1.911507 4294967295
2.8077998 -0.9155646 1.9186525 4294967295
2.8040001 0.75981307 1.8853042 4294967295
2.8079998 -0.91345268 1.8850943 4294967295
2.803 0.7573843 1.8544844 4294967295
2.8045001 -0.90798157 1.8552039 4294967295
2.806 0.75981385 1.8233486 4294967295
2.8109999 -0.91008604 1.825667 4294967295
2.8043334 0.76641423 1.7954596 4294967295
2.8038571 -0.9152059 1.7949232 4294967295
2.8038573 0.77014434 1.7656618 4294967295
2.8076668 -0.91913253 1.7673155 4294967295
2.7909999 1.4146526 1.7224972 4294967295
2.7977061 1.3966627 1.7280481 4294967295
2.7922001 1.3738003 1.7281947 4294967295
2.7909999 1.3013296 1.7289728 4294967295
2.8023999 0.76891297 1.7371489 4294967295
2.8060002 -0.91171545 1.7354757 4294967295
2.7910001 2.224102 1.6901193 4294967295
2.7946002 2.2075186 1.6916285 4294967295
2.7996669 1.9018815 1.693745 4294967295
2.7996256 1.8753376 1.6973736 4294967295
2.7944288 1.8461589 1.6952591 4294967295
2.7934005 1.8144565 1.6937156 4294967295
2.7945006 1.7849181 1.6975249 4294967295
2.7922003 1.759913 1.6932125 4294967295
2.7909999 1.440555 1.6901193 4294967295
2.7935719 1.4202694 1.7026175 4294967295
2.803 1.3970156 1.7051007 4294967295
2.7926669 1.3669065 1.7030582 4294967295
2.7909999 1.1426775 1.6901193 4294967295
2.8045788 1.1239017 1.6975141 4294967295
2.8067143 1.0942123 1.7056786 4294967295
2.8069003 1.063871 1.7032756 4294967295
2.8021998 1.0354345 1.6974022 4294967295
2.7932501 1.0042638 1.6943004 4294967295
2.7930002 0.9764539 1.6938357 4294967295
2.7919998 0.94118768 1.6916177 4294967295
2.7910001 0.9138732 1.6922778 4294967295
2.7910001 0.88509279 1.6929972 4294967295
2.8034616 0.76900548 1.7028391 4294967295
2.8018003 -0.91034657 1.7043799 4294967295
2.8150003 2.3150713 1.6609936 4294967295
2.805182 2.2933722 1.6694323 4294967295
2.8057275 2.263638 1.6797168 4294967295
2.807667 2.2337434 1.68225 4294967295
2.8087146 2.2050102 1.6745628 4294967295
2.8000002 2.1760478 1.6727624 4294967295
2.7940004 2.1486983 1.662202 4294967295
2.7992501 1.954639 1.6675974 4294967295
2.8035004 1.9356525 1.6758327 4294967295
2.8094451 1.9049008 1.6758746 4294967295
2.8119996 1.8744937 1.6773822 4294967295
2.8099599 1.8435987 1.6761464 4294967295
2.8087776 1.8141879 1.6751074 4294967295
2.810111 1.7855896 1.6749319 4294967295
2.804667 1.7574322 1.6748617 4294967295
2.7950003 1.7333575 1.6669291 4294967295
2.7975457 1.6020657 1.6663066 4294967295
2.7965717 1.5741334 1.6660334 4294967295
2.7944291 1.5437449 1.6670061 4294967295
2.7956672 1.5150323 1.6690012 4294967295
2.7962174 1.4841408 1.6711384 4294967295
2.7972732 1.4550031 1.6741518 4294967295
2.7970006 1.4256583 1.6746413 4294967295
2.7945299 1.3947021 1.674824 4294967295
2.7925003 1.3668243 1.6745515 4294967295
2.793308 1.3380455 1.6646595 4294967295
2.7935715 1.3066945 1.6624898 4294967295
2.7909999 1.2734846 1.665512 4294967295
2.7977061 1.2446769 1.6661903 4294967295
2.8075001 1.2155417 1.671289 4294967295
2.8077998 1.1844001 1.6756401 4294967295
2.8070717 1.1559907 1.6761285 4294967295
2.8141999 1.129539 1.6785139 4294967295
2.8150001 1.0558405 1.6792812 4294967295
2.8133633 1.0361215 1.6724895 4294967295
2.8070798 1.0049361 1.6770524 4294967295
2.8077142 0.97455978 1.6733752 4294967295
2.806 0.94503784 1.6794621 4294967295
2.8065295 0.91537642 1.6809107 4294967295
2.8059998 0.88432956 1.6813357 4294967295
2.8026254 0.85643864 1.6734303 4294967295
2.7939999 0.83598089 1.662202 4294967295
2.8029997 0.78609395 1.6669478 4294967295
2.8096666 0.77438974 1.6791018 4294967295
2.8149998 0.65177208 1.6740562 4294967295
2.7969999 0.54160899 1.6764179 4294967295
2.8064287 0.53133702 1.6714811 4294967295
2.80825 -0.91326207 1.6761734 4294967295
2.8090005 2.3180964 1.6440741 4294967295
2.7910001 2.305047 1.6512656 4294967295
2.8150001 2.1975083 1.6544623 4294967295
2.8122733 2.1740232 1.6539519 4294967295
2.8090005 2.1447968 1.6455055 4294967295
2.8026252 2.1163039 1.6409175 4294967295
2.7977502 2.0866644 1.6337062 4294967295
2.7910001 2.0686877 1.6318389 4294967295
2.7920914 1.958777 1.6416988 4294967295
2.7954004 1.9379028 1.6461388 4294967295
2.8027694 1.9005527 1.6452802 4294967295
2.8138003 1.8845075 1.6435342 4294967295
2.8150003 1.7746081 1.6495639 4294967295
2.8115261 1.7539711 1.6458502 4294967295
2.8000007 1.7245567 1.6431253 4294967295
2.7909999 1.7038959 1.6339976 4294967295
2.8054004 1.6336943 1.6375643 4294967295
2.8089998 1.6056784 1.6491979 4294967295
2.8074996 1.5728325 1.6481682 4294967295
2.8061762 1.5452776 1.6478263 4294967295
2.8101997 1.5159848 1.6502385 4294967295
2.8113997 1.486964 1.6464822 4294967295
2.8072498 1.456004 1.6442795 4294967295
2.7982635 1.4238048 1.641893 4294967295
2.7921431 1.3967227 1.6443189 4294967295
2.7967861 1.3645034 1.6431617 4294967295
2.8039598 1.3369024 1.6447957 4294967295
2.7960529 1.3038663 1.6427224 4294967295
2.7930002 1.2725507 1.6434277 4294967295
2.8065557 1.2466975 1.6467068 4294967295
2.8150001 1.2243477 1.6544623 4294967295
2.8150001 1.0545343 1.6544623 4294967295
2.8150003 1.0327634 1.6533738 4294967295
2.8127503 1.0071926 1.6551831 4294967295
2.8150001 0.98595601 1.6544623 4294967295
2.812 0.84463233 1.656512 4294967295
2.8075719 0.82282764 1.6502032 4294967295
2.8092399 0.79503179 1.6466502 4294967295
2.8150001 0.77042371 1.6348685 4294967295
2.8040001 0.54946327 1.6359268 4294967295
2.8054001 0.53151816 1.6518884 4294967295
2.8077998 -0.89601249 1.6372308 4294967295
2.8041999 -0.90657258 1.6514078 4294967295
2.8083336 2.3168225 1.615582 4294967295
2.8150003 2.2954776 1.6048245 4294967295
2.8150003 2.2758837 1.6022121 4294967295
2.8150003 2.1109688 1.6267043 4294967295
2.8130007 2.084451 1.6204754 4294967295
2.8071055 2.0559318 1.6204112 4294967295
2.8052855 2.0234642 1.6210815 4294967295
2.8069131 1.9932601 1.6177682 4294967295
2.805182 1.9649975 1.6140912 4294967295
2.8027008 1.9372016 1.609483 4294967295
2.8050003 1.9030548 1.6157085 4294967295
2.8140004 1.7527608 1.6203247 4294967295
2.8102 1.7249614 1.6140475 4294967295
2.8043334 1.6964802 1.6168897 4294967295
2.8053081 1.6652238 1.6240081 4294967295
2.8150003 1.648881 1.6283371 4294967295
2.8150003 1.4766183 1.6209896 4294967295
2.81425 1.455822 1.6182449 4294967295
2.8118691 1.4252313 1.6140486 4294967295
2.808769 1.3940772 1.6148325 4294967295
2.8107493 1.36569 1.6152385 4294967295
2.8124735 1.3362405 1.6160015 4294967295
2.807421 1.3047038 1.6174521 4294967295
2.8061302 1.2759614 1.6191655 4294967295
2.8138001 1.2512431 1.6252522 4294967295
2.8149998 0.812877 1.6174518 4294967295
2.8078747 0.79290378 1.6165818 4294967295
2.8108001 0.77187628 1.6175635 4294967295
2.803 0.55251205 1.6236124 4294967295
2.8105001 -0.89443314 1.6159643 4294967295
2.80075 2.2943976 1.5942949 4294967295
2.8066666 2.2618928 1.584181 4294967295
2.8150003 2.2484522 1.5852308 4294967295
2.8150001 1.3863235 1.5930684 4294967295
2.8150003 1.3680359 1.5919486 4294967295
2.8 0.79881126 1.5964453 4294967295
2.7909999 -0.8971352 1.599461 4294967295
2.8052502 -0.90658981 1.5854393 4294967295
2.8062 2.256165 1.5554113 4294967295
2.8150003 2.2497585 1.56629 4294967295
2.8150001 -0.89831847 1.5434306 4294967295
2.8074999 -0.91057062 1.5548108 4294967295
2.8085718 2.2576425 1.524799 4294967295
2.8150001 1.8448193 1.5205711 4294967295
2.8150003 1.8219599 1.5107741 4294967295
2.8115003 -0.89284515 1.5242214 4294967295
2.8 -0.90488833 1.5314735 4294967295
2.8045003 2.2535539 1.4989388 4294967295
2.8098574 2.2465653 1.487546 4294967295
2.8130002 1.8435133 1.5035436 4294967295
2.8126001 1.8223575 1.5047073 4294967295
2.8105001 0.55073702 1.4847398 4294967295
2.8055713 -0.89575922 1.4958165 4294967295
2.8090003 2.2514806 1.4532648 4294967295
2.8068185 2.243192 1.46526 4294967295
2.7970002 0.54549712 1.4681031 4294967295
2.809 0.53524047 1.4619615 4294967295
2.8150001 -0.8656621 1.4519926 4294967295
2.8101428 -0.88806266 1.4624869 4294967295
2.7987142 -0.90239012 1.4577256 4294967295
2.8011255 2.2544963 1.4315503 4294967295
2.8112504 2.2459347 1.4376938 4294967295
2.809 0.69383198 1.4272023 4294967295
2.8066001 0.52913254 1.436174 4294967295
2.8150001 -0.86239642 1.4421957 4294967295
2.8116665 -0.88529003 1.4356642 4294967295
2.8029997 -0.90748614 1.4350064 4294967295
2.8120003 2.2832413 1.3922806 4294967295
2.8056672 2.2668693 1.4087533 4294967295
2.8150003 2.2497585 1.4193363 4294967295
2.8074999 0.70323747 1.4039123 4294967295
2.8050003 0.51711881 1.4063839 4294967295
2.8062727 -0.89137715 1.408271 4294967295
2.7950001 -0.90489656 1.4151051 4294967295
2.8080001 2.2908509 1.3758348 4294967295
2.7910001 2.2759068 1.3857663 4294967295
2.8150001 0.76715803 1.3670859 4294967295
2.8150001 0.74103296 1.3801486 4294967295
2.7969999 0.71682596 1.381138 4294967295
2.8072858 -0.88561118 1.3759115 4294967295
2.8036001 2.293324 1.3421872 4294967295
2.7969999 0.51565087 1.3357114 4294967295
2.8150001 -0.88525593 1.3507578 4294967295
2.8030005 2.2856691 1.324452 4294967295
2.8048754 2.2607689 1.3119829 4294967295
2.8138003 2.246187 1.3066649 4294967295
2.809 0.51786321 1.3229177 4294967295
2.8060002 -0.87834531 1.3163505 4294967295
2.8020003 2.2523558 1.284065 4294967295
2.8110003 2.2465477 1.2908678 4294967295
2.8045001 -0.88194519 1.2825847 4294967295
2.8054709 2.2608883 1.2554687 4294967295
2.8055713 -0.89437062 1.2591593 4294967295
2.803 -0.90261137 1.2464097 4294967295
2.8150003 2.2824149 1.2136009 4294967295
2.8056252 2.2751994 1.2247152 4294967295
2.8071251 -0.91532952 1.2238696 4294967295
2.8062005 2.2839444 1.1929784 4294967295
2.8030002 2.2791886 1.2073925 4294967295
2.8075001 0.52246249 1.1905819 4294967295
2.805625 -0.9237861 1.1950135 4294967295
2.8050001 2.2858579 1.1663022 4294967295
2.8120005 2.2767167 1.1541429 4294967295
2.8065002 0.51793265 1.162122 4294967295
2.8042002 -0.92217898 1.1664722 4294967295
2.805527 2.2860188 1.1353734 4294967295
2.8150001 2.2758837 1.1384912 4294967295
2.8063333 0.51518983 1.1351324 4294967295
2.8049998 -0.92476636 1.1348381 4294967295
2.8066926 2.2881863 1.1076162 4294967295
2.8050003 0.51566976 1.105202 4294967295
2.803 -0.92700619 1.1033374 4294967295
2.8046005 2.2856755 1.075475 4294967295
2.8142505 2.2720098 1.065685 4294967295
2.8073637 0.52702862 1.0740387 4294967295
2.8072858 -0.92562455 1.0735226 4294967295
2.8069999 2.291728 1.0439991 4294967295
2.8135006 2.2714019 1.0516655 4294967295
2.8044999 0.54468364 1.0515838 4294967295
2.812429 0.53527206 1.0465618 4294967295
2.8036668 -0.92143351 1.0463718 4294967295
2.8082943 2.2965055 1.01283 4294967295
2.809 0.52047014 1.0172619 4294967295
2.8050001 -0.90920883 1.0202162 4294967295
2.7994001 2.2866392 0.99476755 4294967295
2.806529 2.2648072 0.98304117 4294967295
2.8150001 2.2497585 0.97520918 4294967295
2.7995715 0.51425886 0.98291004 4294967295
2.7922001 -0.89752096 0.98448455 4294967295
2.8020771 2.2519197 0.95561445 4294967295
2.8144002 2.2460134 0.95552528 4294967295
2.8114002 0.51178282 0.95506656 4294967295
2.8060002 -0.89869112 0.96398818 4294967295
2.809 -0.90292108 0.94816947 4294967295
2.809 2.2514806 0.93187606 4294967295
2.8058233 2.2439311 0.92432404 4294967295
2.8120003 0.51189202 0.92578471 4294967295
2.8050003 -0.90758872 0.92531765 4294967295
2.7925 2.2528324 0.88572031 4294967295
2.806931 2.2405884 0.89530218 4294967295
2.8030002 0.51566851 0.89738595 4294967295
2.8070002 -0.90877706 0.89576662 4294967295
2.7925 2.2528324 0.86790895 4294967295
2.8064618 2.2386503 0.86513764 4294967295
2.806 0.5205549 0.86636353 4294967295
2.809 -0.90698928 0.86588782 4294967295
2.80075 2.2253523 0.84293699 4294967295
2.8051174 2.2043269 0.83312333 4294967295
2.8071542 2.1758258 0.82765329 4294967295
2.8105001 0.52466059 0.84079206 4294967295
2.8060002 -0.91496366 0.84029406 4294967295
2.7954998 2.1968555 0.79044676 4294967295
2.8041432 2.1784785 0.80583626 4294967295
2.809 0.53089792 0.79826093 4294967295
2.809 -0.94854265 0.79175282 4294967295
2.7993999 2.2541609 0.76613885 4294967295
2.8048949 2.2358415 0.77627385 4294967295
2.8115716 2.2088077 0.78361219 4294967295
2.806 0.53684133 0.77517617 4294967295
2.8069999 -0.95438004 0.77200729 4294967295
2.8072855 2.2606332 0.74568361 4294967295
2.813 0.55122924 0.74646264 4294967295
2.8054001 -0.9577353 0.7380318 4294967295
2.8053334 2.257565 0.71473938 4294967295
2.8150003 2.2475812 0.70851523 4294967295
2.8138001 0.55661291 0.71387804 4294967295
2.813 -0.92378211 0.70076686 4294967295
2.8065999 -0.94597846 0.71294463 4294967295
2.7963333 2.2521298 0.68960875 4294967295
2.8093526 2.2433097 0.68289971 4294967295
2.8 0.54866546 0.6966728 4294967295
2.8043332 0.52495152 0.68865287 4294967295
2.8050001 0.49813542 0.67911077 4294967295
2.812 0.46622175 0.67787093 4294967295
2.8096001 0.43323424 0.67904246 4294967295
2.8015001 0.40597427 0.68297893 4294967295
2.809 0.37448132 0.6907407 4294967295
2.8081429 0.34551439 0.6902231 4294967295
2.8077998 0.31569293 0.69066918 4294967295
2.8050003 0.28427708 0.6908651 4294967295
2.8003335 0.25492555 0.68985808 4294967295
2.8049998 0.22499259 0.68869418 4294967295
2.8059998 0.19503671 0.68404973 4294967295
2.8018003 0.16549775 0.67730319 4294967295
2.8041999 0.13310143 0.68004483 4294967295
2.8052499 0.1038764 0.68400502 4294967295
2.8050001 0.073846109 0.68869418 4294967295
2.8030002 0.045264758 0.6903795 4294967295
2.8056667 0.015275656 0.69090176 4294967295
2.8030002 -0.01948477 0.68240023 4294967295
2.803 -0.045790337 0.67736918 4294967295
2.8041999 -0.075096287 0.67743796 4294967295
2.8089998 -0.10454458 0.677706 4294967295
2.809 -0.1338727 0.67444038 4294967295
2.809 -0.1664595 0.67444038 4294967295
2.812 -0.19599672 0.67787099 4294967295
2.811667 -0.22387804 0.67748976 4294967295
2.8150001 -0.25498733 0.67477024 4294967295
2.8114002 -0.28400606 0.67457235 4294967295
2.8116667 -0.31520769 0.67748976 4294967295
2.8090003 -0.34386566 0.67806733 4294967295
2.8023334 -0.37267977 0.67769611 4294967295
2.8066001 -0.40724516 0.68082023 4294967295
2.806 -0.43647024 0.68078583 4294967295
2.809 -0.46625805 0.68095773 4294967295
2.8074999 -0.4953163 0.68087178 4294967295
2.803 -0.52379304 0.68061393 4294967295
2.8047142 -0.55757558 0.67793095 4294967295
2.8100002 -0.58268738 0.67667246 4294967295
2.8125999 -0.61693853 0.67463827 4294967295
2.809 -0.6454854 0.67444038 4294967295
2.8067498 -0.67183065 0.67839521 4294967295
2.8030002 -0.70442861 0.68351513 4294967295
2.8066006 -0.7360906 0.68408585 4294967295
2.806 -0.76522803 0.68405145 4294967295
2.8072 -0.79487008 0.68412024 4294967295
2.802 -0.83022869 0.67839807 4294967295
2.8041999 -0.85648495 0.68004626 4294967295
2.805182 -0.88571304 0.68666637 4294967295
2.8018 -0.91684574 0.69030309 4294967295
2.7946 -0.9410786 0.69569349 4294967295
2.8002729 2.2521513 0.65091431 4294967295
2.8093998 2.2448328 0.65837508 4294967295
2.7926366 0.49010631 0.65999699 4294967295
2.7969999 0.46668202 0.66257775 4294967295
2.7924998 0.44031367 0.66543519 4294967295
2.7909999 -0.11035026 0.66697514 4294967295
2.7961428 -0.13511211 0.6653958 4294967295
2.7969999 -0.16574837 0.66405332 4294967295
2.7961428 -0.19442892 0.66447067 4294967295
2.7974615 -0.22569077 0.66183281 4294967295
2.8011539 -0.25497845 0.6605233 4294967295
2.8011539 -0.28297609 0.66202301 4294967295
2.7969997 -0.31222406 0.66543889 4294967295
2.7909999 -0.33699611 0.66697514 4294967295
2.793 -0.58673131 0.6670804 4294967295
2.7969999 -0.61352503 0.6672911 4294967295
2.7940001 -0.64203155 0.66713309 4294967295
2.8044996 2.2643819 0.62457347 4294967295
2.8150001 2.2481256 0.63068414 4294967295
2.7909999 -0.68991607 0.61517036 4294967295
2.7909999 -0.70610505 0.61517036 4294967295
2.7909997 -0.72876966 0.61517036 4294967295
2.8 2.2816164 0.60248429 4294967295
2.809 2.2710109 0.59519595 4294967295
2.7909997 -0.68775755 0.60653621 4294967295
2.7950003 -0.70712286 0.60233814 4294967295
2.7964292 -0.73729271 0.59836638 4294967295
2.793143 -0.76404166 0.59765291 4294967295
2.8043334 2.2571187 0.57296968 4294967295
2.8060002 2.2477546 0.55970496 4294967295
2.8070002 2.243351 0.53430694 4294967295
2.8057001 2.2442563 0.50370598 4294967295
2.8051181 2.2441339 0.47629848 4294967295
2.7985001 2.2511661 0.44336167 4294967295
2.8083339 2.2444119 0.44598356 4294967295
2.8007145 2.2562692 0.41158456 4294967295
2.8133631 2.2368741 0.41417152 4294967295
2.8015003 2.2852714 0.38071001 4294967295
2.8103042 2.2683799 0.38533914 4294967295
2.8150003 2.2456765 0.38657752 4294967295
2.8010001 2.2847745 0.3613449 4294967295
2.8083792 2.2669187 0.35401645 4294967295
2.8135879 2.2394116 0.35175177 4294967295
2.8009136 2.2605174 0.32561398 4294967295
2.8127894 2.2356207 0.32601199 4294967295
2.8061111 2.263607 0.29690742 4294967295
2.8149998 2.2475812 0.30684146 4294967295
2.8040588 2.2555423 0.26544994 4294967295
2.8150001 2.2484522 0.25807458 4294967295
2.8008826 2.2568011 0.23324284 4294967295
2.8150003 2.2464929 0.2339088 4294967295
2.7993999 2.2833929 0.20497128 4294967295
2.8087857 2.2666504 0.20475447 4294967295
2.8150003 2.24613 0.20234096 4294967295
2.7969999 2.2580669 0.1854479 4294967295
2.8062723 2.234477 0.17383665 4294967295
2.803 2.2232397 0.15644518 4294967295
2.8042002 2.2163785 0.14197251 4294967295
2.7969999 2.2223847 0.10594788 4294967295
2.8057272 2.213619 0.11559284 4294967295
2.7970002 2.2223825 0.093617767 4294967295
2.8051817 2.2122962 0.08226198 4294967295
2.8074 2.2071941 0.057293892 4294967295
2.8006001 2.2291422 0.015095055 4294967295
2.8060002 2.2126038 0.028442442 4294967295
2.8034999 2.2616851 -0.011013806 4294967295
2.8096004 2.237597 0.0036978722 4294967295
2.8094995 2.2706044 -0.036318302 4294967295
2.7969999 2.2807994 -0.079003394 4294967295
2.8067777 2.2658355 -0.063965797 4294967295
2.8149996 2.2375867 -0.065045714 4294967295
2.8025 2.2852728 -0.096436381 4294967295
2.8092299 2.2654495 -0.094156563 4294967295
2.8129997 2.2356489 -0.09493196 4294967295
2.8135002 2.2110205 -0.10538262 4294967295
2.7969999 2.2807994 -0.11145097 4294967295
2.7995002 2.2638803 -0.11579627 4294967295
2.7979004 2.2305636 -0.12235779 4294967295
2.8084004 2.2086277 -0.12379307 4294967295
2.8022001 2.2239029 -0.15726799 4294967295
2.8113999 2.2155676 -0.14340335 4294967295
2.8058002 2.2293675 -0.18503952 4294967295
2.7909999 2.2500043 -0.22665715 4294967295
2.803375 2.2408516 -0.21532971 4294967295
2.8000002 2.2507424 -0.24204737 4294967295
2.806375 2.245285 -0.24663115 4294967295
2.8062499 2.2359579 -0.27603459 4294967295
2.7909999 2.2500043 -0.31731546 4294967295
2.807138 2.2342365 -0.30508417 4294967295
2.8150001 2.2171021 -0.30165619 4294967295
2.8065293 2.2640367 -0.33768201 4294967295
2.8128572 2.2410471 -0.33180255 4294967295
2.8 2.2832389 -0.36981952 4294967295
2.8119998 2.2684269 -0.36401379 4294967295
2.8109996 2.2365062 -0.36487603 4294967295
2.8086662 2.2055824 -0.37365133 4294967295
2.8150001 2.1844456 -0.37676591 4294967295
2.8017998 2.2834017 -0.38555658 4294967295
2.8006001 2.2645519 -0.39002395 4294967295
2.7949998 2.2366569 -0.38840389 4294967295
2.7969999 2.2016051 -0.38270718 4294967295
2.8077147 2.1806355 -0.38932985 4294967295
2.83775 0.76512307 2.09323 4294967295
2.846 -0.8685919 2.0862589 4294967295
2.8278573 -0.87242097 2.0907993 4294967295
2.833143 0.76176274 2.0664864 4294967295
2.8355002 -0.86372578 2.0623808 4294967295
2.8270001 -0.87262487 2.0757957 4294967295
2.8404 0.76089966 2.0337441 4294967295
2.8300555 -0.85641032 2.0355239 4294967295
2.8210001 0.76224804 1.9906857 4294967295
2.8303332 -0.86234051 2.0123243 4294967295
2.8312857 -0.87723327 1.9960421 4294967295
2.8210001 0.76224804 1.9743227 4294967295
2.8344448 -0.89356017 1.9786801 4294967295
2.8285 -0.90262657 1.9650447 4294967295
2.8281429 0.76229137 1.9418739 4294967295
2.8338001 -0.91022831 1.9447366 4294967295
2.8280001 0.76085055 1.9155837 4294967295
2.8348751 -0.91451615 1.9156804 4294967295
2.8316252 0.75525349 1.8845323 4294967295
2.8305714 -0.9098407 1.8858835 4294967295
2.8306999 0.75500619 1.8545222 4294967295
2.8306999 -0.90660119 1.8545222 4294967295
2.8341665 0.75812942 1.8276693 4294967295
2.8374445 -0.9091295 1.8266194 4294967295
2.8339 0.76309389 1.7968558 4294967295
2.834667 -0.91280258 1.7950028 4294967295
2.8371251 0.76330549 1.7654158 4294967295
2.8325 -0.91177672 1.7646874 4294967295
2.8315833 0.75907147 1.7328593 4294967295
2.8290002 -0.90569663 1.7337663 4294967295
2.8210001 1.0927807 1.6961516 4294967295
2.8316154 0.7580269 1.7046095 4294967295
2.846 0.74919349 1.6999714 4294967295
2.846 0.65674859 1.6933683 4294967295
2.839 0.62878543 1.6970693 4294967295
2.839 0.54315484 1.7036562 4294967295
2.8416665 0.5304687 1.6959738 4294967295
2.8351002 -0.90801233 1.7052965 4294967295
2.8331671 2.3135612 1.6650631 4294967295
2.8336158 2.2924321 1.6710527 4294967295
2.8319378 2.264518 1.6707141 4294967295
2.8232501 2.2358825 1.6676066 4294967295
2.8210003 1.8716596 1.6634256 4294967295
2.8210003 1.8552967 1.6634256 4294967295
2.8210001 1.2073216 1.6634256 4294967295
2.8210001 1.1893224 1.665062 4294967295
2.8210001 1.1451423 1.6634256 4294967295
2.8216 1.1205064 1.6695595 4294967295
2.8212497 1.0956055 1.6771626 4294967295
2.8209996 1.0694362 1.6747705 4294967295
2.8237269 0.94344258 1.6657159 4294967295
2.8284998 0.91479838 1.6672757 4294967295
2.8269999 0.88586712 1.6671581 4294967295
2.8210001 0.86478955 1.6656073 4294967295
2.8288946 0.76194489 1.6745625 4294967295
2.84075 0.74781144 1.6747323 4294967295
2.8425 0.6691311 1.6820366 4294967295
2.8314285 0.52386391 1.6760899 4294967295
2.8393333 -0.89729482 1.6664644 4294967295
2.831111 -0.90709573 1.6770122 4294967295
2.833813 2.3210745 1.644366 4294967295
2.8410003 2.2950175 1.6338691 4294967295
2.8400776 2.2642267 1.6448011 4294967295
2.8312359 2.2333663 1.6447653 4294967295
2.8286364 2.206054 1.6408434 4294967295
2.8257999 2.1775248 1.6382574 4294967295
2.8210003 2.1400127 1.6306995 4294967295
2.8237271 1.8734616 1.6436776 4294967295
2.82725 1.8451854 1.645171 4294967295
2.8254344 1.8148876 1.6455399 4294967295
2.8209999 1.7875071 1.6428548 4294967295
2.8210003 1.6340688 1.6320086 4294967295
2.8209999 1.6065789 1.633972 4294967295
2.8222001 1.5745183 1.6344445 4294967295
2.8251998 1.5440773 1.6362802 4294967295
2.8210001 1.5149463 1.633972 4294967295
2.8210001 1.4953105 1.6306995 4294967295
2.8222001 1.2366452 1.6364082 4294967295
2.8305166 1.2154591 1.6439356 4294967295
2.831846 1.1856787 1.6448016 4294967295
2.8292754 1.1544932 1.6436645 4294967295
2.8304639 1.1238767 1.6447212 4294967295
2.8312688 1.0944786 1.6440622 4294967295
2.8296154 1.0650557 1.6431513 4294967295
2.8288 1.0350842 1.6393285 4294967295
2.832087 1.0055 1.6421843 4294967295
2.8352919 0.9733125 1.6469859 4294967295
2.83832 0.94577521 1.6467154 4294967295
2.8400481 0.91644031 1.6454096 4294967295
2.8380401 0.88538134 1.6439911 4294967295
2.8284118 0.85419995 1.6448042 4294967295
2.821857 0.82888854 1.635712 4294967295
2.8210001 0.7818836 1.6503352 4294967295
2.8260522 0.76256359 1.6464902 4294967295
2.8436668 0.74637818 1.6495206 4294967295
2.83325 0.54533434 1.6388023 4294967295
2.8281999 0.53320932 1.6519027 4294967295
2.8330002 -0.88959205 1.643965 4294967295
2.8210001 -0.90023321 1.6568804 4294967295
2.8258004 2.3147624 1.6234094 4294967295
2.8263335 2.2937796 1.6167753 4294967295
2.828125 2.2635198 1.6158806 4294967295
2.8352311 2.2368119 1.6155518 4294967295
2.8446002 2.2074089 1.6267915 4294967295
2.8410003 2.1733127 1.6253833 4294967295
2.8361256 2.1449037 1.6185435 4294967295
2.8270001 2.1150439 1.6125488 4294967295
2.8230002 2.0863993 1.6058286 4294967295
2.8233075 2.0553446 1.604897 4294967295
2.8237691 2.0264478 1.60457 4294967295
2.8240004 1.9981376 1.6023924 4294967295
2.8270001 1.9032774 1.6068174 4294967295
2.8323574 1.8766049 1.6159184 4294967295
2.8375003 1.8446163 1.6164218 4294967295
2.8379505 1.8144274 1.6166203 4294967295
2.8307002 1.7848363 1.6124928 4294967295
2.8240001 1.757021 1.606321 4294967295
2.826143 1.7200401 1.6018087 4294967295
2.832438 1.6935809 1.6080772 4294967295
2.8342226 1.6656023 1.6179862 4294967295
2.8380804 1.6347293 1.6160673 4294967295
2.8375456 1.6061201 1.6192455 4294967295
2.8367336 1.5738451 1.623724 4294967295
2.8388753 1.5426538 1.6191975 4294967295
2.8299999 1.5154107 1.6156303 4294967295
2.8214998 1.4895757 1.611255 4294967295
2.8210001 1.4560394 1.6045188 4294967295
2.8244286 1.3323542 1.6030238 4294967295
2.8269997 1.3049898 1.603539 4294967295
2.8322856 1.2726803 1.6055554 4294967295
2.83164 1.2449685 1.6156877 4294967295
2.8408337 1.2174517 1.6220247 4294967295
2.8442502 1.1842784 1.6233537 4294967295
2.8430836 1.1546534 1.6206987 4294967295
2.8436668 1.1312485 1.6231267 4294967295
2.846 1.0529408 1.6273363 4294967295
2.846 1.0364329 1.6273363 4294967295
2.846 0.93738484 1.6273363 4294967295
2.842063 0.91590083 1.6150873 4294967295
2.8363004 0.88484019 1.6136949 4294967295
2.8329999 0.85422653 1.615705 4294967295
2.8265383 0.82933247 1.6147155 4294967295
2.8210001 0.75570279 1.6241543 4294967295
2.8329999 0.55515301 1.6288512 4294967295
2.8343003 -0.89197403 1.614892 4294967295
2.8295422 2.2402906 1.5848173 4294967295
2.8425002 2.1134465 1.595192 4294967295
2.8388577 2.0858035 1.5920848 4294967295
2.8393338 2.0561948 1.593443 4294967295
2.8415558 2.0248418 1.5955669 4294967295
2.8387783 1.9943154 1.5952455 4294967295
2.8323848 1.9663885 1.596238 4294967295
2.8328006 1.9353333 1.5958928 4294967295
2.8405564 1.9036767 1.5875024 4294967295
2.8375888 1.8751173 1.5884366 4294967295
2.8387785 1.8483198 1.5857393 4294967295
2.8413336 1.7763706 1.5969499 4294967295
2.8367505 1.7537653 1.5941167 4294967295
2.8365562 1.7294952 1.5958643 4294967295
2.8390002 1.7090476 1.5982648 4294967295
2.8382311 1.5140761 1.5873349 4294967295
2.8249998 1.4850538 1.5860186 4294967295
2.8219995 1.4560062 1.5858043 4294967295
2.8250797 1.4253712 1.5864116 4294967295
2.8225996 1.3961806 1.5819899 4294967295
2.8225784 1.3617173 1.5813388 4294967295
2.8333333 1.3369367 1.5876062 4294967295
2.8413334 1.307222 1.5969499 4294967295
2.839 1.2808949 1.5982648 4294967295
2.8421113 0.91083044 1.5899192 4294967295
2.836 0.89000934 1.5911999 4294967295
2.8404002 -0.89126104 1.5803417 4294967295
2.8270001 -0.90460408 1.5846813 4294967295
2.8288 2.2535586 1.5517246 4294967295
2.8375299 2.2448936 1.557412 4294967295
2.8410003 1.9023539 1.559477 4294967295
2.8300002 1.8761774 1.555819 4294967295
2.8297729 1.8440348 1.5553728 4294967295
2.8425002 1.8249137 1.5468293 4294967295
2.846 1.5052605 1.5613041 4294967295
2.8353891 1.4853998 1.5585099 4294967295
2.8298695 1.4551911 1.5545379 4294967295
2.83604 1.4272027 1.5573825 4294967295
2.834667 1.3951281 1.5637269 4294967295
2.8364618 1.3642813 1.5659053 4294967295
2.83775 -0.86442178 1.5525362 4294967295
2.830375 -0.88433266 1.5564166 4294967295
2.8246 -0.90400004 1.5613424 4294967295
2.8270001 2.2532849 1.5260966 4294967295
2.8395889 2.2383974 1.5209818 4294967295
2.8460002 2.2151048 1.5150818 4294967295
2.840167 1.897557 1.5262214 4294967295
2.8282003 1.8757902 1.5250336 4294967295
2.8210003 1.8435154 1.5377575 4294967295
2.8315265 1.820354 1.5255771 4294967295
2.8407502 1.481064 1.5297196 4294967295
2.8329999 1.4549681 1.527488 4294967295
2.837765 1.4302139 1.525753 4294967295
2.839 0.54315484 1.5126343 4294967295
2.8368001 -0.86577851 1.5342338 4294967295
2.8287222 -0.87971437 1.5250634 4294967295
2.8210003 2.2545538 1.5063407 4294967295
2.8272612 2.2341564 1.494843 4294967295
2.8398268 2.2065604 1.4948776 4294967295
2.8460002 1.891548 1.5018754 4294967295
2.8310003 1.8728307 1.5021663 4294967295
2.8210003 1.8552967 1.4965229 4294967295
2.8281999 0.54370952 1.497049 4294967295
2.8409998 0.53529513 1.4919155 4294967295
2.846 -0.8685919 1.4820657 4294967295
2.8323572 -0.88365275 1.4943464 4294967295
2.8256667 2.2291315 1.4638999 4294967295
2.837667 2.2091537 1.4655308 4294967295
2.8329999 0.69976002 1.4546655 4294967295
2.8331251 0.52887172 1.4661958 4294967295
2.8297272 -0.85943633 1.4622426 4294967295
2.8285 -0.87636572 1.4745138 4294967295
2.8256152 2.2340207 1.4345734 4294967295
2.8385358 2.2059879 1.4334393 4294967295
2.8314998 0.70596957 1.4311633 4294967295
2.8332224 0.52012151 1.4360993 4294967295
2.8297272 -0.86003518 1.4365671 4294967295
2.8269999 -0.87589979 1.4242539 4294967295
2.8318002 2.2868259 1.3931613 4294967295
2.8323185 2.2647774 1.4030461 4294967295
2.8367276 2.2359929 1.4098091 4294967295
2.8421257 2.2054851 1.4086244 4294967295
2.8460002 2.1886921 1.4094305 4294967295
2.839 0.72594315 1.4039493 4294967295
2.8210001 0.71315902 1.4048901 4294967295
2.8317499 0.51218969 1.4115328 4294967295
2.8314545 -0.88384938 1.4066737 4294967295
2.835429 2.3008392 1.3746388 4294967295
2.8329999 0.75891739 1.3790755 4294967295
2.8210001 0.51353031 1.3885272 4294967295
2.8359997 -0.88637078 1.375587 4294967295
2.8308127 2.2927475 1.3488624 4294967295
2.8355339 2.2661572 1.3421328 4294967295
2.8425002 2.2442501 1.3368886 4294967295
2.839 0.51680702 1.3446667 4294967295
2.8317499 -0.88230246 1.3425512 4294967295
2.8210003 2.2807345 1.3296204 4294967295
2.8210003 2.2643716 1.3279841 4294967295
2.830792 2.2374513 1.31409 4294967295
2.846 -0.8685919 1.3037791 4294967295
2.8340001 -0.8752569 1.3126922 4294967295
2.831429 2.2544224 1.2762997 4294967295
2.8314548 2.2437787 1.29081 4294967295
2.8413334 -0.86716771 1.2893038 4294967295
2.8297691 -0.87726223 1.2826389 4294967295
2.8327227 2.2620816 1.2541111 4294967295
2.832077 -0.89011097 1.25546 4294967295
2.8210001 -0.90023321 1.2445327 4294967295
