# .PCD v0.7 - Point Cloud Data file format
VERSION 0.7
FIELDS x y z rgb
SIZE 4 4 4 4
TYPE F F F U
COUNT 1 1 1 1
WIDTH 1158
HEIGHT 1
VIEWPOINT 0 0 0 1 0 0 0
POINTS 1158
DATA ascii
2.5024762 2.2015221 -0.094443023 4294967295
2.5023181 2.196969 -0.12460673 4294967295
2.500591 2.2350149 -0.15952206 4294967295
2.5057139 2.2087944 -0.15090013 4294967295
2.5053077 2.243449 -0.18352741 4294967295
2.5039563 2.2325222 -0.21628892 4294967295
2.4985001 2.2250412 -0.24005139 4294967295
2.5046003 2.2072027 -0.24997437 4294967295
2.5106666 2.187104 -0.25845051 4294967295
2.493 2.2035379 -0.27057219 4294967295
2.5012307 2.1844516 -0.27501166 4294967295
2.493 2.1948617 -0.29443198 4294967295
2.5020669 2.1838539 -0.29913539 4294967295
2.5432501 0.7299726 1.9358652 4294967295
2.5220001 0.78093171 1.9255043 4294967295
2.5220001 0.76825356 1.9264795 4294967295
2.5324166 0.73421192 1.9107157 4294967295
2.5369999 -0.8978976 1.9014891 4294967295
2.5349998 -0.90188956 1.9180312 4294967295
2.5369999 0.75025874 1.8720578 4294967295
2.5329092 0.74423289 1.8858806 4294967295
2.5270002 -0.8982594 1.8921312 4294967295
2.5432501 -0.90453309 1.8842356 4294967295
2.5320003 2.2526963 1.8400198 4294967295
2.5257504 2.2354155 1.8404186 4294967295
2.5470002 2.0178437 1.8419304 4294967295
2.5395002 2.0001001 1.840975 4294967295
2.5354617 0.75341272 1.8531157 4294967295
2.5327144 -0.91064954 1.854651 4294967295
2.5393534 2.291445 1.8213191 4294967295
2.5383048 2.2646933 1.8279278 4294967295
2.5286672 2.2340896 1.8245894 4294967295
2.5220003 2.2145422 1.8260293 4294967295
2.5386667 2.0446126 1.8179728 4294967295
2.5320003 2.0316384 1.8268105 4294967295
2.5320003 1.9868122 1.8355936 4294967295
2.5374169 1.9641335 1.8236911 4294967295
2.5220003 1.939523 1.8114007 4294967295
2.5369999 0.99944049 1.8112253 4294967295
2.5320001 0.98964173 1.8106465 4294967295
2.5345001 0.75440437 1.8251319 4294967295
2.5364447 -0.92385191 1.8253152 4294967295
2.5325558 2.2871253 1.8030928 4294967295
2.5293076 2.2647316 1.797097 4294967295
2.5230527 2.2305622 1.7928355 4294967295
2.5316303 2.206219 1.7869369 4294967295
2.528429 2.1807826 1.7836653 4294967295
2.5355718 2.0440772 1.798175 4294967295
2.5350001 2.0318074 1.7886224 4294967295
2.5470002 1.9897736 1.784313 4294967295
2.5432503 1.9643524 1.7916639 4294967295
2.5325882 1.9369327 1.7874128 4294967295
2.5320003 1.9054729 1.7824317 4294967295
2.5427146 1.7835274 1.7823892 4294967295
2.5395002 1.7525983 1.7820544 4294967295
2.5345001 1.7234619 1.7847199 4294967295
2.5333641 1.6906927 1.789423 4294967295
2.5366669 1.6623902 1.7871054 4294967295
2.528667 1.6364383 1.7885971 4294967295
2.5220003 1.617692 1.785069 4294967295
2.5386665 1.4202656 1.7826241 4294967295
2.5333636 1.3957276 1.7862195 4294967295
2.533 1.3720371 1.7829347 4294967295
2.5469999 1.282114 1.7828356 4294967295
2.5369999 1.2476344 1.7837638 4294967295
2.5334287 1.2152288 1.7886987 4294967295
2.5362856 1.1896987 1.7859157 4294967295
2.5277143 1.1211768 1.781646 4294967295
2.5336664 1.0992337 1.7844369 4294967295
2.5302143 1.0631427 1.7820472 4294967295
2.5363336 1.0360488 1.7928365 4294967295
2.5359998 1.0076681 1.8061988 4294967295
2.5344999 0.98082286 1.7947476 4294967295
2.5419998 0.87263805 1.7862544 4294967295
2.5328333 0.855268 1.7875454 4294967295
2.5295 0.83117449 1.7819782 4294967295
2.5469999 0.78276342 1.7828356 4294967295
2.5333636 0.76201141 1.7920858 4294967295
2.5334287 -0.91342008 1.7945817 4294967295
2.5312593 2.2261245 1.7663206 4294967295
2.5436668 2.2168393 1.7664248 4294967295
2.5380001 2.1685073 1.7771798 4294967295
2.5333638 2.1427307 1.7707087 4294967295
2.5336668 2.1124158 1.75922 4294967295
2.5220003 2.0916612 1.7528859 4294967295
2.532294 2.0200016 1.7634321 4294967295
2.5393813 2.0005434 1.7686818 4294967295
2.5457504 1.9651715 1.7755677 4294967295
2.5320001 1.8744981 1.7746511 4294967295
2.5332503 1.8453214 1.7701406 4294967295
2.5334289 1.8156376 1.7727432 4294967295
2.5270004 1.7850769 1.7768203 4294967295
2.5298576 1.7501835 1.7768437 4294967295
2.5295002 1.736937 1.7770846 4294967295
2.5469999 1.6539887 1.764263 4294967295
2.5339999 1.6324487 1.7646307 4294967295
2.5292003 1.6056134 1.7599007 4294967295
2.5356369 1.5782816 1.7632885 4294967295
2.535929 1.5459059 1.7647179 4294967295
2.5320003 1.5166309 1.7584438 4294967295
2.5324545 1.4822892 1.7537136 4294967295
2.5369999 1.456009 1.7672799 4294967295
2.5286667 1.4293325 1.7756964 4294967295
2.5374999 1.359162 1.7728103 4294967295
2.5332496 1.3344389 1.7666982 4294967295
2.5294998 1.3061571 1.770633 4294967295
2.5303333 1.2786373 1.7765225 4294967295
2.5369999 1.1740704 1.7778774 4294967295
2.534857 1.1549987 1.776378 4294967295
2.538667 1.1276964 1.7772167 4294967295
2.5419998 1.0923252 1.7774018 4294967295
2.5412858 1.0716037 1.7774698 4294967295
2.5353334 0.96936929 1.767224 4294967295
2.5320001 0.94263279 1.7530701 4294967295
2.5357499 0.91757256 1.7566588 4294967295
2.5327144 0.88749897 1.7715515 4294967295
2.5381112 0.82060212 1.7764547 4294967295
2.5339999 0.79601055 1.7759782 4294967295
2.5386665 -0.89651763 1.7708361 4294967295
2.5220003 2.2233193 1.7470344 4294967295
2.5350003 2.2076955 1.7345301 4294967295
2.5470002 2.1862636 1.7237408 4294967295
2.5470002 2.1005762 1.7473787 4294967295
2.5353332 2.0806313 1.7446738 4294967295
2.5356672 2.0539412 1.7434729 4294967295
2.5320003 2.0309186 1.7474879 4294967295
2.5405717 1.6590772 1.7341852 4294967295
2.5354784 1.6316963 1.7354294 4294967295
2.5357502 1.6147419 1.7463694 4294967295
2.5450003 1.5102139 1.7446375 4294967295
2.5409999 1.4930995 1.7480192 4294967295
2.5320001 -0.89612806 1.7460251 4294967295
2.54075 -0.90659136 1.732574 4294967295
2.5297086 2.2019763 1.7055398 4294967295
2.530889 2.1737223 1.7043843 4294967295
2.5345004 2.1534615 1.7011672 4294967295
2.5420001 1.6836014 1.7066389 4294967295
2.5345001 1.6653874 1.7006475 4294967295
2.532769 1.6349846 1.7084033 4294967295
2.533 -0.91411293 1.7053541 4294967295
2.5360003 2.2096322 1.6808764 4294967295
2.5347276 2.1749098 1.6879827 4294967295
2.5253336 2.1549683 1.6881059 4294967295
2.5220003 1.6528008 1.6885197 4294967295
2.5220003 1.6440237 1.6885197 4294967295
2.5329092 -0.91674405 1.6748579 4294967295
2.5445001 2.223963 1.6473005 4294967295
2.5320003 2.2174482 1.6461556 4294967295
2.534857 -0.91561741 1.6457429 4294967295
2.5355003 2.2246163 1.6118234 4294967295
2.5220003 2.2145422 1.6212277 4294967295
2.5362856 -0.90771741 1.6152502 4294967295
2.5326667 2.2293806 1.5857248 4294967295
2.5436666 -0.9061588 1.5834668 4294967295
2.5343082 2.2357404 1.5539964 4294967295
2.540333 0.52727228 1.5555656 4294967295
2.5286665 -0.90668225 1.5537201 4294967295
2.5345001 2.2377543 1.5237535 4294967295
2.5469999 0.52865601 1.5287281 4294967295
2.5362856 -0.90604055 1.5219406 4294967295
2.5369999 2.2365313 1.495319 4294967295
2.5369999 -0.90672314 1.4894443 4294967295
2.531286 2.2277212 1.4654464 4294967295
2.5395 -0.91940475 1.4638824 4294967295
2.5420001 2.2262058 1.4412346 4294967295
2.528667 2.2164795 1.4314896 4294967295
2.5295 -0.92458761 1.4484279 4294967295
2.53825 -0.93367505 1.4339676 4294967295
2.5410001 2.2253301 1.4025314 4294967295
2.5253336 2.2155108 1.4010282 4294967295
2.5345001 -0.92542064 1.3992893 4294967295
2.5419998 -0.93209976 1.4176315 4294967295
2.5420003 2.2273808 1.3745829 4294967295
2.5220003 2.2145422 1.3754661 4294967295
2.5469999 -0.92507476 1.3780366 4294967295
2.5373576 2.2263319 1.3445089 4294967295
2.5320001 0.5079186 1.3406727 4294967295
2.5369999 -0.91751659 1.342303 4294967295
2.5382502 2.2538304 1.3058919 4294967295
2.533154 2.2383282 1.3166335 4294967295
2.5469999 0.51092756 1.3100777 4294967295
2.5345001 0.50842005 1.3061943 4294967295
2.5353334 -0.89728844 1.3123217 4294967295
2.5469999 -0.90734631 1.327806 4294967295
2.5358465 2.2633483 1.2866986 4294967295
2.5320001 0.5079186 1.281926 4294967295
2.5355716 -0.88730133 1.2872052 4294967295
2.5395002 2.2564142 1.2665067 4294967295
2.5354619 2.234479 1.2540042 4294967295
2.5420001 2.2173531 1.24365 4294967295
2.536 -0.88930291 1.2537029 4294967295
2.5309284 2.2085204 1.2258008 4294967295
2.527 -0.89728421 1.2276654 4294967295
2.5386667 -0.90240777 1.2211181 4294967295
2.5367732 2.2079649 1.1934623 4294967295
2.5386667 -0.90731692 1.1926388 4294967295
2.537334 2.2252383 1.1606777 4294967295
2.5320003 2.2162638 1.175 4294967295
2.5220001 -0.91014326 1.1589617 4294967295
2.5320003 2.2223225 1.1428882 4294967295
2.5370002 2.2115085 1.1281757 4294967295
2.53825 -0.9101184 1.1336429 4294967295
2.5350001 2.2006521 1.1063704 4294967295
2.5386665 -0.91320705 1.1072259 4294967295
2.5364447 2.2089102 1.0759692 4294967295
2.5280001 -0.92286199 1.0754336 4294967295
2.5308888 2.2053707 1.0453947 4294967295
2.5295 -0.93338221 1.0434844 4294967295
2.5353332 2.1981356 1.014294 4294967295
2.5319998 -0.92548978 1.011668 4294967295
2.5309999 2.178977 0.98506784 4294967295
2.5320001 -0.9137404 0.98230147 4294967295
2.5323844 2.1748371 0.95481062 4294967295
2.5369999 -0.8978976 0.94202673 4294967295
2.5355716 -0.90578282 0.9577446 4294967295
2.5361669 2.1848063 0.92619914 4294967295
2.5220001 0.5059126 0.91027415 4294967295
2.5257502 -0.89830464 0.93429518 4294967295
2.5395 -0.90466583 0.9218291 4294967295
2.5359998 2.1856477 0.89478409 4294967295
2.527 0.50691557 0.89346564 4294967295
2.5320001 -0.91609734 0.89419532 4294967295
2.5469999 2.195128 0.86391234 4294967295
2.5295 2.1849337 0.86643428 4294967295
2.5469999 0.50501812 0.85504812 4294967295
2.5305715 -0.91406417 0.86378551 4294967295
2.5444999 2.1944449 0.83849716 4294967295
2.53 2.1875167 0.83521104 4294967295
2.5469999 0.50501812 0.8461839 4294967295
2.5328333 -0.90522534 0.83652997 4294967295
2.5357499 2.1971903 0.80503255 4294967295
2.5220001 2.1852846 0.81665063 4294967295
2.5320001 0.5020439 0.79432821 4294967295
2.5320001 -0.90787739 0.8060776 4294967295
2.5335 2.2064087 0.77391076 4294967295
2.5320001 0.5020439 0.78845352 4294967295
2.5362856 -0.90772569 0.77376187 4294967295
2.5327144 2.2113533 0.74570322 4294967295
2.5369999 0.50303531 0.74777973 4294967295
2.5303333 -0.90629494 0.74815065 4294967295
2.5469999 2.2246752 0.71913022 4294967295
2.527 2.2130694 0.70290309 4294967295
2.5369999 0.51480782 0.71834838 4294967295
2.5320001 -0.91375208 0.7120828 4294967295
2.5398571 2.2318988 0.68068999 4294967295
2.5220001 2.2145422 0.68791831 4294967295
2.5369999 0.52069414 0.67714447 4294967295
2.5303335 -0.92487288 0.68654197 4294967295
2.5369999 -0.93321526 0.67125821 4294967295
2.5344999 2.2416763 0.65199518 4294967295
2.5282502 -0.93732554 0.65019834 4294967295
2.5367727 2.2454109 0.6222837 4294967295
2.5469999 0.52865601 0.61275965 4294967295
2.5320001 -0.95487481 0.62983739 4294967295
2.5358098 2.2406495 0.59469992 4294967295
2.5432501 0.52787769 0.59493816 4294967295
2.5353334 -1.0031987 0.59271002 4294967295
2.5366151 2.2255423 0.57027465 4294967295
2.5307498 2.2163448 0.55638164 4294967295
2.5369999 0.51775098 0.56824845 4294967295
2.5357499 0.48953754 0.55498779 4294967295
2.5345001 -0.97639632 0.5534997 4294967295
2.5320001 -0.99599749 0.55934131 4294967295
2.5330002 2.2120392 0.53428775 4294967295
2.5345001 0.46431366 0.54761922 4294967295
2.5386667 0.43856263 0.54177451 4294967295
2.5469999 0.40455705 0.54184598 4294967295
2.5240002 0.3481988 0.53579259 4294967295
2.5469999 0.31000546 0.54184598 4294967295
2.5359998 0.22627273 0.54175162 4294967295
2.5449998 0.19757947 0.54182881 4294967295
2.5339999 0.16732201 0.54173446 4294967295
2.5436666 0.13548294 0.54181737 4294967295
2.5429997 0.1029979 0.54181165 4294967295
2.5469999 0.079535954 0.54184598 4294967295
2.5469999 0.049988583 0.54184598 4294967295
2.5220001 0.0085376296 0.53578007 4294967295
2.5359998 -0.014973989 0.53586769 4294967295
2.5469999 -0.032744061 0.53593647 4294967295
2.5220001 -0.079234429 0.52992862 4294967295
2.5220001 -0.10654129 0.52992862 4294967295
2.53825 -0.17101407 0.53588176 4294967295
2.5345001 -0.19433986 0.53881299 4294967295
2.5295 -0.23500386 0.53582698 4294967295
2.5336666 -0.25788444 0.53194433 4294967295
2.5379996 -0.28585175 0.52999157 4294967295
2.5339999 -0.31478161 0.52997583 4294967295
2.54075 -0.34361413 0.52853376 4294967295
2.5469999 -0.36367464 0.52411753 4294967295
2.5357499 -0.47091797 0.52704829 4294967295
2.5345001 -0.49424395 0.53293252 4294967295
2.5429997 -0.52239478 0.53591144 4294967295
2.5469999 -0.5439136 0.53593647 4294967295
2.5469999 -0.59414411 0.53593647 4294967295
2.5419998 -0.60772246 0.53590518 4294967295
2.5220001 -0.6556043 0.52992862 4294967295
2.5286667 -0.67787939 0.52995485 4294967295
2.5370002 -0.7066083 0.52998763 4294967295
2.5345001 -0.73522729 0.5270521 4294967295
2.5220001 -0.75507933 0.52407712 4294967295
2.53075 -0.78704476 0.52996308 4294967295
2.53825 -0.83060151 0.53588176 4294967295
2.5357499 -0.85624552 0.53440326 4294967295
2.5332499 -0.88775551 0.52997291 4294967295
2.5320001 -0.91022032 0.53349739 4294967295
2.5345001 -0.94403338 0.54467803 4294967295
2.5365832 2.1993773 0.50987649 4294967295
2.5220001 2.1852846 0.49481979 4294967295
2.5336668 -0.38134921 0.51626694 4294967295
2.53825 -0.40660715 0.51232505 4294967295
2.5303333 -0.43467805 0.51430917 4294967295
2.5347776 2.1983032 0.47574854 4294967295
2.5220001 2.1852846 0.48896831 4294967295
2.5298572 2.2222674 0.43940628 4294967295
2.5280001 2.2104132 0.4548794 4294967295
2.5353329 2.2252526 0.413791 4294967295
2.5220001 2.2145422 0.40119624 4294967295
2.5336666 2.212528 0.38350546 4294967295
2.5365002 2.2125514 0.35342073 4294967295
2.5360909 2.2129967 0.32297236 4294967295
2.5344999 2.2225547 0.28299797 4294967295
2.5349166 2.2155731 0.29766601 4294967295
2.5340831 2.2310214 0.2668671 4294967295
2.5314999 2.2293334 0.23628578 4294967295
2.5436666 2.2237258 0.21131217 4294967295
2.5305715 2.2128284 0.20283318 4294967295
2.5357502 2.2038136 0.17405027 4294967295
2.5304999 2.1955755 0.14541349 4294967295
2.5320001 2.1980062 0.11286896 4294967295
2.5299406 2.2004352 0.085569531 4294967295
2.5310907 2.2011569 0.055898458 4294967295
2.5369999 2.2002325 0.026709378 4294967295
2.5253334 2.1862144 0.01628226 4294967295
2.5378335 2.2009468 -0.0082836151 4294967295
2.5253334 2.1862147 0.0065220594 4294967295
2.5369999 2.2228003 -0.039990067 4294967295
2.5291426 2.2149246 -0.029165924 4294967295
2.5444999 2.223963 -0.05887866 4294967295
2.52825 2.213424 -0.067640126 4294967295
2.5338182 2.2115467 -0.09531194 4294967295
2.5369999 2.208276 -0.12632596 4294967295
2.5312307 2.2086287 -0.15489095 4294967295
2.5345001 2.2519772 -0.19332033 4294967295
2.5340374 2.2346618 -0.18688267 4294967295
2.54075 2.2177303 -0.17591703 4294967295
2.5367501 2.241601 -0.21424502 4294967295
2.5345001 2.2269723 -0.23594648 4294967295
2.536 2.2074037 -0.25022864 4294967295
2.53825 2.1934674 -0.26799476 4294967295
2.5280001 2.1863668 -0.27888316 4294967295
2.54075 2.1948888 -0.30485761 4294967295
2.5253334 2.1862144 -0.29619837 4294967295
2.5709999 0.7304877 1.9438618 4294967295
2.5640001 -0.90506655 1.9399735 4294967295
2.5614445 0.73437107 1.9154465 4294967295
2.5641427 -0.90324652 1.9162413 4294967295
2.562 0.75170767 1.8734927 4294967295
2.5655 0.7455852 1.8866415 4294967295
2.562 -0.90971589 1.8824013 4294967295
2.5670004 2.0436113 1.8423803 4294967295
2.5670002 2.0234702 1.8446498 4294967295
2.5620003 2.0059502 1.8437713 4294967295
2.562 0.75170767 1.85566 4294967295
2.572 0.74867427 1.8549057 4294967295
2.5610001 -0.91945988 1.8515602 4294967295
2.5520003 2.2912138 1.8326833 4294967295
2.5643339 2.0517905 1.8231487 4294967295
2.5720005 2.022305 1.8173958 4294967295
2.5613337 1.9951364 1.8255877 4294967295
2.5653334 0.75268567 1.8157259 4294967295
2.5603333 0.74823886 1.8280475 4294967295
2.562 -0.92337918 1.8259224 4294967295
2.5660002 2.2043562 1.7815378 4294967295
2.5670002 2.1885414 1.78084 4294967295
2.5553336 2.0461719 1.804746 4294967295
2.5601251 2.0259984 1.7997428 4294967295
2.5549169 1.9964511 1.7966448 4294967295
2.5720003 1.954105 1.783296 4294967295
2.5630002 1.9341794 1.7860017 4294967295
2.5630004 1.9068067 1.7836215 4294967295
2.5670002 1.8341665 1.78084 4294967295
2.5670004 1.8163049 1.7838124 4294967295
2.5658889 1.7867364 1.7829363 4294967295
2.5670004 1.7537593 1.7838151 4294967295
2.5629091 1.7271731 1.7907151 4294967295
2.5627697 1.6959651 1.7883483 4294967295
2.5553336 1.6766196 1.7849859 4294967295
2.5682499 1.4447569 1.7829401 4294967295
2.5634999 1.4212595 1.7868452 4294967295
2.5624545 1.3998749 1.7866986 4294967295
2.5657499 1.3004849 1.7831984 4294967295
2.5612857 1.2752994 1.7873645 4294967295
2.5636666 1.2458985 1.7940675 4294967295
2.5644999 1.2143152 1.7937372 4294967295
2.5645001 1.1917485 1.7835692 4294967295
2.5653334 1.054253 1.7820028 4294967295
2.5650556 1.0352865 1.797071 4294967295
2.5630002 1.0053276 1.7978878 4294967295
2.5641427 0.88236743 1.787081 4294967295
2.5625 0.85707968 1.7875334 4294967295
2.5644999 0.78516954 1.7825843 4294967295
2.5613749 0.76638359 1.7958927 4294967295
2.5610001 -0.90519595 1.7945278 4294967295
2.5520003 2.2231214 1.770512 4294967295
2.5630417 2.2146344 1.7687203 4294967295
2.5635002 2.1754255 1.7767282 4294967295
2.5657501 2.1457872 1.7643331 4294967295
2.5582502 2.1231973 1.755752 4294967295
2.5686669 2.0469246 1.75186 4294967295
2.5615456 2.0228679 1.7587038 4294967295
2.562 1.9953575 1.7664828 4294967295
2.5613334 1.9650018 1.773687 4294967295
2.5520003 1.9448309 1.7793937 4294967295
2.5520003 1.8915412 1.7793937 4294967295
2.5648575 1.8730049 1.7780827 4294967295
2.5580003 1.8461308 1.7752261 4294967295
2.5520003 1.8175278 1.7793937 4294967295
2.5520003 1.7612776 1.7793937 4294967295
2.5691431 1.6871043 1.7657133 4294967295
2.5545003 1.6674358 1.7672818 4294967295
2.5642731 1.6058518 1.7584021 4294967295
2.5626671 1.5736043 1.76443 4294967295
2.5592225 1.5485462 1.7565528 4294967295
2.5639999 1.4810276 1.7603264 4294967295
2.5598571 1.4570037 1.7747793 4294967295
2.5670002 1.385682 1.7748656 4294967295
2.5615833 1.3652161 1.768257 4294967295
2.5630002 1.3347571 1.7699474 4294967295
2.5595 1.3121573 1.7761559 4294967295
2.5630002 1.1777622 1.7764722 4294967295
2.5622942 1.1542844 1.7711679 4294967295
2.5625553 1.125105 1.7723671 4294967295
2.5628335 1.0954978 1.7748108 4294967295
2.5646923 1.0674162 1.7760299 4294967295
2.572 0.99632466 1.7743447 4294967295
2.560889 0.97848207 1.7666041 4294967295
2.5611668 0.94456911 1.7601479 4294967295
2.5636666 0.91278887 1.7702787 4294967295
2.552 0.89680052 1.7734725 4294967295
2.5644999 0.84169239 1.7766342 4294967295
2.5609479 0.824889 1.7690938 4294967295
2.5624168 0.79988533 1.7726274 4294967295
2.552 -0.8972854 1.7675514 4294967295
2.5644999 -0.90168041 1.7587841 4294967295
2.5606368 2.203618 1.742604 4294967295
2.5629094 2.1736779 1.7318012 4294967295
2.5670002 2.1563566 1.7248526 4294967295
2.5685387 2.1142075 1.742617 4294967295
2.5653338 2.0878997 1.7415209 4294967295
2.5630004 2.0590544 1.7467577 4294967295
2.5520003 2.0366075 1.7497883 4294967295
2.5720003 1.7154059 1.7236212 4294967295
2.5638752 1.6951175 1.7347 4294967295
2.5520003 1.6724614 1.7418935 4294967295
2.5639234 1.6313046 1.7344781 4294967295
2.5553336 1.6193053 1.7474395 4294967295
2.5720003 1.5602515 1.7445073 4294967295
2.5642505 1.5394847 1.7369246 4294967295
2.5625772 1.5131299 1.7333667 4294967295
2.5595 1.493276 1.7444803 4294967295
2.562 -0.91169149 1.7377688 4294967295
2.5647278 2.1698315 1.7018192 4294967295
2.562 2.1581006 1.7118059 4294967295
2.5720003 1.7154059 1.7176538 4294967295
2.5656369 1.6976309 1.7043988 4294967295
2.5678334 1.6649605 1.7008179 4294967295
2.5640001 1.6446276 1.7127304 4294967295
2.5720003 1.5324031 1.7156645 4294967295
2.5720003 1.5180528 1.7065712 4294967295
2.5642223 -0.91677886 1.7041118 4294967295
2.5638185 2.2263713 1.6716619 4294967295
2.5624549 2.2095165 1.6867223 4294967295
2.572 1.5184791 1.6878164 4294967295
2.5648572 -0.91795367 1.6769173 4294967295
2.5620003 2.2318211 1.6446351 4294967295
2.5626252 -0.91439289 1.6463991 4294967295
2.5642729 2.2381313 1.6150694 4294967295
2.5653334 -0.90891224 1.6163296 4294967295
2.5635388 2.243685 1.5837684 4294967295
2.572 0.56964988 1.5744342 4294967295
2.5669999 -0.90851521 1.5842867 4294967295
2.5703335 2.2530048 1.5459219 4294967295
2.568346 2.2400894 1.5545936 4294967295
2.5720005 2.2136905 1.5505642 4294967295
2.562 0.57337934 1.5643903 4294967295
2.5636666 0.53211534 1.5472099 4294967295
2.5577145 -0.90945822 1.5575614 4294967295
2.5720003 2.2524791 1.5177432 4294967295
2.5636671 2.2463515 1.5281874 4294967295
2.5720003 2.2166741 1.5386293 4294967295
2.5669999 0.52089542 1.5128256 4294967295
2.5653334 -0.90891224 1.5270494 4294967295
2.5670002 2.254056 1.5009139 4294967295
2.5620003 2.2496657 1.4841425 4294967295
2.5678332 -0.91178811 1.4952706 4294967295
2.5720003 2.2524791 1.4789546 4294967295
2.5620003 2.2427208 1.4623373 4294967295
2.5619998 -0.9210096 1.4716504 4294967295
2.5669999 -0.93233877 1.456239 4294967295
2.5628338 2.2375102 1.4329264 4294967295
2.5641427 -0.93554699 1.4360639 4294967295
2.5660002 2.2412705 1.4052794 4294967295
2.5650001 -0.92684531 1.403734 4294967295
2.562 -0.9305228 1.4157834 4294967295
2.5664446 2.2376833 1.3743279 4294967295
2.5695 0.51544106 1.3677343 4294967295
2.5670002 -0.92736971 1.3748536 4294967295
2.5633895 2.2320354 1.3448906 4294967295
2.552 0.51193058 1.3530762 4294967295
2.5630002 -0.91661042 1.3447739 4294967295
2.5637858 2.2601359 1.3076303 4294967295
2.5633335 2.2409077 1.3214779 4294967295
2.5669999 -0.89660352 1.3133094 4294967295
2.562 -0.90277511 1.3246379 4294967295
2.5656002 2.2668567 1.2870421 4294967295
2.5686669 2.2435904 1.2750804 4294967295
2.552 0.51193058 1.2968259 4294967295
2.5680001 -0.89099461 1.2868054 4294967295
2.5640004 2.2335582 1.2574408 4294967295
2.5570002 -0.89311069 1.2568135 4294967295
2.5669999 -0.9025594 1.2418274 4294967295
2.5720003 2.2226417 1.234288 4294967295
2.5610003 2.2071693 1.2217216 4294967295
2.5720003 2.1838529 1.2134018 4294967295
2.5639999 -0.90745348 1.2201475 4294967295
2.5720003 2.2226417 1.1805806 4294967295
2.5635388 2.2050171 1.1962438 4294967295
2.5686669 2.1849933 1.2045542 4294967295
2.5657501 -0.912534 1.1938535 4294967295
2.5627694 2.2292895 1.1649344 4294967295
2.5620003 2.2199442 1.1780124 4294967295
2.552 -0.91504854 1.1636019 4294967295
2.5640001 2.2276146 1.1428301 4294967295
2.5620003 2.2184465 1.1304493 4294967295
2.5689998 -0.9151836 1.1321189 4294967295
2.5720003 2.2226417 1.0910685 4294967295
2.5625558 2.2131515 1.1074699 4294967295
2.562 -0.92060792 1.1007444 4294967295
2.5670004 2.2265058 1.0720863 4294967295
2.5570004 2.2185724 1.0847774 4294967295
2.5636666 -0.92715365 1.0852553 4294967295
2.5619998 -0.933492 1.0710124 4294967295
2.5682504 2.225354 1.0514965 4294967295
2.5580001 2.2152801 1.0380907 4294967295
2.5599999 -0.9404822 1.0456192 4294967295
2.5638752 2.2104003 1.0141498 4294967295
2.562 -0.9334833 1.0204773 4294967295
2.5645001 2.19433 0.98923099 4294967295
2.5569999 2.1859367 0.9769792 4294967295
2.562 -0.91607177 0.98438048 4294967295
2.5669999 2.1944926 0.95178425 4294967295
2.5569999 2.1859367 0.95723069 4294967295
2.5669999 -0.89808375 0.95149285 4294967295
2.5634284 -0.90469873 0.9583233 4294967295
2.5626252 2.2004123 0.92398679 4294967295
2.5657501 -0.90806711 0.9259811 4294967295
2.5650001 2.2017062 0.89312339 4294967295
2.5657501 0.50873584 0.89026618 4294967295
2.5610001 -0.92064875 0.89848113 4294967295
2.5670002 2.2034254 0.86363494 4294967295
2.5653334 0.50566947 0.86340022 4294967295
2.5634286 -0.91743147 0.8673861 4294967295
2.5630002 2.2035537 0.83337456 4294967295
2.5595 0.5074966 0.83589911 4294967295
2.5632501 -0.90940851 0.8333956 4294967295
2.572 2.2226417 0.79269451 4294967295
2.5632501 2.212095 0.80589896 4294967295
2.5603335 -0.9111017 0.80134922 4294967295
2.5657501 2.2261655 0.7712037 4294967295
2.5570002 2.2185724 0.77925038 4294967295
2.5669999 0.5030278 0.77131295 4294967295
2.5634286 -0.90978885 0.77733964 4294967295
2.5627141 2.2299006 0.74499005 4294967295
2.562 0.51393658 0.7321915 4294967295
2.5669999 0.50898367 0.74451733 4294967295
2.562 -0.91466367 0.74211407 4294967295
2.5650001 2.2368193 0.71460021 4294967295
2.562 -0.92457849 0.70841438 4294967295
2.5632501 2.2425766 0.68248993 4294967295
2.5669999 0.5268513 0.67304683 4294967295
2.5636666 -0.93508708 0.68474829 4294967295
2.5689998 2.2534254 0.66124499 4294967295
2.5611668 2.2469277 0.64941049 4294967295
2.562 0.53176939 0.65491587 4294967295
2.5639999 -0.94433588 0.65500963 4294967295
2.5615165 2.2357969 0.62556672 4294967295
2.5669999 2.218313 0.61348808 4294967295
2.5595 0.53125054 0.62213135 4294967295
2.552 -0.95057505 0.63662606 4294967295
2.5669999 -0.96211815 0.6313557 4294967295
2.5591671 2.231313 0.59637189 4294967295
2.5669999 2.218313 0.60753214 4294967295
2.552 0.52969384 0.59517854 4294967295
2.5638747 2.2282457 0.56653118 4294967295
2.5695 0.5214085 0.57185316 4294967295
2.562 0.49906433 0.55980748 4294967295
2.5669999 0.47920433 0.55392927 4294967295
2.5603335 -0.97148871 0.55384117 4294967295
2.5620003 -1.006936 0.56574845 4294967295
2.5645001 2.2250736 0.54199171 4294967295
2.5611668 2.2162366 0.52711064 4294967295
2.5670002 0.45537305 0.54797339 4294967295
2.552 0.42607501 0.54188883 4294967295
2.552 0.40535128 0.54188883 4294967295
2.5689998 0.37227678 0.54203469 4294967295
2.5695 0.33957449 0.54203898 4294967295
2.5586667 0.32330626 0.54194605 4294967295
2.5695 0.27995479 0.54800063 4294967295
2.5695 0.25610223 0.54800063 4294967295
2.552 0.064889401 0.54188883 4294967295
2.552 0.035284024 0.54188883 4294967295
2.5670002 0.014631923 0.54201752 4294967295
2.572 -0.0062118052 0.54206038 4294967295
2.552 -0.047611032 0.53596777 4294967295
2.562 -0.074546844 0.53603035 4294967295
2.562 -0.10426822 0.53603035 4294967295
2.5560002 -0.13366188 0.5359928 4294967295
2.562 -0.16175279 0.53801954 4294967295
2.5632501 -0.19054882 0.54198533 4294967295
2.5599999 -0.22300278 0.5419575 4294967295
2.5603335 -0.25866267 0.53601992 4294967295
2.562 -0.35392788 0.5300861 4294967295
2.5686667 -0.37073892 0.52614176 4294967295
2.5639999 -0.46128005 0.5265274 4294967295
2.5632501 -0.4938404 0.53603816 4294967295
2.5553334 -0.56051522 0.53598863 4294967295
2.552 -0.58050781 0.53596777 4294967295
2.552 -0.6249159 0.53596777 4294967295
2.559 -0.64445591 0.53601158 4294967295
2.5689998 -0.67676985 0.53607416 4294967295
2.572 -0.70540142 0.53609294 4294967295
2.5553334 -0.73838723 0.53005981 4294967295
2.5603333 -0.76653677 0.53007948 4294967295
2.5703332 -0.80234611 0.53608251 4294967295
2.5553334 -0.81544638 0.53598863 4294967295
2.5653334 -0.85828924 0.54002953 4294967295
2.562 -0.88595515 0.53603035 4294967295
2.5636666 -0.91624808 0.53901488 4294967295
2.5632501 -0.94582587 0.54793251 4294967295
2.562 2.2062666 0.50631708 4294967295
2.562 -0.38959354 0.51819754 4294967295
2.5703332 -0.40279183 0.51819164 4294967295
2.5657501 -0.43480095 0.51819485 4294967295
2.572 2.2226417 0.46448317 4294967295
2.5641427 2.21245 0.47824633 4294967295
2.5633638 2.2335505 0.44466254 4294967295
2.552 2.2172005 0.45899379 4294967295
2.5634284 2.2373118 0.41751206 4294967295
2.5647779 2.2276335 0.38860065 4294967295
2.552 2.2172005 0.37609875 4294967295
2.5669999 2.2276766 0.35908699 4294967295
2.552 2.2172005 0.36425662 4294967295
2.5675557 2.2273998 0.32822472 4294967295
2.552 2.2172005 0.31688797 4294967295
2.5642223 2.2258272 0.2927857 4294967295
2.552 2.2172005 0.30208531 4294967295
2.5616667 2.2390547 0.26461238 4294967295
2.5631537 2.2438037 0.23549446 4294967295
2.5645001 2.2330141 0.20184898 4294967295
2.5703332 2.2251756 0.17826575 4294967295
2.5569999 2.214416 0.17172113 4294967295
2.5642223 2.2132683 0.14206329 4294967295
2.5604999 2.2097235 0.11422783 4294967295
2.5615001 2.2105875 0.084342211 4294967295
2.572 2.2226417 0.046759635 4294967295
2.5603333 2.2165148 0.05583933 4294967295
2.572 2.2226417 0.03184095 4294967295
2.5612857 2.211673 0.022404671 4294967295
2.5642221 2.2066543 -0.0060158968 4294967295
2.5636668 2.228806 -0.037950277 4294967295
2.5669999 2.218313 -0.023790896 4294967295
2.5634286 2.2296672 -0.066361666 4294967295
2.5656366 2.2268736 -0.094396234 4294967295
2.552 2.2172005 -0.10942948 4294967295
2.5700002 2.2232955 -0.12580162 4294967295
2.5595002 2.2192583 -0.12613416 4294967295
2.572 2.2226417 -0.15911841 4294967295
2.5585001 2.2186844 -0.15494722 4294967295
2.5649168 2.2239344 -0.18946803 4294967295
2.5560002 2.2182982 -0.17801374 4294967295
2.5618217 2.2361064 -0.21437651 4294967295
2.5635386 2.2322459 -0.24083453 4294967295
2.5644999 2.2191324 -0.25531435 4294967295
2.5615833 2.2042241 -0.27324253 4294967295
2.5630002 2.2017701 -0.30539644 4294967295
2.572 2.2107067 -0.32322407 4294967295
2.6003332 0.73278886 1.9661425 4294967295
2.5974998 -0.9102577 1.9645425 4294967295
2.605 0.73410398 1.9475769 4294967295
2.5945001 -0.90820557 1.9478232 4294967295
2.5915556 0.73766053 1.9124583 4294967295
2.598 -0.91044211 1.9136078 4294967295
2.594846 0.74419582 1.8862011 4294967295
2.596 -0.91877139 1.883154 4294967295
2.5895002 2.0507522 1.8444533 4294967295
2.5845001 2.035557 1.8463993 4294967295
2.5957999 0.7465567 1.8551836 4294967295
2.5913751 -0.92465222 1.8544242 4294967295
2.5860002 2.0529394 1.8309739 4294967295
2.584857 2.0298471 1.8315921 4294967295
2.5977499 0.75767285 1.8223051 4294967295
2.5869999 0.74703825 1.8356807 4294967295
2.5966249 -0.91898108 1.8277552 4294967295
2.5820003 2.2043254 1.782217 4294967295
2.5978 1.9592162 1.7857105 4294967295
2.5936928 1.9372271 1.7883772 4294967295
2.5946002 1.9080354 1.7859558 4294967295
2.5962858 1.8778535 1.7848884 4294967295
2.5911005 1.8465528 1.7848531 4294967295
2.5948892 1.8142722 1.7878349 4294967295
2.5939999 1.7842259 1.7850647 4294967295
2.5988755 1.754796 1.790077 4294967295
2.5928006 1.7264689 1.7902801 4294967295
2.5820003 1.7041034 1.782217 4294967295
2.6080003 1.4731719 1.7828252 4294967295
2.5976665 1.452054 1.7846321 4294967295
2.5920768 1.4262357 1.7852755 4294967295
2.582 1.4045693 1.782217 4294967295
2.6025 1.3221219 1.7831748 4294967295
2.5950832 1.3063101 1.7891032 4294967295
2.5993998 1.2753084 1.7997609 4294967295
2.5973573 1.2428805 1.7995998 4294967295
2.594846 1.2179748 1.7894038 4294967295
2.582 1.1948955 1.782217 4294967295
2.5869999 1.0531459 1.7846526 4294967295
2.589273 1.0333189 1.7903968 4294967295
2.58325 1.0141689 1.7873211 4294967295
2.6013999 0.91054487 1.7868629 4294967295
2.593231 0.88211989 1.7913934 4294967295
2.5932 0.86314756 1.7852648 4294967295
2.5951428 0.78894693 1.7903532 4294967295
2.5895 0.77179247 1.8023983 4294967295
2.5869999 -0.90508676 1.7951653 4294967295
2.5920002 2.2218716 1.7720649 4294967295
2.5911667 2.2053151 1.769262 4294967295
2.5920002 2.178772 1.7655421 4294967295
2.5845001 2.152492 1.7574524 4294967295
2.6025002 2.0769024 1.7529836 4294967295
2.5980771 2.0573537 1.7585384 4294967295
2.5946429 2.0271816 1.7638751 4294967295
2.5946505 1.9938555 1.7636963 4294967295
2.5966668 1.9731541 1.7726352 4294967295
2.6080003 1.7454673 1.7525702 4294967295
2.6008003 1.7279861 1.7666658 4294967295
2.585 1.7048852 1.7704902 4294967295
2.5961251 1.6268239 1.755975 4294967295
2.5970006 1.6061323 1.7609041 4294967295
2.5855715 1.5804838 1.7573881 4294967295
2.6080003 1.503427 1.7525702 4294967295
2.5946877 1.4878397 1.7677152 4294967295
2.5869999 1.4643109 1.778659 4294967295
2.6054285 1.4216304 1.7772579 4294967295
2.5969412 1.3939046 1.7692969 4294967295
2.5963533 1.363818 1.7676005 4294967295
2.5956154 1.3359905 1.7749624 4294967295
2.6033998 1.2096314 1.7781774 4294967295
2.5952001 1.1861436 1.7729924 4294967295
2.5946426 1.1555727 1.7673084 4294967295
2.5944118 1.1241388 1.7695012 4294967295
2.5964215 1.094075 1.7676817 4294967295
2.5987499 1.0658953 1.7697059 4294967295
2.6049998 1.0378165 1.7768356 4294967295
2.596643 1.0050062 1.7730007 4294967295
2.5954998 0.97632056 1.7662181 4294967295
2.5921428 0.94612867 1.769124 4294967295
2.5903332 0.92229128 1.7762716 4294967295
2.5968182 0.85120285 1.771365 4294967295
2.594619 0.82375681 1.7614162 4294967295
2.5962 0.80329782 1.7704649 4294967295
2.5921667 -0.90739644 1.7681261 4294967295
2.5882225 2.1705694 1.7405154 4294967295
2.5899394 2.1481664 1.731625 4294967295
2.5938699 2.1169534 1.7322655 4294967295
2.5920627 2.0888546 1.7420204 4294967295
2.5820003 2.069535 1.7462729 4294967295
2.6040003 1.7448071 1.7365839 4294967295
2.5903335 1.7276431 1.7392014 4294967295
2.6040003 1.6541766 1.7285253 4294967295
2.5960836 1.6421082 1.7388989 4294967295
2.6050003 1.5938711 1.7451049 4294967295
2.5950005 1.5749633 1.7336059 4294967295
2.58325 1.5520935 1.7258875 4294967295
2.5967369 1.5076936 1.7345492 4294967295
2.5869999 1.4973234 1.7486476 4294967295
2.6064999 1.0943578 1.7276711 4294967295
2.6026666 1.0635542 1.7309331 4294967295
2.6052003 1.0379964 1.7306949 4294967295
2.608 1.01416 1.7361461 4294967295
2.592 -0.91936022 1.7349801 4294967295
2.5970001 2.2201438 1.6931421 4294967295
2.5957003 2.2057526 1.697971 4294967295
2.5931337 2.1750994 1.7110438 4294967295
2.6065001 1.7444634 1.7125471 4294967295
2.5968332 1.7249315 1.7060984 4294967295
2.5940001 1.6946084 1.7024791 4294967295
2.594667 1.6653011 1.7141556 4294967295
2.604167 1.5696962 1.7074476 4294967295
2.5883687 1.5458492 1.7040771 4294967295
2.5946672 1.5117725 1.7053647 4294967295
2.6026666 1.0913434 1.7085813 4294967295
2.5999093 1.0658039 1.7078869 4294967295
2.608 1.0496016 1.7162641 4294967295
2.5971668 -0.91818333 1.7042644 4294967295
2.5954003 2.2376332 1.6799663 4294967295
2.5870001 2.2175972 1.6886247 4294967295
2.5946667 1.5388817 1.6870582 4294967295
2.592 1.5242612 1.6878678 4294967295
2.5944443 -0.91888064 1.6759001 4294967295
2.6032858 2.2522602 1.6398921 4294967295
2.5888751 2.2439682 1.6481843 4294967295
2.5927143 -0.91416973 1.6465017 4294967295
2.6030002 2.2532012 1.6173402 4294967295
2.5927274 2.2470756 1.6096916 4294967295
2.5987501 -0.91069716 1.6125166 4294967295
2.5970001 2.2502713 1.5967343 4294967295
2.5917668 2.2380755 1.5847435 4294967295
2.6017146 2.214668 1.5762631 4294967295
2.6003332 0.53369266 1.5800127 4294967295
2.5945001 -0.91222841 1.586648 4294967295
2.5888338 2.2326272 1.5517681 4294967295
2.5924008 2.2134719 1.5572281 4294967295
2.5969999 0.53300852 1.5425049 4294967295
2.59325 -0.91403544 1.555313 4294967295
2.5976667 2.2608762 1.523679 4294967295
2.5912786 2.2379355 1.5342226 4294967295
2.5870001 2.2175972 1.5385677 4294967295
2.5895 -0.91047043 1.5245404 4294967295
2.5952003 2.268568 1.4954107 4294967295
2.5952001 -0.9172858 1.4942186 4294967295
2.5974288 2.2609599 1.4608612 4294967295
2.5945001 -0.92726892 1.4753041 4294967295
2.5945001 -0.93629938 1.4612525 4294967295
2.5981431 2.2598622 1.4344327 4294967295
2.5820003 2.2492554 1.4407482 4294967295
2.5954444 -0.93596792 1.4361677 4294967295
2.5980003 2.2580161 1.4085484 4294967295
2.5820003 2.2492554 1.3988135 4294967295
2.5869999 -0.92759824 1.4095187 4294967295
2.5969999 -0.93118382 1.3978934 4294967295
2.6050003 2.2541778 1.3885098 4294967295
2.5956879 2.2419515 1.3725933 4294967295
2.5969999 0.52095753 1.3858424 4294967295
2.602 -0.92693961 1.3633611 4294967295
2.60075 -0.93252844 1.3780458 4294967295
2.5956929 2.2340503 1.345324 4294967295
2.5952001 0.51457518 1.3431103 4294967295
2.5981429 -0.91435307 1.3465993 4294967295
2.5956924 2.2542002 1.3089632 4294967295
2.5915 2.2446146 1.3208761 4294967295
2.6059999 0.5167166 1.3223284 4294967295
2.5981667 -0.89743191 1.3128835 4294967295
2.592 -0.90232271 1.3270378 4294967295
2.5922005 2.2568886 1.2936093 4294967295
2.591167 2.2472022 1.2796743 4294967295
2.5985 -0.89704555 1.2868803 4294967295
2.5962002 2.2350957 1.2538476 4294967295
2.5869999 -0.89758682 1.268465 4294967295
2.5962 -0.90438485 1.2566717 4294967295
2.5845001 2.2244461 1.2377594 4294967295
2.5944619 2.2012722 1.2284812 4294967295
2.5928574 2.1864941 1.2160032 4294967295
2.6013999 -0.91465449 1.2303591 4294967295
2.5978754 2.228406 1.1834511 4294967295
2.5951765 2.2043867 1.1939666 4294967295
2.5932002 2.1879814 1.205276 4294967295
2.592 -0.91886097 1.194741 4294967295
2.5964122 2.2408795 1.1659381 4294967295
2.5934446 -0.92120528 1.1640149 4294967295
2.592917 2.23017 1.1363125 4294967295
2.5820003 2.2193019 1.1232421 4294967295
2.6011999 -0.92061937 1.1337507 4294967295
2.5955 2.2313957 1.1028013 4294967295
2.5820003 2.2193019 1.1172515 4294967295
2.5895 -0.92448533 1.105962 4294967295
2.602 -0.93297666 1.0916923 4294967295
2.5952728 2.238909 1.0759752 4294967295
2.595 -0.93848449 1.0734241 4294967295
2.5958183 2.2355454 1.0459809 4294967295
2.5928333 -0.94572496 1.0465555 4294967295
2.5963333 2.2265849 1.0191512 4294967295
2.5886667 2.2170057 1.0086628 4294967295
2.592 -0.92637253 1.0022824 4294967295
2.5969999 -0.93719774 1.0222895 4294967295
2.5957143 2.2087131 0.98448598 4294967295
2.5978181 -0.91283 0.98282576 4294967295
2.608 2.2234967 0.94173551 4294967295
2.595 2.2106798 0.95339984 4294967295
2.6009998 -0.8984102 0.96072483 4294967295
2.5946667 -0.90224373 0.95260179 4294967295
2.6001999 2.2216692 0.92720836 4294967295
2.582 2.2113142 0.92554975 4294967295
2.5934 0.51179785 0.91769493 4294967295
2.5921428 -0.91311324 0.92627805 4294967295
2.6025 2.2218204 0.90159112 4294967295
2.5945001 2.214988 0.88536656 4294967295
2.582 0.51195788 0.90757769 4294967295
2.6010001 0.50666845 0.89233148 4294967295
2.5951428 -0.92706591 0.89320886 4294967295
2.608 2.2234967 0.85097039 4294967295
2.5936666 2.2146113 0.86586308 4294967295
2.5912857 0.50348788 0.86515111 4294967295
2.5952001 -0.91727865 0.86378723 4294967295
2.6033332 2.2235413 0.83326423 4294967295
2.5849998 2.2134819 0.83605862 4294967295
2.608 0.51106215 0.83886838 4294967295
2.5895 0.50743693 0.8456099 4294967295
2.5964284 -0.91204208 0.83486295 4294967295
2.5966666 2.2312284 0.80132878 4294967295
2.5844998 2.2184496 0.81501043 4294967295
2.602 0.50988638 0.79889381 4294967295
2.5932224 -0.91376936 0.80495328 4294967295
2.5935457 2.2401531 0.77637845 4294967295
2.582 0.5059672 0.78776407 4294967295
2.598 -0.91445744 0.77536035 4294967295
2.6023333 2.2548928 0.74156135 4294967295
2.5903332 2.2444811 0.74957478 4294967295
2.6025 0.51299709 0.74763507 4294967295
2.5869999 0.50694698 0.75827116 4294967295
2.5973332 -0.92125928 0.75118041 4294967295
2.5999999 2.2589033 0.71723449 4294967295
2.582 2.2492554 0.70688987 4294967295
2.608 0.52316415 0.72995031 4294967295
2.5869999 -0.92759824 0.72225749 4294967295
2.582 -0.93179613 0.70389456 4294967295
2.594846 2.2567246 0.68443263 4294967295
2.59725 -0.94331402 0.68541294 4294967295
2.5938001 2.2558944 0.66180682 4294967295
2.596818 2.2445996 0.64798617 4294967295
2.582 0.53592062 0.64698309 4294967295
2.596 -0.95009524 0.65671331 4294967295
2.5937617 2.2299554 0.62907445 4294967295
2.582 2.2193019 0.61403435 4294967295
2.582 0.53592062 0.63500172 4294967295
2.595 -0.95754546 0.63859117 4294967295
2.5974998 -0.96449751 0.63267875 4294967295
2.5948827 2.2299955 0.59502947 4294967295
2.582 2.2193019 0.60804367 4294967295
2.602 0.53403473 0.58457732 4294967295
2.5945001 -1.0115619 0.60545135 4294967295
2.5956666 -1.0250554 0.59043401 4294967295
2.5955 2.2361586 0.56710637 4294967295
2.5973332 0.51698267 0.56838346 4294967295
2.5945001 0.49335882 0.56031245 4294967295
2.5903332 0.47152466 0.55423766 4294967295
2.605 -0.95520306 0.55443156 4294967295
2.5942857 -0.97492224 0.55773503 4294967295
2.59725 -1.0066105 0.56488353 4294967295
2.5969999 -1.0275915 0.57240224 4294967295
2.5939288 2.230823 0.53708392 4294967295
2.582 2.2193019 0.52417415 4294967295
2.5970001 0.43658456 0.54830033 4294967295
2.6044002 0.40762329 0.54838097 4294967295
2.5906668 0.34733093 0.54423749 4294967295
2.5952001 0.31590316 0.54828072 4294967295
2.582 0.29629341 0.54813683 4294967295
2.582 0.24237728 0.54813683 4294967295
2.586 0.22474824 0.54818046 4294967295
2.586 0.19475771 0.54818046 4294967295
2.582 0.16449843 0.54813683 4294967295
2.595 0.13521315 0.54827851 4294967295
2.596 0.10514946 0.54828942 4294967295
2.6056001 0.075312093 0.54839402 4294967295
2.608 0.048160292 0.54842019 4294967295
2.608 0.026981778 0.54842019 4294967295
2.5836666 -0.021230219 0.54216045 4294967295
2.595 -0.045412105 0.54225767 4294967295
2.602 -0.075710721 0.54231769 4294967295
2.5999999 -0.10582171 0.54230058 4294967295
2.598 -0.13586773 0.54228342 4294967295
2.5912001 -0.16558476 0.54343528 4294967295
2.5970001 -0.19605866 0.54830033 4294967295
2.6010001 -0.22354437 0.5483439 4294967295
2.5947499 -0.25312451 0.54225552 4294967295
2.5849998 -0.28514045 0.53617424 4294967295
2.586 -0.3152436 0.5361805 4294967295
2.592 -0.34305781 0.53621805 4294967295
2.596 -0.3736566 0.53023213 4294967295
2.605 -0.39915791 0.52421129 4294967295
2.5934999 -0.43948832 0.52419275 4294967295
2.5981998 -0.46743801 0.53264385 4294967295
2.5952001 -0.49700388 0.54106128 4294967295
2.5910001 -0.52624387 0.54222333 4294967295
2.6010001 -0.55545634 0.54230917 4294967295
2.608 -0.58416975 0.54236919 4294967295
2.5963333 -0.61466682 0.54226911 4294967295
2.602 -0.64621514 0.54231769 4294967295
2.608 -0.6628328 0.54236919 4294967295
2.582 -0.70415026 0.53615546 4294967295
2.5882499 -0.73289108 0.53619462 4294967295
2.6010001 -0.76364934 0.53627437 4294967295
2.592 -0.78804451 0.53621805 4294967295
2.5982001 -0.82911175 0.54228514 4294967295
2.582 -0.85192043 0.54214615 4294967295
2.592 -0.8842985 0.54223192 4294967295
2.5940001 -0.91203409 0.54224908 4294967295
2.5953333 -0.93659627 0.54828215 4294967295
2.6041667 2.2272747 0.50808978 4294967295
2.5849998 2.2170813 0.50618142 4294967295
2.582 -0.4165976 0.51818347 4294967295
2.582 -0.42258826 0.51818347 4294967295
2.5986249 2.2320683 0.47371614 4294967295
2.5844998 2.2184496 0.48520395 4294967295
2.6023333 2.2528758 0.43766463 4294967295
2.5921109 2.2426755 0.44868749 4294967295
2.6015 2.2521536 0.41857988 4294967295
2.5921249 2.2460232 0.41216019 4294967295
2.5953753 2.2386804 0.38607049 4294967295
2.5969288 2.2411544 0.35549188 4294967295
2.5972857 2.2388804 0.32447574 4294967295
2.6022 0.86493075 0.32013708 4294967295
2.5955331 2.2369392 0.29535601 4294967295
2.6057498 0.85221076 0.29901093 4294967295
2.608 0.834791 0.29427797 4294967295
2.6006668 2.2514315 0.25670022 4294967295
2.5930002 2.2443025 0.26478317 4294967295
2.5972307 2.2564778 0.2354264 4294967295
2.582 2.2492554 0.24560747 4294967295
2.5988333 2.2558711 0.20662799 4294967295
2.5836666 2.2467096 0.20646581 4294967295
2.608 2.2537518 0.18535987 4294967295
2.5946248 2.2376621 0.17276755 4294967295
2.5967999 2.2314057 0.1446107 4294967295
2.5969 2.229085 0.11448392 4294967295
2.6013334 2.2271907 0.081606239 4294967295
2.5836666 2.2187335 0.089572102 4294967295
2.5956922 2.2305915 0.05583483 4294967295
2.5968001 2.2338212 0.024131447 4294967295
2.6015 2.2219739 -0.0049390197 4294967295
2.589143 2.2151268 -0.0070382357 4294967295
2.5969446 2.2304447 -0.03749001 4294967295
2.5962498 2.2179477 -0.022450686 4294967295
2.5985 2.233269 -0.06450212 4294967295
2.608 2.2174456 -0.06878233 4294967295
2.6001115 2.2328305 -0.094031394 4294967295
2.5972311 2.2300498 -0.1242798 4294967295
2.6041815 2.2130954 -0.13163596 4294967295
2.5972857 2.2278209 -0.15474629 4294967295
2.6068001 2.2115843 -0.14592808 4294967295
2.5954666 2.2308636 -0.18437302 4294967295
2.5960002 2.2337921 -0.21380657 4294967295
2.5955555 2.2419717 -0.24294943 4294967295
2.5978749 2.2291656 -0.26992702 4294967295
2.5853331 2.2141678 -0.27960801 4294967295
2.608 2.2234967 -0.30477154 4294967295
2.5926249 2.2141399 -0.30366069 4294967295
2.5994999 2.2252967 -0.33224273 4294967295
2.592 2.2158463 -0.32074863 4294967295
2.6389999 0.73143947 1.9937695 4294967295
2.6340001 -0.913894 1.9909773 4294967295
2.6324999 0.73268425 1.9748611 4294967295
2.6305001 -0.91144413 1.9737455 4294967295
2.6254287 0.73550153 1.9426783 4294967295
2.6295557 -0.90963441 1.9444275 4294967295
2.6305833 0.73825389 1.9158103 4294967295
2.6303637 -0.91539764 1.9140323 4294967295
2.6276424 0.74003017 1.8824645 4294967295
2.6265717 -0.92000771 1.8845254 4294967295
2.628 0.74245059 1.8553486 4294967295
2.6270669 -0.92162728 1.8542106 4294967295
2.6291428 0.76151985 1.819187 4294967295
2.6323636 0.7468006 1.8301266 4294967295
2.6277142 -0.91169751 1.8228359 4294967295
2.6155002 1.9568096 1.7834196 4294967295
2.6217499 1.9348572 1.7841516 4294967295
2.6253333 1.9052858 1.785121 4294967295
2.6260002 1.8740267 1.7850574 4294967295
2.6257777 1.8436604 1.7873552 4294967295
2.6246927 1.8161201 1.7857424 4294967295
2.6201429 1.7852875 1.7839183 4294967295
2.6155002 1.7555486 1.7844321 4294967295
2.6180003 1.4727465 1.7815931 4294967295
2.618 1.4575609 1.7815931 4294967295
2.618 1.3208913 1.7815931 4294967295
2.622869 1.3032278 1.7886864 4294967295
2.6261597 1.2755321 1.7928207 4294967295
2.6205001 1.2480572 1.787725 4294967295
2.618 1.2297782 1.7815931 4294967295
2.6272001 0.93785393 1.7811458 4294967295
2.6291251 0.91398525 1.7880815 4294967295
2.6216428 0.88782007 1.7863746 4294967295
2.6229999 0.78785139 1.7910211 4294967295
2.6347389 0.76957953 1.7957623 4294967295
2.6266363 -0.90855908 1.7934941 4294967295
2.6170003 2.0745111 1.7531768 4294967295
2.6250525 2.0549808 1.75773 4294967295
2.6257777 2.0264273 1.7572318 4294967295
2.6206925 1.9967002 1.7576228 4294967295
2.6185 1.9626923 1.764408 4294967295
2.6259997 1.9339392 1.7659016 4294967295
2.6317141 1.9040983 1.7666911 4294967295
2.6330953 1.8730962 1.7670521 4294967295
2.6363914 1.8431902 1.767055 4294967295
2.63625 1.8163671 1.7659202 4294967295
2.6310453 1.7869802 1.7656734 4294967295
2.6184165 1.7570029 1.7686225 4294967295
2.6150002 1.6275922 1.7534487 4294967295
2.6155002 1.6169817 1.7530776 4294967295
2.6146669 1.5012037 1.7557169 4294967295
2.6238439 1.48439 1.7653697 4294967295
2.6257195 1.4561368 1.7648286 4294967295
2.6193638 1.4265496 1.7640029 4294967295
2.6179998 1.3958025 1.7576929 4294967295
2.617722 1.363939 1.7588464 4294967295
2.6203213 1.3346473 1.7659825 4294967295
2.6301782 1.3052306 1.7650094 4294967295
2.635956 1.2757043 1.7668403 4294967295
2.6329503 1.2438283 1.7683189 4294967295
2.6280382 1.2145473 1.7662295 4294967295
2.6271245 1.1847825 1.761835 4294967295
2.6238945 1.1556431 1.7603843 4294967295
2.6193888 1.1254244 1.7606421 4294967295
2.6152725 1.0966603 1.7560041 4294967295
2.6129999 1.0603707 1.7583014 4294967295
2.6129994 1.0327879 1.7635485 4294967295
2.6133568 1.0041162 1.7607316 4294967295
2.6224089 0.97185886 1.7613046 4294967295
2.6328635 0.94880569 1.7690192 4294967295
2.6389999 0.91512734 1.779467 4294967295
2.6357367 0.88278091 1.7669574 4294967295
2.6213889 0.85732478 1.7619226 4294967295
2.6159999 0.8221755 1.753314 4294967295
2.6226537 0.79406315 1.7651008 4294967295
2.6349542 0.76837921 1.7666963 4294967295
2.6289232 -0.91493016 1.7624465 4294967295
2.6260002 2.1626556 1.7214649 4294967295
2.6232147 2.1434128 1.7236654 4294967295
2.6254799 2.112164 1.7281622 4294967295
2.6286175 2.0857067 1.7369907 4294967295
2.6356087 2.0579894 1.740618 4294967295
2.6370771 2.0256667 1.742776 4294967295
2.6350501 1.9928317 1.7414984 4294967295
2.6300867 1.9645439 1.7372626 4294967295
2.6212502 1.9337518 1.7345008 4294967295
2.6210771 1.9055454 1.7348999 4294967295
2.622808 1.8752102 1.7354683 4294967295
2.6223476 1.8450078 1.7339687 4294967295
2.6262176 1.8148721 1.7333729 4294967295
2.6287649 1.786275 1.7358388 4294967295
2.6163332 1.7604907 1.7342469 4294967295
2.6269286 1.6606045 1.7258053 4294967295
2.6239662 1.636209 1.7345219 4294967295
2.6182632 1.6071837 1.7334325 4294967295
2.6187501 1.5035359 1.7333287 4294967295
2.6316471 1.4883053 1.7355404 4294967295
2.6346152 1.4552933 1.73622 4294967295
2.6302686 1.4256653 1.7351545 4294967295
2.6212609 1.3944645 1.735303 4294967295
2.6197309 1.3636085 1.7333295 4294967295
2.6275666 1.3358674 1.7343682 4294967295
2.6325412 1.3093861 1.7392193 4294967295
2.6389999 1.2855647 1.7488523 4294967295
2.6389999 1.1743314 1.7468113 4294967295
2.633714 1.1536546 1.7364879 4294967295
2.6220498 1.1261444 1.7345695 4294967295
2.6142497 1.0953376 1.7426351 4294967295
2.6130002 1.0672033 1.7462723 4294967295
2.6140709 1.0321151 1.7350715 4294967295
2.6208122 1.0034459 1.7327491 4294967295
