# .PCD v0.7 - Point Cloud Data file format
VERSION 0.7
FIELDS x y z rgb
SIZE 4 4 4 4
TYPE F F F U
COUNT 1 1 1 1
WIDTH 1066
HEIGHT 1
VIEWPOINT 0 0 0 1 0 0 0
POINTS 1066
DATA ascii
-2.8232203 -0.83413279 -0.56479466 4278190080
-2.797986 -0.81553859 -0.55907035 4278190080
-2.7913821 -0.80305302 -0.55716223 4278190080
-2.0973434 -0.5879572 -0.41596362 4278190080
-2.108844 -0.58324933 -0.41787171 4278190080
-2.8048406 -0.75470364 -0.55716223 4278190080
-2.793226 -0.74113232 -0.55430013 4278190080
-2.2421701 -0.57861233 -0.44267684 4278190080
-2.2394197 -0.56957251 -0.44172284 4278190080
-2.3080466 -0.57845694 -0.45507947 4278190080
-2.3195817 -0.5727495 -0.45698753 4278190080
-2.2977214 -0.55884957 -0.45221731 4278190080
-2.3139775 -0.5542556 -0.45507947 4278190080
-2.8245752 -0.65574074 -0.55620819 4278190080
-2.7933531 -0.63822389 -0.54952991 4278190080
-2.6710598 -0.60047984 -0.52472472 4278190080
-2.6204238 -0.57949471 -0.51423025 4278190080
-2.5984504 -0.56512892 -0.50945997 4278190080
-2.6004071 -0.55605537 -0.50945997 4278190080
-2.7128057 -0.57019424 -0.53140301 4278190080
-2.8301399 -0.58454847 -0.55430013 4278190080
-2.8033025 -0.56880999 -0.54857588 4278190080
-2.7907331 -0.55663049 -0.54571372 4278190080
-2.792659 -0.54688579 -0.54571372 4278190080
-2.7945511 -0.53713435 -0.54571372 4278190080
-2.7915862 -0.52646613 -0.54475969 4278190080
-2.7934067 -0.51671863 -0.54475969 4278190080
-2.790364 -0.50608891 -0.5438056 4278190080
-2.7921135 -0.49634576 -0.5438056 4278190080
-2.7889938 -0.48575446 -0.54285163 4278190080
-2.7906725 -0.47601551 -0.54285163 4278190080
-2.7874758 -0.46546307 -0.54189754 4278190080
-2.7890837 -0.45573029 -0.54189754 4278190080
-2.7858109 -0.4452174 -0.5409435 4278190080
-2.787348 -0.43549052 -0.5409435 4278190080
-2.7888513 -0.42575762 -0.5409435 4278190080
-2.7903204 -0.41602027 -0.5409435 4278190080
-2.7917557 -0.40627784 -0.5409435 4278190080
-2.7931569 -0.39653048 -0.5409435 4278190080
-2.7896619 -0.38610536 -0.53998947 4278190080
-2.7909927 -0.37636468 -0.53998947 4278190080
-2.7922895 -0.36662015 -0.53998947 4278190080
-2.7886839 -0.35624921 -0.53903544 4278190080
-2.7899103 -0.34651285 -0.53903544 4278190080
-2.7862301 -0.33618435 -0.53808135 4278190080
-2.7873867 -0.32645595 -0.53808135 4278190080
-2.783577 -0.31665668 -0.53712732 4278190080
-2.7846653 -0.30693766 -0.53712732 4278190080
-2.7857199 -0.29721564 -0.53712732 4278190080
-2.7867403 -0.28749001 -0.53712732 4278190080
-2.7828431 -0.27727425 -0.53617328 4278190080
-2.7837939 -0.26755878 -0.53617328 4278190080
-2.7847109 -0.25783929 -0.53617328 4278190080
-2.7807052 -0.24768196 -0.53521919 4278190080
-2.7815528 -0.23797412 -0.53521919 4278190080
-2.7774749 -0.22786209 -0.53426516 4278190080
-2.7782533 -0.21816565 -0.53426516 4278190080
-2.7789981 -0.20846581 -0.53426516 4278190080
-2.7797089 -0.19876419 -0.53426516 4278190080
-2.7803857 -0.18906012 -0.53426516 4278190080
-2.7810287 -0.17935377 -0.53426516 4278190080
-2.7816377 -0.16964522 -0.53426516 4278190080
-2.782213 -0.15993387 -0.53426516 4278190080
-2.7778533 -0.14995673 -0.53331113 4278190080
-2.7783597 -0.14025944 -0.53331113 4278190080
-2.7739298 -0.13033012 -0.5323571 4278190080
-2.7743678 -0.12064664 -0.5323571 4278190080
-2.7747722 -0.11096097 -0.5323571 4278190080
-2.7751424 -0.10127468 -0.5323571 4278190080
-2.7754791 -0.091587149 -0.5323571 4278190080
-2.7806878 -0.08204326 -0.53331113 4278190080
-2.7809572 -0.072336495 -0.53331113 4278190080
-2.7811928 -0.062628113 -0.53331113 4278190080
-2.7813945 -0.052919701 -0.53331113 4278190080
-2.7766547 -0.043134414 -0.5323571 4278190080
-2.7767885 -0.033441965 -0.5323571 4278190080
-2.771976 -0.024190668 -0.53140301 4278190080
-2.7720435 -0.014514666 -0.53140301 4278190080
-2.7720773 -0.0048384881 -0.53140301 4278190080
-2.7720773 0.0048384881 -0.53140301 4278190080
-2.7769518 0.014540366 -0.5323571 4278190080
-2.7768841 0.0242335 -0.5323571 4278190080
-2.7767825 0.033926338 -0.5323571 4278190080
-2.7766473 0.043618765 -0.5323571 4278190080
-2.7715707 0.053217173 -0.53140301 4278190080
-2.771368 0.06289129 -0.53140301 4278190080
-2.7662127 0.072918691 -0.53044897 4278190080
-2.7659411 0.082574718 -0.53044897 4278190080
-2.7656522 0.091745839 -0.53044897 4278190080
-2.7653151 0.10139979 -0.53044897 4278190080
-2.7649443 0.11105178 -0.53044897 4278190080
-2.7645397 0.12070242 -0.53044897 4278190080
-2.7641017 0.13035157 -0.53044897 4278190080
-2.7636299 0.13999915 -0.53044897 4278190080
-2.7631242 0.14964576 -0.53044897 4278190080
-2.7625852 0.15928979 -0.53044897 4278190080
-2.7620122 0.1689319 -0.53044897 4278190080
-2.7663035 0.17888868 -0.53140301 4278190080
-2.7607656 0.18820982 -0.53044897 4278190080
-2.7600918 0.19784613 -0.53044897 4278190080
-2.7642784 0.2078473 -0.53140301 4278190080
-2.7586432 0.21710993 -0.53044897 4278190080
-2.7579081 0.22625685 -0.53044897 4278190080
-2.7619505 0.23678239 -0.53140301 4278190080
-2.761107 0.24642253 -0.53140301 4278190080
-2.7602301 0.25605896 -0.53140301 4278190080
-2.764205 0.26616266 -0.5323571 4278190080
-2.7632592 0.27580979 -0.5323571 4278190080
-2.7623293 0.28497168 -0.5323571 4278190080
-2.7613177 0.29461214 -0.5323571 4278190080
-2.7602725 0.30424899 -0.5323571 4278190080
-2.7591937 0.31388286 -0.5323571 4278190080
-2.7580812 0.3235122 -0.5323571 4278190080
-2.7520623 0.33254877 -0.53140301 4278190080
-2.7508848 0.34215307 -0.53140301 4278190080
-2.7496738 0.35175323 -0.53140301 4278190080
-2.7484291 0.36134982 -0.53140301 4278190080
-2.7471509 0.37094128 -0.53140301 4278190080
-2.7507012 0.38120198 -0.5323571 4278190080
-2.7493539 0.39080125 -0.5323571 4278190080
-2.7528298 0.40110344 -0.53331113 4278190080
-2.7514129 0.41071072 -0.53331113 4278190080
-2.7548144 0.42105389 -0.53426516 4278190080
-2.7533278 0.43066728 -0.53426516 4278190080
-2.7518077 0.4402754 -0.53426516 4278190080
-2.7502542 0.44987819 -0.53426516 4278190080
-2.748667 0.4594762 -0.53426516 4278190080
-2.7470462 0.4690679 -0.53426516 4278190080
-2.7453923 0.47865388 -0.53426516 4278190080
-2.7485368 0.48909387 -0.53521919 4278190080
-2.7468128 0.49868494 -0.53521919 4278190080
-2.7450552 0.50827062 -0.53521919 4278190080
-2.7432644 0.51784945 -0.53521919 4278190080
-2.7414401 0.52742189 -0.53521919 4278190080
-2.7395823 0.53698796 -0.53521919 4278190080
-2.7376912 0.54654747 -0.53521919 4278190080
-2.7357666 0.55610108 -0.53521919 4278190080
-2.7386153 0.56664163 -0.53617328 4278190080
-2.7367213 0.57572019 -0.53617328 4278190080
-2.7394943 0.58629662 -0.53712732 4278190080
-2.737431 0.59585553 -0.53712732 4278190080
-2.7352285 0.60588503 -0.53712732 4278190080
-2.7330971 0.61542892 -0.53712732 4278190080
-2.7309322 0.62496531 -0.53712732 4278190080
-2.7288446 0.63401812 -0.53712732 4278190080
-2.7312794 0.64514345 -0.53808135 4278190080
-2.7290108 0.65467405 -0.53808135 4278190080
-2.7267089 0.66419595 -0.53808135 4278190080
-2.7243738 0.67370975 -0.53808135 4278190080
-2.7220056 0.68321532 -0.53808135 4278190080
-2.7196043 0.6927126 -0.53808135 4278190080
-2.7171695 0.70220214 -0.53808135 4278190080
-2.7194495 0.7129271 -0.53903544 4278190080
-2.7169445 0.72241527 -0.53903544 4278190080
-2.7144063 0.73189461 -0.53903544 4278190080
-2.7118349 0.74136508 -0.53903544 4278190080
-2.7139602 0.75213796 -0.53998947 4278190080
-2.7113183 0.76160675 -0.53998947 4278190080
-2.7133639 0.77241004 -0.5409435 4278190080
-2.7106512 0.78187662 -0.5409435 4278190080
-2.7127547 0.79223716 -0.54189754 4278190080
-2.7099729 0.80170143 -0.54189754 4278190080
-2.7071579 0.81115597 -0.54189754 4278190080
-2.7043097 0.82060134 -0.54189754 4278190080
-2.7014289 0.83003604 -0.54189754 4278190080
-2.6938286 0.83800268 -0.5409435 4278190080
-2.6908872 0.84740067 -0.5409435 4278190080
-2.6832364 0.85529768 -0.53998947 4278190080
-2.6755633 0.86315238 -0.53903544 4278190080
-2.6678681 0.87096322 -0.53808135 4278190080
-2.6694722 0.88180989 -0.53903544 4278190080
-2.6429484 0.88380551 -0.53426516 4278190080
-2.6351979 0.89145279 -0.53331113 4278190080
-2.5809884 0.88316661 -0.52281666 4278190080
-2.5270221 0.87407219 -0.51232213 4278190080
-2.5239556 0.88288766 -0.51232213 4278190080
-2.5069768 0.88678211 -0.50945997 4278190080
-2.4900019 0.89056891 -0.50659788 4278190080
-2.4591839 0.88924164 -0.50087363 4278190080
-2.3961377 0.87591368 -0.48847103 4278190080
-2.3332152 0.86215669 -0.47606841 4278190080
-2.3072021 0.86170948 -0.47129822 4278190080
-2.2674448 0.85589129 -0.46366581 4278190080
-2.2506859 0.85855353 -0.46080372 4278190080
-2.2339361 0.86110854 -0.45794156 4278190080
-2.2126229 0.86177588 -0.45412537 4278190080
-2.1913323 0.86230505 -0.45030922 4278190080
-2.1700652 0.86269617 -0.44649303 4278190080
-2.1533768 0.86477911 -0.44363093 4278190080
-2.1321523 0.86491054 -0.43981475 4278190080
-2.1109533 0.86490434 -0.43599853 4278190080
-2.0852456 0.86288422 -0.43122834 4278190080
-2.0595779 0.86069518 -0.42645809 4278190080
-2.029429 0.85642987 -0.42073381 4278190080
-2.0038509 0.85388827 -0.41596362 4278190080
-1.9783154 0.85117859 -0.41119337 4278190080
-1.9618268 0.85221225 -0.40833122 4278190080
-1.9408606 0.85117006 -0.40451506 4278190080
-1.9244137 0.85197943 -0.40165293 4278190080
-1.9079849 0.85268378 -0.39879078 4278190080
-1.8871009 0.85126579 -0.39497462 4278190080
-1.8707174 0.85174638 -0.39211249 4278190080
-1.8498935 0.85007346 -0.38829628 4278190080
-1.8289562 0.84858525 -0.38448009 4278190080
-1.8082031 0.84663928 -0.38066396 4278190080
-1.7917756 0.84696853 -0.37780181 4278190080
-1.7712356 0.84445679 -0.37398562 4278190080
-1.7550082 0.84425128 -0.37112349 4278190080
-1.7433671 0.84578186 -0.3692154 4278190080
-1.7227706 0.84323114 -0.36539921 4278190080
-1.7110151 0.84489328 -0.36349112 4278190080
-1.6948758 0.8442952 -0.36062899 4278190080
-1.6787617 0.84359479 -0.35776687 4278190080
-1.6626731 0.84279275 -0.35490474 4278190080
-1.6466109 0.84188825 -0.35204259 4278190080
-1.6305754 0.840882 -0.34918046 4278190080
-1.6145672 0.83977413 -0.3463183 4278190080
-1.5985868 0.83856487 -0.34345618 4278190080
-1.5826344 0.83725476 -0.34059405 4278190080
-1.5667111 0.83584321 -0.33773193 4278190080
-1.550817 0.83433074 -0.33486977 4278190080
-1.5392669 0.83505803 -0.33296171 4278190080
-1.5234247 0.83335942 -0.33009955 4278190080
-1.5117652 0.83419502 -0.32819146 4278190080
-1.5002662 0.83469439 -0.32628337 4278190080
-1.4887822 0.83512372 -0.32437527 4278190080
-1.4773134 0.83548349 -0.32246718 4278190080
-1.4658605 0.83577305 -0.32055911 4278190080
-1.4544237 0.83599293 -0.31865102 4278190080
-1.4430032 0.83614314 -0.31674293 4278190080
-1.4317454 0.83597416 -0.31483483 4278190080
-1.4202129 0.8362357 -0.31292674 4278190080
-1.4088439 0.83617783 -0.31101868 4278190080
-1.3932807 0.83353108 -0.30815652 4278190080
-1.3819565 0.83332038 -0.30624843 4278190080
-1.3706508 0.83304083 -0.30434033 4278190080
-1.3593637 0.83269298 -0.30243224 4278190080
-1.3480961 0.83227623 -0.30052415 4278190080
-1.3368481 0.83179098 -0.29861605 4278190080
-1.3256201 0.83123744 -0.29670799 4278190080
-1.3144122 0.83061564 -0.29479989 4278190080
-1.3032248 0.82992619 -0.2928918 4278190080
-1.2920585 0.8291685 -0.29098371 4278190080
-1.2809135 0.82834297 -0.28907561 4278190080
-1.2697901 0.82744986 -0.28716755 4278190080
-1.266894 0.83187711 -0.28716755 4278190080
-1.259889 0.83358634 -0.28621349 4278190080
-1.2569716 0.83797902 -0.28621349 4278190080
-1.2499647 0.83962476 -0.28525946 4278190080
-1.2429615 0.84123176 -0.28430539 4278190080
-1.2359625 0.8428002 -0.28335136 4278190080
-1.2289674 0.84433031 -0.28239733 4278190080
-1.2179413 0.84302819 -0.28048921 4278190080
-1.2069393 0.84165943 -0.27858111 4278190080
-1.1999781 0.84304577 -0.27762708 4278190080
-1.1890156 0.84155828 -0.27571899 4278190080
-1.1780781 0.84000486 -0.27381089 4278190080
-1.1671661 0.83838516 -0.2719028 4278190080
-1.1562799 0.83669955 -0.26999474 4278190080
-1.1454198 0.83494824 -0.26808664 4278190080
-1.1385423 0.83603638 -0.26713258 4278190080
-1.127725 0.8341682 -0.26522449 4278190080
-1.1208707 0.83516705 -0.26427045 4278190080
-1.1140231 0.83612818 -0.26331642 4278190080
-1.1110977 0.84001172 -0.26331642 4278190080
-1.1003492 0.83793783 -0.26140833 4278190080
-1.093523 0.83878666 -0.26045427 4278190080
-1.0867045 0.83959782 -0.25950024 4278190080
-1.0798937 0.84037167 -0.2585462 4278190080
-1.0730908 0.8411082 -0.25759214 4278190080
-1.066296 0.84180754 -0.25663811 4278190080
-1.0556674 0.83941519 -0.25472999 4278190080
-1.0489 0.84002686 -0.25377595 4278190080
-1.0381747 0.83770126 -0.25186786 4278190080
-1.0314351 0.83822483 -0.25091383 4278190080
-1.0247049 0.83871132 -0.24995977 4278190080
-1.0181302 0.83898348 -0.24900573 4278190080
-1.0114186 0.83939779 -0.24805169 4278190080
-1.00457 0.83995068 -0.24709764 4278190080
-0.99412304 0.83712953 -0.24518955 4278190080
-0.99134177 0.84042132 -0.24518955 4278190080
-0.96959382 0.82811135 -0.24041933 4278190080
-0.99274451 0.85389489 -0.24709764 4278190080
-0.98233819 0.85092783 -0.24518955 4278190080
-0.97566313 0.85112536 -0.24423552 4278190080
-0.80184942 0.88153023 -0.22420056 4278190080
-0.79876745 0.88432384 -0.22420056 4278190080
-0.78256708 0.8724916 -0.22038439 4278190080
-0.77298802 0.86788756 -0.2184763 4278190080
-0.76670229 0.86690396 -0.21752225 4278190080
-0.75719386 0.86219937 -0.21561417 4278190080
-0.75095385 0.86113805 -0.21466012 4278190080
-0.74473047 0.86004364 -0.21370608 4278190080
-0.73852396 0.8589164 -0.21275203 4278190080
-0.73233438 0.85775632 -0.21179798 4278190080
-0.72933561 0.86030757 -0.21179798 4278190080
-0.72316742 0.85909325 -0.21084395 4278190080
-0.71701658 0.85784644 -0.2098899 4278190080
-0.70774883 0.8527903 -0.20798181 4278190080
-0.70149761 0.85159028 -0.20702775 4278190080
-0.69230598 0.84643537 -0.20511965 4278190080
-0.68315899 0.8412267 -0.20321156 4278190080
-0.67420268 0.83584702 -0.20130348 4278190080
-0.66514474 0.83053333 -0.19939539 4278190080
-0.65918696 0.82900834 -0.19844134 4278190080
-0.65310335 0.82756603 -0.19748731 4278190080
-0.65021068 0.82984072 -0.19748731 4278190080
-0.64429641 0.82823133 -0.19653326 4278190080
-0.64140123 0.83047545 -0.19653326 4278190080
-0.63551193 0.82881433 -0.19557922 4278190080
-0.63261503 0.83102757 -0.19557922 4278190080
-0.62675112 0.82931507 -0.19462517 4278190080
-0.62385249 0.83149773 -0.19462517 4278190080
-0.61801422 0.82973421 -0.19367112 4278190080
-0.61219609 0.82793993 -0.19271709 4278190080
-0.60930234 0.83007181 -0.19271709 4278190080
-0.60351074 0.82822686 -0.19176304 4278190080
-0.59773946 0.82635164 -0.190809 4278190080
-0.59485114 0.82843322 -0.190809 4278190080
-0.58910698 0.82650781 -0.18985495 4278190080
-0.58621842 0.8285591 -0.18985495 4278190080
-0.58050185 0.82658368 -0.1889009 4278190080
-0.577613 0.82860494 -0.1889009 4278190080
-0.57192427 0.82658011 -0.18794686 4278190080
-0.56625694 0.82452554 -0.18699281 4278190080
-0.56337541 0.82649708 -0.18699281 4278190080
-0.55773675 0.82439339 -0.18603876 4278190080
-0.5548557 0.82633519 -0.18603876 4278190080
-0.54924589 0.82418281 -0.18508472 4278190080
-0.54636562 0.82609499 -0.18508472 4278190080
-0.54078549 0.82389385 -0.18413067 4278190080
-0.53776228 0.82587034 -0.18413067 4278190080
-0.5322122 0.8236202 -0.18317664 4278190080
-0.52933401 0.82547295 -0.18317664 4278190080
-0.52381444 0.82317472 -0.18222259 4278190080
-0.51831734 0.82084811 -0.18126854 4278190080
-0.51544893 0.82265234 -0.18126854 4278190080
-0.50998259 0.82027847 -0.1803145 4278190080
-0.5071162 0.82205361 -0.1803145 4278190080
-0.50424367 0.82381874 -0.1803145 4278190080
-0.49881729 0.82137871 -0.17936045 4278190080
-0.49594715 0.82311487 -0.17936045 4278190080
-0.49307075 0.82484114 -0.17936045 4278190080
-0.49018857 0.82655722 -0.17936045 4278190080
-0.4873004 0.82826328 -0.17936045 4278190080
-0.48193222 0.82572025 -0.17840642 4278190080
-0.47904703 0.82739741 -0.17840642 4278190080
-0.47356749 0.82489115 -0.17745237 4278190080
-0.47068524 0.82653916 -0.17745237 4278190080
-0.46538332 0.82390356 -0.17649831 4278190080
-0.46250436 0.82552314 -0.17649831 4278190080
-0.45723596 0.82284224 -0.17554426 4278190080
-0.45199195 0.8201347 -0.17459023 4278190080
-0.44912642 0.82170743 -0.17459023 4278190080
-0.4439165 0.81895518 -0.17363618 4278190080
-0.44105494 0.82049984 -0.17363618 4278190080
-0.43587944 0.81770319 -0.17268214 4278190080
-0.43302253 0.81921971 -0.17268214 4278190080
-0.43016031 0.82072622 -0.17268214 4278190080
-0.42729285 0.82222271 -0.17268214 4278190080
-0.42442 0.82370931 -0.17268214 4278190080
-0.41930935 0.82081497 -0.17172809 4278190080
-0.41644165 0.82227361 -0.17172809 4278190080
-0.41136664 0.81933588 -0.17077404 4278190080
-0.40850416 0.82076681 -0.17077404 4278190080
-0.40346491 0.81778628 -0.16982 4278190080
-0.40046498 0.81925946 -0.16982 4278190080
-0.39760283 0.82065237 -0.16982 4278190080
-0.39261103 0.81761086 -0.16886596 4278190080
-0.38975468 0.81897634 -0.16886596 4278190080
-0.38479996 0.81589264 -0.16791192 4278190080
-0.38194966 0.81723082 -0.16791192 4278190080
-0.37909469 0.81855911 -0.16791192 4278190080
-0.37623492 0.81987751 -0.16791192 4278190080
-0.37337077 0.82118577 -0.16791192 4278190080
-0.37050205 0.82248408 -0.16791192 4278190080
-0.3656286 0.81929028 -0.16695787 4278190080
-0.36276656 0.82056153 -0.16695787 4278190080
-0.35989988 0.82182288 -0.16695787 4278190080
-0.35507587 0.81857139 -0.16600382 4278190080
-0.35221639 0.81980586 -0.16600382 4278190080
-0.34935263 0.82103032 -0.16600382 4278190080
-0.3464846 0.82224476 -0.16600382 4278190080
-0.34361216 0.82344925 -0.16600382 4278190080
-0.33886144 0.82010752 -0.16504978 4278190080
-0.33599669 0.82128531 -0.16504978 4278190080
-0.33128527 0.817904 -0.16409573 4278190080
-0.32828519 0.81911272 -0.16409573 4278190080
-0.323614 0.81569147 -0.16314168 4278190080
-0.32062206 0.81687212 -0.16314168 4278190080
-0.31613353 0.81335604 -0.16218764 4278190080
-0.31329229 0.81445467 -0.16218764 4278190080
-0.31044745 0.81554329 -0.16218764 4278190080
-0.30586874 0.81202888 -0.16123359 4278190080
-0.3030324 0.81309158 -0.16123359 4278190080
-0.30019239 0.81414437 -0.16123359 4278190080
-0.2973485 0.81518739 -0.16123359 4278190080
-0.29450119 0.81622034 -0.16123359 4278190080
-0.2916503 0.81724334 -0.16123359 4278190080
-0.28716233 0.81362808 -0.16027956 4278190080
-0.28432053 0.8146255 -0.16027956 4278190080
-0.28147507 0.81561303 -0.16027956 4278190080
-0.27862635 0.81659061 -0.16027956 4278190080
-0.27420554 0.81290752 -0.15932551 4278190080
-0.27136633 0.8138597 -0.15932551 4278190080
-0.26852381 0.81480199 -0.15932551 4278190080
-0.26567781 0.81573439 -0.15932551 4278190080
-0.2611835 0.81203026 -0.15837146 4278190080
-0.25834745 0.81293696 -0.15837146 4278190080
-0.25550801 0.81383389 -0.15837146 4278190080
-0.25121185 0.8100329 -0.15741742 4278190080
-0.24838284 0.81090486 -0.15741742 4278190080
-0.24555078 0.81176692 -0.15741742 4278190080
-0.24271573 0.81261909 -0.15741742 4278190080
-0.23987751 0.81346142 -0.15741742 4278190080
-0.23703657 0.8142938 -0.15741742 4278190080
-0.23283742 0.81039894 -0.15646337 4278190080
-0.23000723 0.81120676 -0.15646337 4278190080
-0.22717424 0.81200469 -0.15646337 4278190080
-0.22419646 0.81283188 -0.15646337 4278190080
-0.22006932 0.80887353 -0.15550934 4278190080
-0.21724452 0.80963677 -0.15550934 4278190080
-0.21441709 0.81039017 -0.15550934 4278190080
-0.21158682 0.81113374 -0.15550934 4278190080
-0.20875418 0.81186736 -0.15550934 4278190080
-0.20577726 0.81262702 -0.15550934 4278190080
-0.20293924 0.81334037 -0.15550934 4278190080
-0.20009896 0.81404382 -0.15550934 4278190080
-0.19739835 0.81470287 -0.15550934 4278190080
-0.19341445 0.8106128 -0.15455529 4278190080
-0.19058353 0.81128305 -0.15455529 4278190080
-0.18664454 0.80716145 -0.15360124 4278190080
-0.18382613 0.80780798 -0.15360124 4278190080
-0.18086383 0.80847639 -0.15360124 4278190080
-0.17804088 0.80910271 -0.15360124 4278190080
-0.17521532 0.80971932 -0.15360124 4278190080
-0.17238806 0.81032592 -0.15360124 4278190080
-0.16955827 0.8109228 -0.15360124 4278190080
-0.16672643 0.81150973 -0.15360124 4278190080
-0.16389297 0.81208676 -0.15360124 4278190080
-0.16105708 0.8126539 -0.15360124 4278190080
-0.1580776 0.81323874 -0.15360124 4278190080
-0.15523773 0.81378561 -0.15360124 4278190080
-0.1523964 0.81432247 -0.15360124 4278190080
-0.14955278 0.81484956 -0.15360124 4278190080
-0.14670777 0.81536657 -0.15360124 4278190080
-0.14386055 0.81587374 -0.15360124 4278190080
-0.14101157 0.81637096 -0.15360124 4278190080
-0.13734277 0.81201869 -0.15264718 4278190080
-0.13450728 0.81249321 -0.15264718 4278190080
-0.13167059 0.8129577 -0.15264718 4278190080
-0.12806407 0.80856472 -0.15169315 4278190080
-0.1252407 0.80900681 -0.15169315 4278190080
-0.12241624 0.80943906 -0.15169315 4278190080
-0.11958984 0.80986142 -0.15169315 4278190080
-0.11676243 0.81027395 -0.15169315 4278190080
-0.11393316 0.81067657 -0.15169315 4278190080
-0.11096124 0.81108868 -0.15169315 4278190080
-0.10812917 0.8114711 -0.15169315 4278190080
-0.1052962 0.81184357 -0.15169315 4278190080
-0.10184722 0.80733669 -0.1507391 4278190080
-0.099028297 0.80768728 -0.1507391 4278190080
-0.096067436 0.80804479 -0.1507391 4278190080
-0.092683651 0.80349946 -0.14978506 4278190080
-0.089878604 0.80381805 -0.14978506 4278190080
-0.087072037 0.80412692 -0.14978506 4278190080
-0.084404945 0.80441123 -0.14978506 4278190080
-0.081456184 0.80471516 -0.14978506 4278190080
-0.078646533 0.80499464 -0.14978506 4278190080
-0.076296546 0.81015074 -0.1507391 4278190080
-0.073024824 0.80552405 -0.14978506 4278190080
-0.070212834 0.80577403 -0.14978506 4278190080
-0.067808554 0.81090528 -0.1507391 4278190080
-0.064445034 0.80625582 -0.14978506 4278190080
-0.061630115 0.80647588 -0.14978506 4278190080
-0.058814872 0.80668604 -0.14978506 4278190080
-0.055998482 0.80688649 -0.14978506 4278190080
-0.05318141 0.80707705 -0.14978506 4278190080
-0.050364118 0.80725777 -0.14978506 4278190080
-0.047404721 0.80743694 -0.14978506 4278190080
-0.044586211 0.80759746 -0.14978506 4278190080
-0.041513275 0.80284661 -0.14883101 4278190080
-0.038710821 0.80298662 -0.14883101 4278190080
-0.03590747 0.80311686 -0.14883101 4278190080
-0.033103678 0.80323732 -0.14883101 4278190080
-0.030299911 0.80334795 -0.14883101 4278190080
-0.027495349 0.80344886 -0.14883101 4278190080
-0.024690878 0.80353993 -0.14883101 4278190080
-0.021885678 0.80362123 -0.14883101 4278190080
-0.019080212 0.8036927 -0.14883101 4278190080
-0.016274942 0.80375439 -0.14883101 4278190080
-0.013469045 0.8038063 -0.14883101 4278190080
-0.010663413 0.80384845 -0.14883101 4278190080
-0.0078572212 0.80388075 -0.14883101 4278190080
-0.0050509344 0.80390328 -0.14883101 4278190080
-0.0022450143 0.80391604 -0.14883101 4278190080
0.00056136132 0.80391896 -0.14883101 4278190080
0.003507748 0.80391151 -0.14883101 4278190080
0.0063140728 0.8038944 -0.14883101 4278190080
0.0091198925 0.80386746 -0.14883101 4278190080
0.011926029 0.80383068 -0.14883101 4278190080
0.014731592 0.80378419 -0.14883101 4278190080
0.017537404 0.80372787 -0.14883101 4278190080
0.020343002 0.80366176 -0.14883101 4278190080
0.023147926 0.80358583 -0.14883101 4278190080
0.025952993 0.80350012 -0.14883101 4278190080
0.028757317 0.80340469 -0.14883101 4278190080
0.031561717 0.80329937 -0.14883101 4278190080
0.034365736 0.80318433 -0.14883101 4278190080
0.036941979 0.79815656 -0.14787696 4278190080
0.039728012 0.79802275 -0.14787696 4278190080
0.042513136 0.79787922 -0.14787696 4278190080
0.045298163 0.79772598 -0.14787696 4278190080
0.048221551 0.79755461 -0.14787696 4278190080
0.051318727 0.80227953 -0.14883101 4278190080
0.054118637 0.80209553 -0.14883101 4278190080
0.056918312 0.8019017 -0.14883101 4278190080
0.059717298 0.80169815 -0.14883101 4278190080
0.062133454 0.79659152 -0.14787696 4278190080
0.064913869 0.79636979 -0.14787696 4278190080
0.06769307 0.79613835 -0.14787696 4278190080
0.070610911 0.79588491 -0.14787696 4278190080
0.073388383 0.79563355 -0.14787696 4278190080
0.076633252 0.80025834 -0.14883101 4278190080
0.07928662 0.79999977 -0.14883101 4278190080
0.082218111 0.79970384 -0.14883101 4278190080
0.085009269 0.79941195 -0.14883101 4278190080
0.087798961 0.79911035 -0.14883101 4278190080
0.090588011 0.79879898 -0.14883101 4278190080
0.093375959 0.79847789 -0.14883101 4278190080
0.096162342 0.79814714 -0.14883101 4278190080
0.09894798 0.79780656 -0.14883101 4278190080
0.10173199 0.79745638 -0.14883101 4278190080
0.10451518 0.79709637 -0.14883101 4278190080
0.10743587 0.79670799 -0.14883101 4278190080
0.11021641 0.79632807 -0.14883101 4278190080
0.11299518 0.79593849 -0.14883101 4278190080
0.11577301 0.7955392 -0.14883101 4278190080
0.11854943 0.79513025 -0.14883101 4278190080
0.12132397 0.79471159 -0.14883101 4278190080
0.12409747 0.79428321 -0.14883101 4278190080
0.12686902 0.79384524 -0.14883101 4278190080
0.12963945 0.79339755 -0.14883101 4278190080
0.13240831 0.79294014 -0.14883101 4278190080
0.13600041 0.79731143 -0.14978506 4278190080
0.13878287 0.79683179 -0.14978506 4278190080
0.14156324 0.79634255 -0.14978506 4278190080
0.14448133 0.79581827 -0.14978506 4278190080
0.14725813 0.79530913 -0.14978506 4278190080
0.15003355 0.79479027 -0.14978506 4278190080
0.1537344 0.79908139 -0.1507391 4278190080
0.15652253 0.79853994 -0.1507391 4278190080
0.15930916 0.79798871 -0.1507391 4278190080
0.16307113 0.80223757 -0.15169315 4278190080
0.16587064 0.8016634 -0.15169315 4278190080
0.16981973 0.80585277 -0.15264718 4278190080
0.17366065 0.81005418 -0.15360124 4278190080
0.1787212 0.81900281 -0.15550934 4278190080
0.18249848 0.82319742 -0.15646337 4278190080
0.18645008 0.8273434 -0.15741742 4278190080
0.19043238 0.83147186 -0.15837146 4278190080
0.19333377 0.83080202 -0.15837146 4278190080
0.19623238 0.83012217 -0.15837146 4278190080
0.19912902 0.82943207 -0.15837146 4278190080
0.20202324 0.82873189 -0.15837146 4278190080
0.20491457 0.82802171 -0.15837146 4278190080
0.20899951 0.83206159 -0.15932551 4278190080
0.21190242 0.83132702 -0.15932551 4278190080
0.21480317 0.83058226 -0.15932551 4278190080
0.21784584 0.8297894 -0.15932551 4278190080
0.2207412 0.8290239 -0.15932551 4278190080
0.22363342 0.82824838 -0.15932551 4278190080
0.22781932 0.83219659 -0.16027956 4278190080
0.23072301 0.83139628 -0.16027956 4278190080
0.23362346 0.8305859 -0.16027956 4278190080
0.23786695 0.83448541 -0.16123359 4278190080
0.24077813 0.83365011 -0.16123359 4278190080
0.24368683 0.8328045 -0.16123359 4278190080
0.24659255 0.83194876 -0.16123359 4278190080
0.24949482 0.831083 -0.16123359 4278190080
0.2523945 0.83020693 -0.16123359 4278190080
0.25673467 0.83401185 -0.16218764 4278190080
0.25979006 0.83306515 -0.16218764 4278190080
0.26269615 0.83215338 -0.16218764 4278190080
0.26709336 0.83590651 -0.16314168 4278190080
0.27000976 0.83496904 -0.16314168 4278190080
0.27292243 0.83402151 -0.16314168 4278190080
0.27583224 0.83306372 -0.16314168 4278190080
0.27873823 0.83209586 -0.16314168 4278190080
0.28178644 0.83106858 -0.16314168 4278190080
0.28627771 0.83472264 -0.16409573 4278190080
0.28918988 0.83371818 -0.16409573 4278190080
0.29209805 0.83270377 -0.16409573 4278190080
0.29500312 0.83167899 -0.16409573 4278190080
0.29790461 0.83064413 -0.16409573 4278190080
0.30080202 0.82959926 -0.16409573 4278190080
0.30369622 0.82854414 -0.16409573 4278190080
0.30673081 0.82742554 -0.16409573 4278190080
0.31133947 0.83094591 -0.16504978 4278190080
0.31423783 0.82985419 -0.16504978 4278190080
0.31888697 0.83333611 -0.16600382 4278190080
0.32179406 0.83221787 -0.16600382 4278190080
0.32469684 0.83108962 -0.16600382 4278190080
0.32759607 0.82995111 -0.16600382 4278190080
0.33049089 0.82880259 -0.16600382 4278190080
0.3333821 0.82764387 -0.16600382 4278190080
0.33626926 0.82647502 -0.16600382 4278190080
0.34101748 0.82983607 -0.16695787 4278190080
0.34391224 0.82864058 -0.16695787 4278190080
0.34869963 0.83196175 -0.16791192 4278190080
0.35160178 0.83073944 -0.16791192 4278190080
0.35464409 0.82944518 -0.16791192 4278190080
0.35753742 0.82820213 -0.16791192 4278190080
0.36042595 0.82694918 -0.16791192 4278190080
0.36528724 0.83017838 -0.16886596 4278190080
0.36818305 0.82889819 -0.16886596 4278190080
0.37308198 0.83208662 -0.16982 4278190080
0.37598443 0.83077914 -0.16982 4278190080
0.3809211 0.8339262 -0.17077404 4278190080
0.38382989 0.83259141 -0.17077404 4278190080
0.38673401 0.83124644 -0.17077404 4278190080
0.38963297 0.8298915 -0.17077404 4278190080
0.39252764 0.82852632 -0.17077404 4278190080
0.39541709 0.82715124 -0.17077404 4278190080
0.39830217 0.82576585 -0.17077404 4278190080
0.40132594 0.82430047 -0.17077404 4278190080
0.404201 0.82289451 -0.17077404 4278190080
0.40924999 0.82587647 -0.17172809 4278190080
0.4121305 0.8244428 -0.17172809 4278190080
0.41721591 0.82738155 -0.17268214 4278190080
0.42010123 0.82592028 -0.17268214 4278190080
0.42298183 0.82444876 -0.17268214 4278190080
0.42811254 0.82732648 -0.17363618 4278190080
0.43099803 0.82582694 -0.17363618 4278190080
0.43387824 0.8243174 -0.17363618 4278190080
0.43919843 0.82705647 -0.17459023 4278190080
0.44208291 0.82551825 -0.17459023 4278190080
0.4472937 0.82828885 -0.17554426 4278190080
0.45018244 0.82672238 -0.17554426 4278190080
0.45306522 0.82514608 -0.17554426 4278190080
0.4583202 0.82785344 -0.17649831 4278190080
0.46120733 0.82624847 -0.17649831 4278190080
0.4664956 0.82891101 -0.17745237 4278190080
0.46938637 0.82727748 -0.17745237 4278190080
0.472271 0.82563412 -0.17745237 4278190080
0.47529423 0.82389742 -0.17745237 4278190080
0.47816703 0.8222335 -0.17745237 4278190080
0.4810344 0.82055926 -0.17745237 4278190080
0.48639247 0.82310081 -0.17840642 4278190080
0.48926285 0.82139784 -0.17840642 4278190080
0.49465364 0.82389289 -0.17936045 4278190080
0.49766994 0.82207441 -0.17936045 4278190080
0.50053662 0.82033211 -0.17936045 4278190080
0.50611162 0.82267249 -0.1803145 4278190080
0.50883693 0.82098961 -0.1803145 4278190080
0.51169938 0.81920862 -0.1803145 4278190080
0.51455599 0.81741732 -0.1803145 4278190080
0.52003556 0.81976068 -0.18126854 4278190080
0.52289361 0.81794059 -0.18126854 4278190080
0.52840382 0.82023633 -0.18222259 4278190080
0.53126347 0.81838703 -0.18222259 4278190080
0.53694731 0.82054108 -0.18317664 4278190080
0.53980798 0.81866193 -0.18317664 4278190080
0.54537863 0.82086068 -0.18413067 4278190080
0.54824042 0.81895208 -0.18413067 4278190080
0.5510959 0.81703329 -0.18413067 4278190080
0.55394471 0.81510448 -0.18413067 4278190080
0.55955923 0.81721586 -0.18508472 4278190080
0.56240863 0.81525755 -0.18508472 4278190080
0.56819463 0.81722063 -0.18603876 4278190080
0.57385987 0.81925219 -0.18699281 4278190080
0.57671583 0.81724423 -0.18699281 4278190080
0.58240908 0.81922626 -0.18794686 4278190080
0.58526492 0.81718844 -0.18794686 4278190080
0.59098577 0.81912071 -0.1889009 4278190080
0.59384161 0.81705266 -0.1889009 4278190080
0.59958929 0.81893522 -0.18985495 4278190080
0.60244441 0.81683713 -0.18985495 4278190080
0.60821885 0.81866926 -0.190809 4278190080
0.61107302 0.81654102 -0.190809 4278190080
0.61687416 0.81832218 -0.19176304 4278190080
0.61972666 0.81616408 -0.19176304 4278190080
0.62555373 0.81789434 -0.19271709 4278190080
0.62840462 0.81570596 -0.19271709 4278190080
0.63425726 0.81738496 -0.19367112 4278190080
0.64012915 0.81903303 -0.19462517 4278190080
0.64298397 0.81679374 -0.19462517 4278190080
0.64583135 0.8145442 -0.19462517 4278190080
0.64560771 0.8084498 -0.19367112 4278190080
0.64548999 0.80225384 -0.19271709 4278190080
0.64519608 0.79618275 -0.19176304 4278190080
0.64486814 0.79012316 -0.190809 4278190080
0.64762241 0.78786719 -0.190809 4278190080
0.65036839 0.78560197 -0.190809 4278190080
0.65624988 0.78709656 -0.19176304 4278190080
0.65913022 0.78468609 -0.19176304 4278190080
0.66503543 0.78612751 -0.19271709 4278190080
0.66777521 0.78380156 -0.19271709 4278190080
0.67370331 0.78519058 -0.19367112 4278190080
0.67643976 0.78283435 -0.19367112 4278190080
0.68239039 0.78417075 -0.19462517 4278190080
0.68512368 0.78178382 -0.19462517 4278190080
0.69109589 0.7830677 -0.19557922 4278190080
0.6938253 0.78065044 -0.19557922 4278190080
0.69981915 0.78188115 -0.19653326 4278190080
0.7058304 0.78307915 -0.19748731 4278190080
0.70855975 0.78061044 -0.19748731 4278190080
0.714728 0.7816304 -0.19844134 4278190080
0.72077698 0.78274119 -0.19939539 4278190080
0.7235046 0.78022069 -0.19939539 4278190080
0.72957367 0.78127748 -0.20034944 4278190080
0.73229617 0.77872628 -0.20034944 4278190080
0.73501009 0.77616519 -0.20034944 4278190080
0.74110234 0.77714658 -0.20130348 4278190080
0.74381036 0.77455521 -0.20130348 4278190080
0.74992162 0.77548218 -0.20225753 4278190080
0.75604796 0.77637625 -0.20321156 4278190080
0.76219004 0.77723658 -0.20416561 4278190080
0.76834732 0.77806348 -0.20511965 4278190080
0.77451921 0.77885717 -0.2060737 4278190080
0.78070641 0.77961683 -0.20702775 4278190080
0.78342277 0.77688718 -0.20702775 4278190080
0.78962719 0.77759153 -0.20798181 4278190080
0.79598153 0.77812326 -0.20893586 4278190080
0.80221468 0.77875859 -0.2098899 4278190080
0.80506343 0.77581316 -0.2098899 4278190080
0.81117719 0.77653325 -0.21084395 4278190080
0.81744033 0.77707845 -0.21179798 4278190080
0.82014757 0.77422059 -0.21179798 4278190080
0.82656103 0.77456558 -0.21275203 4278190080
0.83285296 0.77501905 -0.21370608 4278190080
1.1202102 0.81119502 -0.26140833 4278190080
1.1190498 0.80441481 -0.26045427 4278190080
1.1218506 0.80050403 -0.26045427 4278190080
1.1126226 0.78807223 -0.25759214 4278190080
1.119519 0.78681135 -0.2585462 4278190080
1.1222589 0.78289849 -0.2585462 4278190080
1.1290199 0.78177077 -0.25950024 4278190080
1.131742 0.7778247 -0.25950024 4278190080
1.138505 0.77663505 -0.26045427 4278190080
1.1412088 0.77265656 -0.26045427 4278190080
1.1479728 0.77140558 -0.26140833 4278190080
1.1547416 0.77011728 -0.26236236 4278190080
1.1615158 0.76879054 -0.26331642 4278190080
1.1682948 0.76742584 -0.26427045 4278190080
1.1750778 0.76602376 -0.26522449 4278190080
1.1818657 0.76458305 -0.26617855 4278190080
1.1845272 0.76045328 -0.26617855 4278190080
1.1913141 0.75895077 -0.26713258 4278190080
1.1939561 0.75478745 -0.26713258 4278190080
1.1965834 0.75061554 -0.26713258 4278190080
1.1993264 0.74622494 -0.26713258 4278190080
1.2061003 0.7446121 -0.26808664 4278190080
1.2128776 0.74296099 -0.26904067 4278190080
1.2238519 0.74382138 -0.27094877 4278190080
1.2306442 0.74207902 -0.2719028 4278190080
1.2416507 0.74281871 -0.27381089 4278190080
1.2484568 0.74098486 -0.27476496 4278190080
1.2594948 0.74160278 -0.27667302 4278190080
1.2663137 0.73967779 -0.27762708 4278190080
1.2773815 0.74017423 -0.27953517 4278190080
1.2884678 0.74060309 -0.28144327 4278190080
1.2953091 0.73853171 -0.28239733 4278190080
1.3064238 0.73883772 -0.28430539 4278190080
1.3175559 0.73907578 -0.28621349 4278190080
1.328835 0.73901224 -0.28812158 4278190080
1.3400018 0.73911071 -0.29002967 4278190080
1.3511857 0.73913944 -0.29193777 4278190080
1.3623856 0.73909974 -0.29384583 4278190080
1.3692797 0.73666471 -0.29479989 4278190080
1.3805038 0.7365008 -0.29670799 4278190080
1.3917429 0.73626822 -0.29861605 4278190080
1.4029975 0.73596531 -0.30052415 4278190080
1.4142665 0.7355935 -0.30243224 4278190080
1.4255501 0.73515117 -0.30434033 4278190080
1.4368479 0.73463905 -0.30624843 4278190080
1.448159 0.73405766 -0.30815652 4278190080
1.4594839 0.73340541 -0.31006461 4278190080
1.4708211 0.73268384 -0.31197271 4278190080
1.4821715 0.73189116 -0.3138808 4278190080
1.4935343 0.73102808 -0.31578889 4278190080
1.5049084 0.73009539 -0.31769696 4278190080
1.5162947 0.72909135 -0.31960505 4278190080
1.5276917 0.72801745 -0.32151315 4278190080
1.5390999 0.72687203 -0.32342124 4278190080
1.5549642 0.72773623 -0.32628337 4278190080
1.5663999 0.72643435 -0.32819146 4278190080
1.5823058 0.72711003 -0.33105361 4278190080
1.5938946 0.72537202 -0.33296171 4278190080
1.60984 0.72585577 -0.33582383 4278190080
1.6258078 0.72623783 -0.33868596 4278190080
1.641798 0.72651637 -0.34154809 4278190080
1.6578095 0.72669291 -0.34441024 4278190080
1.6693404 0.72481078 -0.3463183 4278190080
1.685387 0.72479606 -0.34918046 4278190080
1.6969378 0.72275561 -0.35108852 4278190080
1.7130173 0.72254992 -0.35395068 4278190080
1.7291157 0.7222417 -0.35681283 4278190080
1.7452329 0.72182888 -0.35967496 4278190080
1.7613683 0.72131222 -0.36253709 4278190080
1.7775205 0.72069257 -0.36539921 4278190080
1.7983713 0.7214821 -0.3692154 4278190080
1.8145633 0.72063553 -0.37207752 4278190080
1.8307714 0.71968371 -0.37493965 4278190080
1.8469945 0.71862841 -0.37780181 4278190080
1.8632329 0.71746761 -0.38066396 4278190080
1.8794854 0.71620208 -0.38352609 4278190080
1.9003437 0.71656448 -0.38734224 4278190080
1.916629 0.71507317 -0.39020437 4278190080
1.9375312 0.7151776 -0.39402059 4278190080
1.9538471 0.71346003 -0.39688268 4278190080
1.9747906 0.7133047 -0.40069887 4278190080
1.9912586 0.71101373 -0.40356103 4278190080
2.0076122 0.7089622 -0.40642312 4278190080
2.0192189 0.70553863 -0.40833122 4278190080
2.0357099 0.70293832 -0.41119337 4278190080
2.0520854 0.70058602 -0.4140555 4278190080
2.0731204 0.69969648 -0.41787171 4278190080
2.0941734 0.69866961 -0.4216879 4278190080
2.1152446 0.69750303 -0.42550406 4278190080
2.136333 0.69619787 -0.42932025 4278190080
2.1621091 0.69625944 -0.43409044 4278190080
2.1832347 0.69466013 -0.43790662 4278190080
2.2090576 0.69439483 -0.44267684 4278190080
2.234905 0.69395643 -0.44744709 4278190080
2.2607758 0.6933459 -0.45221731 4278190080
2.2866693 0.69256437 -0.45698753 4278190080
2.3078823 0.69020289 -0.46080372 4278190080
2.3385208 0.69048268 -0.46652797 4278190080
2.3504605 0.68465126 -0.46843606 4278190080
2.3811383 0.68458015 -0.47416034 4278190080
2.3976789 0.68028283 -0.4770225 4278190080
2.3290288 0.65246773 -0.46271181 4278190080
2.2462466 0.62040699 -0.445539 4278190080
2.1678946 0.59062904 -0.42932025 4278190080
2.1700447 0.58267969 -0.42932025 4278190080
2.1624763 0.5729661 -0.42741215 4278190080
2.1549654 0.56293386 -0.42550406 4278190080
2.1616702 0.55663162 -0.42645809 4278190080
2.1636002 0.5490821 -0.42645809 4278190080
2.1655035 0.54152709 -0.42645809 4278190080
2.1673808 0.53396434 -0.42645809 4278190080
2.1692312 0.52639616 -0.42645809 4278190080
2.1710556 0.51882046 -0.42645809 4278190080
2.1728535 0.51123846 -0.42645809 4278190080
2.1698432 0.50254399 -0.42550406 4278190080
2.1763697 0.49605697 -0.42645809 4278190080
2.1876662 0.49060574 -0.42836618 4278190080
2.1941586 0.48402321 -0.42932025 4278190080
2.2054279 0.47844189 -0.43122834 4278190080
2.2118845 0.47176507 -0.43218234 4278190080
2.2183216 0.4650479 -0.4331364 4278190080
2.2247384 0.45829263 -0.43409044 4278190080
2.2311354 0.45149708 -0.4350445 4278190080
2.2230699 0.44179237 -0.4331364 4278190080
2.2583966 0.44021505 -0.43981475 4278190080
2.4334652 0.46552837 -0.47416034 4278190080
2.4398992 0.45793733 -0.47511441 4278190080
2.4270017 0.44675156 -0.47225225 4278190080
2.4478667 0.44176453 -0.47606841 4278190080
2.4397275 0.43150702 -0.47416034 4278190080
2.4412191 0.42298764 -0.47416034 4278190080
2.4378417 0.41364336 -0.47320631 4278190080
2.439271 0.40513068 -0.47320631 4278190080
2.44067 0.39661434 -0.47320631 4278190080
2.4371922 0.3873215 -0.47225225 4278190080
2.4385295 0.37881124 -0.47225225 4278190080
2.4398367 0.37029767 -0.47225225 4278190080
2.4411147 0.36177826 -0.47225225 4278190080
2.437505 0.35255319 -0.47129822 4278190080
2.4387209 0.34404203 -0.47129822 4278190080
2.4399071 0.3355267 -0.47129822 4278190080
2.4361985 0.32635689 -0.47034416 4278190080
2.4373229 0.31785044 -0.47034416 4278190080
2.4335485 0.30872378 -0.46939012 4278190080
2.4346113 0.30022669 -0.46939012 4278190080
2.4307711 0.29114226 -0.46843606 4278190080
2.4317725 0.28265628 -0.46843606 4278190080
2.4327445 0.27416557 -0.46843606 4278190080
2.433733 0.26524764 -0.46843606 4278190080
2.4297631 0.25623548 -0.46748206 4278190080
2.4306426 0.24775323 -0.46748206 4278190080
2.4314928 0.23926668 -0.46748206 4278190080
2.432313 0.2307785 -0.46748206 4278190080
2.4330649 0.22271129 -0.46748206 4278190080
2.4338651 0.21379124 -0.46748206 4278190080
2.4297054 0.20488252 -0.46652797 4278190080
2.4304059 0.1963995 -0.46652797 4278190080
2.4310765 0.18791537 -0.46652797 4278190080
2.4317176 0.17942767 -0.46652797 4278190080
2.4322994 0.17136271 -0.46652797 4278190080
2.428014 0.16212012 -0.46557397 4278190080
2.428565 0.15364327 -0.46557397 4278190080
2.4290867 0.14516583 -0.46557397 4278190080
2.4295547 0.13710979 -0.46557397 4278190080
2.4300408 0.12820317 -0.46557397 4278190080
2.4304736 0.11972074 -0.46557397 4278190080
2.4308767 0.11123556 -0.46557397 4278190080
2.4312501 0.10275031 -0.46557397 4278190080
2.4266894 0.094072394 -0.4646199 4278190080
2.4270031 0.085600577 -0.4646199 4278190080
2.4272871 0.077129006 -0.4646199 4278190080
2.4275415 0.068655208 -0.4646199 4278190080
2.4277663 0.060181864 -0.4646199 4278190080
2.4279616 0.051706493 -0.4646199 4278190080
2.4281273 0.043230493 -0.4646199 4278190080
2.4282634 0.03475526 -0.4646199 4278190080
2.42837 0.026278311 -0.4646199 4278190080
2.4284468 0.017802333 -0.4646199 4278190080
2.4235861 0.0093059996 -0.46366581 4278190080
2.4236038 0.00084553263 -0.46366581 4278190080
2.4235919 -0.0076139639 -0.46366581 4278190080
2.4235506 -0.016073832 -0.46366581 4278190080
2.4234798 -0.024533503 -0.46366581 4278190080
2.428287 -0.033059694 -0.4646199 4278190080
2.4281569 -0.041535798 -0.4646199 4278190080
2.4279971 -0.050011389 -0.4646199 4278190080
2.4278078 -0.05848638 -0.4646199 4278190080
2.4226825 -0.066825323 -0.46366581 4278190080
2.4224212 -0.075704448 -0.46366581 4278190080
2.4221423 -0.084159814 -0.46366581 4278190080
2.4218338 -0.092614159 -0.46366581 4278190080
2.4214957 -0.10106737 -0.46366581 4278190080
2.421128 -0.10951935 -0.46366581 4278190080
2.4207311 -0.11797 -0.46366581 4278190080
2.4252062 -0.12667523 -0.4646199 4278190080
2.4247491 -0.13514 -0.4646199 4278190080
2.4242625 -0.14360315 -0.4646199 4278190080
2.4237731 -0.15164149 -0.4646199 4278190080
2.423229 -0.16010112 -0.4646199 4278190080
2.4177589 -0.16821812 -0.46366581 4278190080
2.4171572 -0.17665663 -0.46366581 4278190080
2.4164934 -0.18551478 -0.46366581 4278190080
2.4158311 -0.19394879 -0.46366581 4278190080
2.4151394 -0.20238043 -0.46366581 4278190080
2.4144182 -0.21080959 -0.46366581 4278190080
2.4136677 -0.21923621 -0.46366581 4278190080
2.4177742 -0.22812119 -0.4646199 4278190080
2.4169631 -0.23655942 -0.4646199 4278190080
2.4161227 -0.24499476 -0.4646199 4278190080
2.4152527 -0.25342709 -0.4646199 4278190080
2.4143534 -0.26185638 -0.4646199 4278190080
2.4183023 -0.27082869 -0.46557397 4278190080
2.4173424 -0.2792685 -0.46557397 4278190080
2.4163527 -0.28770489 -0.46557397 4278190080
2.4153337 -0.29613778 -0.46557397 4278190080
2.4142854 -0.30456707 -0.46557397 4278190080
2.4132075 -0.31299263 -0.46557397 4278190080
2.4121003 -0.32141441 -0.46557397 4278190080
2.4109635 -0.32983226 -0.46557397 4278190080
2.4097977 -0.33824608 -0.46557397 4278190080
2.4086022 -0.34665576 -0.46557397 4278190080
2.4073775 -0.35506126 -0.46557397 4278190080
2.4109764 -0.3641955 -0.46652797 4278190080
2.4096904 -0.37260914 -0.46652797 4278190080
2.408375 -0.38101825 -0.46652797 4278190080
2.4497893 -0.40380305 -0.38674822 4278190080
2.448365 -0.41235197 -0.38674822 4278190080
2.4469106 -0.42089584 -0.38674822 4278190080
2.4454265 -0.4294346 -0.38674822 4278190080
2.4487739 -0.43883926 -0.38752955 4278190080
2.4472272 -0.44738439 -0.38752955 4278190080
2.4456506 -0.45592412 -0.38752955 4278190080
2.4440441 -0.46445826 -0.38752955 4278190080
2.4424081 -0.47298673 -0.38752955 4278190080
2.4455872 -0.48246527 -0.38831082 4278190080
2.4438024 -0.49142554 -0.38831082 4278190080
2.4421594 -0.4995268 -0.38831082 4278190080
2.445236 -0.50905508 -0.38909215 4278190080
2.443444 -0.51758742 -0.38909215 4278190080
2.4416225 -0.52611345 -0.38909215 4278190080
2.4397712 -0.5346331 -0.38909215 4278190080
2.4427102 -0.54422021 -0.38987345 4278190080
2.4407957 -0.55274349 -0.38987345 4278190080
2.4388514 -0.5612601 -0.38987345 4278190080
2.4416864 -0.57089424 -0.39065477 4278190080
2.4396787 -0.57941383 -0.39065477 4278190080
2.4376414 -0.58792645 -0.39065477 4278190080
2.4355743 -0.59643179 -0.39065477 4278190080
2.4334774 -0.60492986 -0.39065477 4278190080
2.4360321 -0.61505389 -0.39143607 4278190080
2.4338703 -0.62355345 -0.39143607 4278190080
2.4364588 -0.63328785 -0.3922174 4278190080
2.4342334 -0.64178884 -0.3922174 4278190080
2.436749 -0.65155768 -0.3929987 4278190080
2.4344599 -0.66005951 -0.3929987 4278190080
2.4321411 -0.66855335 -0.3929987 4278190080
2.4297924 -0.67703903 -0.3929987 4278190080
2.4274144 -0.68551648 -0.3929987 4278190080
2.4297547 -0.69534439 -0.39378002 4278190080
2.432056 -0.70519686 -0.39456129 4278190080
2.4295795 -0.71368206 -0.39456129 4278190080
2.431807 -0.72356689 -0.39534262 4278190080
2.4292665 -0.73205113 -0.39534262 4278190080
2.4266963 -0.74052632 -0.39534262 4278190080
2.4240966 -0.74899262 -0.39534262 4278190080
2.4261806 -0.75892407 -0.39612392 4278190080
2.4235168 -0.76738834 -0.39612392 4278190080
2.4255264 -0.77735066 -0.39690524 4278190080
2.4227982 -0.78581256 -0.39690524 4278190080
2.4247324 -0.79580492 -0.39768654 4278190080
2.4219398 -0.80426401 -0.39768654 4278190080
2.4237993 -0.81428599 -0.39846787 4278190080
2.4209421 -0.82274169 -0.39846787 4278190080
2.4227257 -0.83279264 -0.39924917 4278190080
2.4198041 -0.84124452 -0.39924917 4278190080
2.4215119 -0.85132414 -0.40003049 4278190080
2.4185255 -0.85977155 -0.40003049 4278190080
2.4201572 -0.86987907 -0.40081182 4278190080
2.4171059 -0.87832165 -0.40081182 4278190080
2.4186609 -0.8884564 -0.40159309 4278190080
2.415545 -0.89689374 -0.40159309 4278190080
2.4170232 -0.90705526 -0.40237442 4278190080
2.4140022 -0.91506541 -0.40237442 4278190080
2.4154048 -0.9252528 -0.40315571 4278190080
2.4121604 -0.93367851 -0.40315571 4278190080
2.413486 -0.9438917 -0.40393704 4278190080
2.4101765 -0.9523105 -0.40393704 4278190080
2.4114242 -0.96254861 -0.40471834 4278190080
2.4080496 -0.97096014 -0.40471834 4278190080
2.4092195 -0.98122281 -0.40549967 4278190080
2.410347 -0.99150527 -0.40628096 4278190080
2.411257 -1.0022285 -0.40706229 4278190080
2.4122975 -1.0125506 -0.40784356 4278190080
2.4132955 -1.0228922 -0.40862489 4278190080
2.4142504 -1.0332531 -0.40940619 4278190080
2.410629 -1.0416741 -0.40940619 4278190080
2.4115047 -1.0520573 -0.41018751 4278190080
2.4080029 -1.0600483 -0.41018751 4278190080
2.4088008 -1.0704528 -0.41096881 4278190080
2.4095557 -1.0808759 -0.41175014 4278190080
2.4057679 -1.0892802 -0.41175014 4278190080
2.4064426 -1.0997239 -0.41253144 4278190080
2.4025893 -1.1081173 -0.41253144 4278190080
2.4031839 -1.1185812 -0.41331276 4278190080
2.4037347 -1.1290627 -0.41409403 4278190080
2.4042416 -1.1395617 -0.41487536 4278190080
2.4047043 -1.1500778 -0.41565666 4278190080
2.405123 -1.1606112 -0.41643798 4278190080
2.4054973 -1.1711613 -0.41721928 4278190080
2.4058273 -1.1817282 -0.41800061 4278190080
2.4016876 -1.190119 -0.41800061 4278190080
2.4019361 -1.2007033 -0.41878191 4278190080
2.3977301 -1.2090803 -0.41878191 4278190080
2.3934951 -1.2174426 -0.41878191 4278190080
2.393625 -1.2280445 -0.41956323 4278190080
2.3937099 -1.238662 -0.42034456 4278190080
2.3937497 -1.249295 -0.42112583 4278190080
2.3937445 -1.2599434 -0.42190716 4278190080
2.3980563 -1.2729224 -0.42346978 4278190080
2.3979521 -1.2836161 -0.42425108 4278190080
2.3978028 -1.2943246 -0.42503241 4278190080
2.3932703 -1.3026866 -0.42503241 4278190080
2.3930376 -1.3134089 -0.4258137 4278190080
2.3884385 -1.3217541 -0.4258137 4278190080
2.3881228 -1.3324896 -0.42659503 4278190080
2.3877611 -1.3432389 -0.4273763 4278190080
2.3916495 -1.3564383 -0.42893893 4278190080
2.3911872 -1.3672298 -0.42972025 4278190080
2.3906789 -1.3780346 -0.43050155 4278190080
2.3901241 -1.3888525 -0.43128288 4278190080
2.3855054 -1.3967708 -0.43128288 4278190080
2.3848681 -1.4075993 -0.43206418 4278190080
2.3841844 -1.4184407 -0.4328455 4278190080
2.3834538 -1.4292942 -0.43362677 4278190080
2.3826768 -1.44016 -0.4344081 4278190080
