# .PCD v0.7 - Point Cloud Data file format
VERSION 0.7
FIELDS x y z rgb
SIZE 4 4 4 4
TYPE F F F U
COUNT 1 1 1 1
WIDTH 1096
HEIGHT 1
VIEWPOINT 0 0 0 1 0 0 0
POINTS 1096
DATA ascii
-5.1894236 -2.1739757 1.4962928 4278190080
-5.2371316 -2.1725042 1.5079321 4278190080
-5.2848921 -2.1707258 1.5195714 4278190080
-5.3327036 -2.1686401 1.5312107 4278190080
-5.3850451 -2.1680493 1.5441432 4278190080
-5.4374466 -2.1671209 1.5570757 4278190080
-5.4899063 -2.1658525 1.5700082 4278190080
-5.5379238 -2.1624877 1.5816474 4278190080
-5.5904899 -2.1605549 1.5945801 4278190080
-5.6431098 -2.1582794 1.6075125 4278190080
-5.6957808 -2.1556644 1.620445 4278190080
-5.7485018 -2.1527081 1.6333777 4278190080
-5.8239155 -2.1577995 1.6527764 4278190080
-5.8355742 -2.1401374 1.6540697 4278190080
-5.8248477 -2.1131661 1.6488966 4278190080
-5.827642 -2.0911899 1.6476034 4278190080
-5.8303547 -2.0692182 1.6463101 4278190080
-5.8329849 -2.0472546 1.6450168 4278190080
-5.8355327 -2.0252979 1.6437236 4278190080
-5.8330808 -2.0027983 1.641137 4278190080
-5.8446097 -1.9839777 1.6424303 4278190080
-5.8419991 -1.9615103 1.6398438 4278190080
-5.9221549 -1.9654479 1.6605359 4278190080
-5.9981618 -1.9662961 1.6799346 4278190080
-6.055531 -1.9617203 1.6941603 4278190080
-6.0672803 -1.9409851 1.6954536 4278190080
-6.0602036 -1.9154265 1.691574 4278190080
-6.0576315 -1.891382 1.6889874 4278190080
-6.0595813 -1.8688023 1.6876941 4278190080
-6.0611258 -1.8472896 1.6864009 4278190080
-6.062912 -1.8247293 1.6851077 4278190080
-6.0599847 -1.8008034 1.6825211 4278190080
-6.0615993 -1.7782799 1.6812279 4278190080
-6.063437 -1.7547077 1.6799346 4278190080
-6.0602365 -1.7308791 1.6773481 4278190080
-6.0612946 -1.7094619 1.676055 4278190080
-6.0625715 -1.6869992 1.6747617 4278190080
-6.0637655 -1.6645483 1.6734684 4278190080
-6.0648775 -1.6421081 1.672175 4278190080
-6.0659065 -1.6196822 1.6708819 4278190080
-6.0668521 -1.5972689 1.6695887 4278190080
-6.067441 -1.5759273 1.6682954 4278190080
-6.0635471 -1.552343 1.6657089 4278190080
-6.0642457 -1.5299865 1.6644156 4278190080
-6.0648618 -1.5076442 1.6631224 4278190080
-6.0653968 -1.4853145 1.6618291 4278190080
-6.0658493 -1.4630013 1.6605359 4278190080
-6.0662198 -1.4407029 1.6592426 4278190080
-6.0665088 -1.4184197 1.6579493 4278190080
-6.0667162 -1.3961521 1.656656 4278190080
-6.0668421 -1.3738987 1.6553628 4278190080
-6.0716009 -1.3527135 1.6553628 4278190080
-6.0668502 -1.3294441 1.6527764 4278190080
-6.0667319 -1.3072417 1.6514831 4278190080
-6.0476332 -1.2810527 1.6450168 4278190080
-5.9243994 -1.233355 1.6100991 4278190080
-5.9144731 -1.2097642 1.6062193 4278190080
-5.9186597 -1.1891118 1.6062193 4278190080
-5.9369898 -1.1712494 1.6100991 4278190080
-5.9220753 -1.1468455 1.604926 4278190080
-5.9165525 -1.1243619 1.6023395 4278190080
-5.9155006 -1.1038511 1.6010463 4278190080
-5.9098158 -1.0814553 1.5984597 4278190080
-5.9088006 -1.0599672 1.5971664 4278190080
-5.9124646 -1.0393355 1.5971664 4278190080
-5.9112968 -1.0178715 1.5958734 4278190080
-5.9100513 -0.99642837 1.5945801 4278190080
-5.9087281 -0.97500479 1.5932868 4278190080
-5.9073272 -0.9536041 1.5919935 4278190080
-5.9106197 -0.93297821 1.5919935 4278190080
-5.9090676 -0.91160458 1.5907003 4278190080
-5.9122138 -0.89097285 1.5907003 4278190080
-5.9105091 -0.86962557 1.589407 4278190080
-5.9087276 -0.84830266 1.5881138 4278190080
-5.911653 -0.82767254 1.5881138 4278190080
-5.9097204 -0.80637926 1.5868205 4278190080
-5.907711 -0.78510964 1.5855272 4278190080
-5.9104161 -0.76448184 1.5855272 4278190080
-5.9082565 -0.74324352 1.584234 4278190080
-5.9108152 -0.7226156 1.584234 4278190080
-5.908505 -0.70140958 1.5829407 4278190080
-5.9109173 -0.68078107 1.5829407 4278190080
-5.9084578 -0.65960681 1.5816474 4278190080
-5.9059224 -0.63845962 1.5803542 4278190080
-5.9081149 -0.61784053 1.5803542 4278190080
-5.9102354 -0.59721392 1.5803542 4278190080
-5.9074774 -0.57611126 1.579061 4278190080
-5.9093556 -0.55651796 1.579061 4278190080
-5.911262 -0.53588581 1.579061 4278190080
-5.9082851 -0.5148294 1.5777677 4278190080
-5.9052329 -0.49380034 1.5764744 4278190080
-5.9070029 -0.47215414 1.5764744 4278190080
-5.9086151 -0.45153072 1.5764744 4278190080
-5.9053383 -0.43055215 1.5751811 4278190080
-5.906805 -0.40993637 1.5751811 4278190080
-5.9082003 -0.38931561 1.5751811 4278190080
-5.9047027 -0.36838934 1.5738881 4278190080
-5.9058919 -0.34880638 1.5738881 4278190080
-5.9022512 -0.32791963 1.5725948 4278190080
-5.9033599 -0.30731526 1.5725948 4278190080
-5.9043965 -0.28670713 1.5725948 4278190080
-5.9005365 -0.26587808 1.5713015 4278190080
-5.9014287 -0.24528007 1.5713015 4278190080
-5.9022489 -0.22467749 1.5713015 4278190080
-5.902997 -0.20407374 1.5713015 4278190080
-5.8988457 -0.18331748 1.5700082 4278190080
-5.8994498 -0.16272585 1.5700082 4278190080
-5.899982 -0.14213225 1.5700082 4278190080
-5.9004421 -0.12153535 1.5700082 4278190080
-5.8960013 -0.10085594 1.568715 4278190080
-5.8963175 -0.080274753 1.568715 4278190080
-5.8965621 -0.059692591 1.568715 4278190080
-5.8967342 -0.039109699 1.568715 4278190080
-5.8968349 -0.01852476 1.568715 4278190080
-5.8968639 0.0020588336 1.568715 4278190080
-5.8919907 0.022623857 1.5674217 4278190080
-5.8918757 0.043190289 1.5674217 4278190080
-5.8916893 0.063756198 1.5674217 4278190080
-5.8914309 0.0843229 1.5674217 4278190080
-5.8911004 0.104887 1.5674217 4278190080
-5.8906984 0.12544982 1.5674217 4278190080
-5.8950534 0.14613082 1.568715 4278190080
-5.8945069 0.16670719 1.568715 4278190080
-5.8938894 0.1872831 1.568715 4278190080
-5.898026 0.20802538 1.5700082 4278190080
-5.897264 0.22861175 1.5700082 4278190080
-5.8916049 0.24899143 1.568715 4278190080
-5.8906999 0.26955512 1.568715 4278190080
-5.880075 0.28964186 1.5661285 4278190080
-5.8838511 0.31041956 1.5674217 4278190080
-5.8779097 0.33068451 1.5661285 4278190080
-5.9587426 0.35505861 1.5881138 4278190080
-6.0297709 0.38041767 1.6075125 4278190080
-6.0380449 0.40210474 1.6100991 4278190080
-6.0317864 0.42284092 1.6088058 4278190080
-6.0399075 0.44460365 1.6113923 4278190080
-6.0335031 0.46531245 1.6100991 4278190080
-6.0318422 0.48637015 1.6100991 4278190080
-6.0301075 0.50742191 1.6100991 4278190080
-6.0282998 0.52846754 1.6100991 4278190080
-6.0264182 0.54950827 1.6100991 4278190080
-6.0244632 0.57054073 1.6100991 4278190080
-6.0320482 0.59251052 1.6126854 4278190080
-6.0347486 0.61405128 1.6139787 4278190080
-5.9268956 0.62398714 1.5855272 4278190080
-5.8142467 0.63265675 1.5557824 4278190080
-5.8264017 0.65456575 1.5596621 4278190080
-5.8288789 0.67545533 1.5609554 4278190080
-5.8264856 0.6957975 1.5609554 4278190080
-5.8288155 0.71672064 1.5622487 4278190080
-5.8262777 0.73706388 1.5622487 4278190080
-5.8284593 0.75801951 1.563542 4278190080
-5.830565 0.77899927 1.5648352 4278190080
-5.8325953 0.80000305 1.5661285 4278190080
-5.8345499 0.82103044 1.5674217 4278190080
-5.8316483 0.84139305 1.5674217 4278190080
-5.8334541 0.8624503 1.568715 4278190080
-5.8399587 0.88425338 1.5713015 4278190080
-5.8129721 0.90093428 1.5648352 4278190080
-5.7096162 0.90533537 1.5376768 4278190080
-5.6063018 0.90902758 1.5105186 4278190080
-5.6316838 0.93332946 1.5182781 4278190080
-5.6331539 0.95378804 1.5195714 4278190080
-5.625031 0.97262239 1.5182781 4278190080
-5.6358705 0.99476975 1.5221578 4278190080
-5.5895829 1.0067326 1.5105186 4278190080
-5.571784 1.0236193 1.5066389 4278190080
-4.9177999 0.92122966 1.3294632 4278190080
-4.8970261 0.95277196 1.3255836 4278190080
-4.8984079 0.97079998 1.3268769 4278190080
-4.1742558 0.87204766 1.1315957 4278190080
-4.0672512 0.86452097 1.1031442 4278190080
-4.0122805 0.86748552 1.0889184 4278190080
-3.9384699 0.86592835 1.0695195 4278190080
-3.8645694 0.86454189 1.0501208 4278190080
-3.7955933 0.86303413 1.0320153 4278190080
-3.726675 0.86105549 1.0139097 4278190080
-3.667222 0.86081493 0.99839073 4278190080
-3.6078169 0.86016893 0.98287171 4278190080
-3.5484617 0.85911888 0.96735269 4278190080
-3.4891582 0.85766506 0.95183361 4278190080
-3.4345953 0.85697722 0.93760788 4278190080
-3.38008 0.8559199 0.9233821 4278190080
-3.3256147 0.85449165 0.90915632 4278190080
-3.2758749 0.85391212 0.89622378 4278190080
-3.2215109 0.85176128 0.881998 4278190080
-3.1718676 0.85049236 0.86906546 4278190080
-3.1222725 0.84888828 0.85613298 4278190080
-3.0773845 0.84823096 0.84449369 4278190080
-3.0278878 0.84597117 0.83156121 4278190080
-2.9830921 0.84469217 0.81992191 4278190080
-2.9383428 0.84311098 0.80828267 4278190080
-2.898279 0.8425768 0.79793668 4278190080
-2.8536222 0.84040809 0.78629738 4278190080
-2.8136449 0.83931869 0.77595133 4278190080
-2.7783337 0.83935738 0.76689857 4278190080
-2.7384384 0.83774698 0.75655258 4278190080
-2.7032018 0.8372981 0.74749976 4278190080
-2.6680026 0.83661294 0.73844707 4278190080
-2.6328413 0.83569229 0.72939426 4278190080
-2.602318 0.83601379 0.72163475 4278190080
-2.5672314 0.83463919 0.71258193 4278190080
-2.5367744 0.83453995 0.70482248 4278190080
-2.50635 0.83423769 0.69706297 4278190080
-2.4759588 0.83373332 0.68930346 4278190080
-2.4456022 0.83302706 0.68154395 4278190080
-2.4152808 0.83211917 0.67378443 4278190080
-2.3804348 0.82942128 0.66473162 4278190080
-2.350193 0.82809484 0.65697211 4278190080
-2.3199899 0.82656753 0.64921266 4278190080
-2.2989144 0.82811326 0.64403963 4278190080
-2.2733183 0.8278693 0.63757336 4278190080
-2.2477522 0.82745749 0.63110709 4278190080
-2.21769 0.82519233 0.62334752 4278190080
-2.1921926 0.82442772 0.61688131 4278190080
-2.1667275 0.82349521 0.61041504 4278190080
-2.1412961 0.82239515 0.60394883 4278190080
-2.1204016 0.82287562 0.5987758 4278190080
-2.0995297 0.82321966 0.59360272 4278190080
-2.0786819 0.82342815 0.58842975 4278190080
-2.0578587 0.82350129 0.58325672 4278190080
-2.0370603 0.82343912 0.57808375 4278190080
-2.0118158 0.82141674 0.57161748 4278190080
-1.991076 0.821069 0.56644452 4278190080
-1.970363 0.8205865 0.56127143 4278190080
-1.9496782 0.81996959 0.55609846 4278190080
-1.9290218 0.81921834 0.55092543 4278190080
-1.9128336 0.82023698 0.54704571 4278190080
-1.8922297 0.81923318 0.54187268 4278190080
-1.8760817 0.82002991 0.53799289 4278190080
-1.8555328 0.81877422 0.53281993 4278190080
-1.8394275 0.81935042 0.52894014 4278190080
-1.8189359 0.81784403 0.52376711 4278190080
-1.8028758 0.81820029 0.51988739 4278190080
-1.7824442 0.81644303 0.51471442 4278190080
-1.7664312 0.81657988 0.51083463 4278190080
-1.7504392 0.81661493 0.50695485 4278190080
-1.7344683 0.81654888 0.50307512 4278190080
-1.7185197 0.81638086 0.49919537 4278190080
-1.7025934 0.81611156 0.49531561 4278190080
-1.6866903 0.81574106 0.49143586 4278190080
-1.6708106 0.81526959 0.4875561 4278190080
-1.6549547 0.81469768 0.48367634 4278190080
-1.6391233 0.81402463 0.47979656 4278190080
-1.6233171 0.81325114 0.4759168 4278190080
-1.6118472 0.81455564 0.47333032 4278190080
-1.596085 0.81359661 0.46945056 4278190080
-1.5846443 0.81474644 0.46686405 4278190080
-1.5732155 0.81582594 0.46427754 4278190080
-1.5617985 0.81683564 0.46169105 4278190080
-1.5461217 0.81552231 0.4578113 4278190080
-1.5347375 0.81637782 0.45522478 4278190080
-1.5191097 0.81488109 0.45134503 4278190080
-1.5035115 0.81328493 0.4474653 4278190080
-1.4879431 0.81158984 0.44358552 4278190080
-1.472405 0.80979609 0.43970576 4278190080
-1.4568977 0.80790383 0.435826 4278190080
-1.4456372 0.80827069 0.43323949 4278190080
-1.4301848 0.80619675 0.42935973 4278190080
-1.4189638 0.80641127 0.42677325 4278190080
-1.4077587 0.8065573 0.42418674 4278190080
-1.3965701 0.80663496 0.42160022 4278190080
-1.3895719 0.80907506 0.42030698 4278190080
-1.3784084 0.80903095 0.41772047 4278190080
-1.3672624 0.80891889 0.41513398 4278190080
-1.3561339 0.80873883 0.41254744 4278190080
-1.340884 0.8060028 0.40866768 4278190080
-1.3298005 0.8056733 0.4060812 4278190080
-1.3228581 0.80779308 0.40478793 4278190080
-1.3118038 0.80734271 0.40220144 4278190080
-1.3006278 0.80705237 0.39961493 4278190080
-1.2896128 0.80646569 0.39702845 4278190080
-1.2786176 0.805812 0.39444193 4278190080
-1.267643 0.80509144 0.39185542 4278190080
-1.256689 0.80430418 0.38926893 4278190080
-1.2457558 0.80345064 0.38668242 4278190080
-1.2348442 0.80253029 0.38409594 4278190080
-1.2239543 0.80154365 0.38150942 4278190080
-1.2171177 0.80315089 0.38021615 4278190080
-1.2062628 0.80204606 0.37762964 4278190080
-1.1954305 0.8008756 0.37504312 4278190080
-1.1886245 0.80234128 0.37374988 4278190080
-1.1778291 0.80105305 0.37116337 4278190080
-1.1670574 0.79969931 0.36857688 4278190080
-1.1602842 0.8010242 0.36728364 4278190080
-1.1535158 0.80231184 0.36599037 4278190080
-1.1427974 0.80079007 0.36340389 4278190080
-1.1360494 0.80198878 0.36211061 4278190080
-1.1253712 0.80035096 0.35952413 4278190080
-1.1186445 0.8014614 0.35823086 4278190080
-1.1080072 0.79970831 0.35564438 4278190080
-1.1013025 0.80073076 0.35435113 4278190080
-1.0907078 0.79886228 0.35176462 4278190080
-1.0840261 0.79979712 0.35047138 4278190080
-1.0773512 0.80069512 0.34917811 4278190080
-1.0668167 0.79866201 0.34659159 4278190080
-1.0601661 0.79947293 0.34529832 4278190080
-1.0496768 0.79732573 0.34271184 4278190080
-1.0430514 0.79804999 0.34141856 4278190080
-1.0326082 0.79578954 0.33883208 4278190080
-1.0260085 0.79642779 0.33753884 4278190080
-1.0194173 0.79702944 0.33624557 4278190080
-1.00904 0.79460669 0.33365908 4278190080
-1.0024761 0.79512262 0.33236581 4278190080
-0.99592096 0.79560244 0.33107257 4278190080
-0.98937452 0.7960465 0.32977933 4278190080
-0.98269844 0.79662579 0.32848606 4278190080
-0.97617048 0.79699653 0.32719281 4278190080
-0.96965194 0.79733151 0.32589957 4278190080
-0.96314281 0.79763097 0.32460633 4278190080
-0.95664364 0.79789448 0.32331306 4278190080
-0.95015442 0.79812235 0.32201982 4278190080
-0.94367534 0.79831475 0.32072657 4278190080
-0.93720651 0.79847163 0.3194333 4278190080
-0.92708242 0.7954483 0.31684682 4278190080
-0.92430019 0.79867953 0.31684682 4278190080
-0.95794141 0.83360672 0.32977933 4278190080
-0.93323147 0.81784582 0.32201982 4278190080
-0.7706852 0.83928919 0.29486153 4278190080
-0.75798804 0.83126754 0.29098177 4278190080
-0.75508177 0.83390832 0.29098177 4278190080
-0.72633195 0.80780655 0.28063571 4278190080
-0.72672439 0.81394005 0.28192899 4278190080
-0.7142663 0.80562973 0.27804923 4278190080
-0.7114498 0.80811799 0.27804923 4278190080
-0.70544583 0.80696023 0.27675596 4278190080
-0.69945866 0.8057704 0.27546272 4278190080
-0.69664156 0.80820715 0.27546272 4278190080
-0.69381618 0.81063396 0.27546272 4278190080
-0.68785459 0.80937052 0.27416947 4278190080
-0.68502522 0.81176662 0.27416947 4278190080
-0.67908549 0.81045079 0.2728762 4278190080
-0.67611039 0.8129344 0.2728762 4278190080
-0.67019325 0.81156534 0.27158296 4278190080
-0.66429394 0.81016493 0.27028972 4278190080
-0.65841234 0.8087334 0.26899645 4278190080
-0.65558541 0.81102669 0.26899645 4278190080
-0.64972728 0.80954343 0.26770321 4278190080
-0.64689755 0.81180644 0.26770321 4278190080
-0.64106315 0.8102718 0.26640996 4278190080
-0.63524723 0.80870658 0.26511672 4278190080
-0.63242048 0.81091905 0.26511672 4278190080
-0.62958604 0.81312162 0.26511672 4278190080
-0.62380034 0.81148511 0.26382345 4278190080
-0.61789232 0.80992609 0.26253021 4278190080
-0.6150614 0.81207794 0.26253021 4278190080
-0.6093204 0.8103596 0.26123697 4278190080
-0.60359889 0.80861115 0.25994369 4278190080
-0.59789687 0.80683279 0.25865045 4278190080
-0.59507686 0.8089149 0.25865045 4278190080
-0.58940119 0.80708665 0.25735721 4278190080
-0.5865804 0.80913907 0.25735721 4278190080
-0.58093125 0.80726135 0.25606394 4278190080
-0.57810968 0.80928439 0.25606394 4278190080
-0.57248753 0.80735755 0.2547707 4278190080
-0.56688595 0.80540133 0.25347742 4278190080
-0.56130505 0.80341595 0.25218418 4278190080
-0.55849719 0.80537033 0.25218418 4278190080
-0.55294394 0.80333656 0.25089094 4278190080
-0.55013645 0.80526179 0.25089094 4278190080
-0.54461163 0.80317968 0.24959768 4278190080
-0.54180473 0.80507576 0.24959768 4278190080
-0.53630865 0.80294573 0.24830443 4278190080
-0.5335024 0.80481303 0.24830443 4278190080
-0.52803534 0.80263543 0.24701117 4278190080
-0.52523047 0.8044737 0.24701117 4278190080
-0.52227831 0.80639338 0.24701117 4278190080
-0.51684892 0.80414855 0.24571793 4278190080
-0.5140388 0.80594778 0.24571793 4278190080
-0.51122242 0.80773717 0.24571793 4278190080
-0.50583112 0.8054266 0.24442467 4278190080
-0.50301641 0.80718744 0.24442467 4278190080
-0.49765566 0.80483043 0.24313143 4278190080
-0.49231753 0.80244583 0.24183817 4278190080
-0.48951352 0.8041594 0.24183817 4278190080
-0.48420659 0.8017289 0.24054492 4278190080
-0.48140493 0.80341429 0.24054492 4278190080
-0.47859758 0.80508977 0.24054492 4278190080
-0.47333089 0.8025952 0.23925166 4278190080
-0.47052646 0.80424249 0.23925166 4278190080
-0.46771631 0.80588001 0.23925166 4278190080
-0.46249044 0.80332214 0.2379584 4278190080
-0.45954311 0.80501175 0.2379584 4278190080
-0.45435056 0.8024081 0.23666516 4278190080
-0.45154691 0.80398917 0.23666516 4278190080
-0.44873753 0.80556053 0.23666516 4278190080
-0.44592291 0.80712199 0.23666516 4278190080
-0.44310287 0.80867362 0.23666516 4278190080
-0.4402774 0.81021535 0.23666516 4278190080
-0.43515533 0.80749547 0.2353719 4278190080
-0.4323338 0.80900967 0.2353719 4278190080
-0.42950726 0.81051379 0.2353719 4278190080
-0.42442885 0.80773258 0.23407865 4278190080
-0.42160678 0.80920917 0.23407865 4278190080
-0.41656289 0.8063848 0.2327854 4278190080
-0.41374537 0.80783403 0.2327854 4278190080
-0.40873632 0.80496687 0.23149215 4278190080
-0.40375239 0.80207461 0.2301989 4278190080
-0.40095019 0.80347902 0.2301989 4278190080
-0.39600167 0.80054456 0.22890565 4278190080
-0.39306477 0.80199063 0.22890565 4278190080
-0.39026293 0.80335778 0.22890565 4278190080
-0.38745636 0.80471516 0.22890565 4278190080
-0.38256478 0.80170381 0.22761239 4278190080
-0.37976402 0.80303431 0.22761239 4278190080
-0.37490904 0.79998159 0.22631915 4278190080
-0.37211436 0.80128539 0.22631915 4278190080
-0.36729613 0.79819179 0.22502589 4278190080
-0.3645075 0.79946911 0.22502589 4278190080
-0.35972634 0.79633504 0.22373265 4278190080
-0.35694447 0.79758584 0.22373265 4278190080
-0.35415822 0.79882693 0.22373265 4278190080
-0.35136768 0.80005825 0.22373265 4278190080
-0.34857267 0.80127996 0.22373265 4278190080
-0.34386235 0.79805613 0.22243938 4278190080
-0.34107459 0.79925156 0.22243938 4278190080
-0.33640245 0.79598838 0.22114612 4278190080
-0.33362192 0.79715776 0.22114612 4278190080
-0.33083713 0.79831755 0.22114612 4278190080
-0.3280485 0.7994675 0.22114612 4278190080
-0.32511622 0.80066448 0.22114612 4278190080
-0.32231924 0.80179453 0.22114612 4278190080
-0.31951854 0.80291474 0.22114612 4278190080
-0.31671393 0.80402511 0.22114612 4278190080
-0.31201115 0.80068034 0.21985288 4278190080
-0.30921438 0.80176461 0.21985288 4278190080
-0.30469167 0.79832667 0.21855962 4278190080
-0.30190316 0.79938537 0.21855962 4278190080
-0.29742032 0.79591006 0.21726637 4278190080
-0.29464009 0.79694343 0.21726637 4278190080
-0.29019746 0.7934311 0.21597312 4278190080
-0.28742614 0.7944392 0.21597312 4278190080
-0.28465134 0.79543763 0.21597312 4278190080
-0.28026161 0.79187334 0.21467987 4278190080
-0.27749556 0.79284686 0.21467987 4278190080
-0.27472636 0.79381067 0.21467987 4278190080
-0.27195382 0.79476476 0.21467987 4278190080
-0.26917797 0.79570919 0.21467987 4278190080
-0.26639882 0.79664397 0.21467987 4278190080
-0.26361623 0.79756904 0.21467987 4278190080
-0.2593309 0.79389328 0.21338663 4278190080
-0.25655815 0.79479367 0.21338663 4278190080
-0.25364327 0.79572868 0.21338663 4278190080
-0.25086418 0.79660916 0.21338663 4278190080
-0.248082 0.79747999 0.21338663 4278190080
-0.24387825 0.79372424 0.21209337 4278190080
-0.24110618 0.79457068 0.21209337 4278190080
-0.23694469 0.7907809 0.21080011 4278190080
-0.23418294 0.79160321 0.21080011 4278190080
-0.23141836 0.7924158 0.21080011 4278190080
-0.22998871 0.79785967 0.21209337 4278190080
-0.2272023 0.7986576 0.21209337 4278190080
-0.2244129 0.79944587 0.21209337 4278190080
-0.22033189 0.79556966 0.21080011 4278190080
-0.21741463 0.79637188 0.21080011 4278190080
-0.21463349 0.79712588 0.21080011 4278190080
-0.21061005 0.79320222 0.20950687 4278190080
-0.20784003 0.7939325 0.20950687 4278190080
-0.20506746 0.79465318 0.20950687 4278190080
-0.2022924 0.79536414 0.20950687 4278190080
-0.19820243 0.7914151 0.20821361 4278190080
-0.1954385 0.79210216 0.20821361 4278190080
-0.19267261 0.79277951 0.20821361 4278190080
-0.18990394 0.79344726 0.20821361 4278190080
-0.1871334 0.79410523 0.20821361 4278190080
-0.18326873 0.79004872 0.20692036 4278190080
-0.18050966 0.79068363 0.20692036 4278190080
-0.17774881 0.79130888 0.20692036 4278190080
-0.17498538 0.79192454 0.20692036 4278190080
-0.17222023 0.79253048 0.20692036 4278190080
-0.16945256 0.79312688 0.20692036 4278190080
-0.16668282 0.79371357 0.20692036 4278190080
-0.16391149 0.79429048 0.20692036 4278190080
-0.16113773 0.79485786 0.20692036 4278190080
-0.15822347 0.79544312 0.20692036 4278190080
-0.15544572 0.79599059 0.20692036 4278190080
-0.15266651 0.79652828 0.20692036 4278190080
-0.149885 0.79705638 0.20692036 4278190080
-0.14622606 0.79282492 0.2056271 4278190080
-0.14345753 0.79333055 0.2056271 4278190080
-0.14068724 0.79382652 0.2056271 4278190080
-0.13708943 0.78955406 0.20433384 4278190080
-0.13433237 0.7900278 0.20433384 4278190080
-0.13157409 0.79049188 0.20433384 4278190080
-0.12881379 0.79094636 0.20433384 4278190080
-0.12605192 0.79139119 0.20433384 4278190080
-0.12328894 0.79182637 0.20433384 4278190080
-0.12052403 0.79225188 0.20433384 4278190080
-0.11761959 0.79268831 0.20433384 4278190080
-0.11485171 0.7930941 0.20433384 4278190080
-0.11208284 0.79349011 0.20433384 4278190080
-0.10931219 0.79387653 0.20433384 4278190080
-0.10654064 0.79425323 0.20433384 4278190080
-0.10314195 0.78983116 0.2030406 4278190080
-0.1002465 0.79020387 0.2030406 4278190080
-0.09748739 0.79054898 0.2030406 4278190080
-0.094727099 0.79088449 0.2030406 4278190080
-0.091408432 0.78641278 0.20174734 4278190080
-0.088662609 0.78672707 0.20174734 4278190080
-0.085916132 0.78703171 0.20174734 4278190080
-0.083168186 0.78732687 0.20174734 4278190080
-0.080419235 0.78761238 0.20174734 4278190080
-0.07766971 0.78788829 0.20174734 4278190080
-0.074918829 0.7881546 0.20174734 4278190080
-0.072167449 0.78841132 0.20174734 4278190080
-0.069414772 0.78865844 0.20174734 4278190080
-0.06652385 0.78890753 0.20174734 4278190080
-0.063769475 0.78913492 0.20174734 4278190080
-0.061014742 0.78935272 0.20174734 4278190080
-0.058258846 0.78956091 0.20174734 4278190080
-0.055840835 0.79457742 0.2030406 4278190080
-0.053067159 0.7947675 0.2030406 4278190080
-0.049849417 0.7901364 0.20174734 4278190080
-0.047091275 0.79030561 0.20174734 4278190080
-0.044332139 0.79046518 0.20174734 4278190080
-0.041572884 0.79061508 0.20174734 4278190080
-0.038812701 0.79075539 0.20174734 4278190080
-0.036052044 0.79088604 0.20174734 4278190080
-0.033153176 0.79101288 0.20174734 4278190080
-0.030392079 0.79112381 0.20174734 4278190080
-0.027599014 0.78639334 0.2004541 4278190080
-0.024853654 0.7864849 0.2004541 4278190080
-0.02210799 0.78656685 0.2004541 4278190080
-0.019362476 0.78663921 0.2004541 4278190080
-0.016616307 0.78670204 0.2004541 4278190080
-0.013870355 0.7867552 0.2004541 4278190080
-0.011123815 0.78679883 0.2004541 4278190080
-0.0084285568 0.79166245 0.20174734 4278190080
-0.0056653414 0.79168707 0.20174734 4278190080
-0.0029016344 0.79170203 0.20174734 4278190080
-0.00013831393 0.79170734 0.20174734 4278190080
0.0026254298 0.79170299 0.20174734 4278190080
0.0055270307 0.79168802 0.20174734 4278190080
0.0082400953 0.78683436 0.2004541 4278190080
0.010986358 0.7868008 0.2004541 4278190080
0.013732905 0.78675765 0.2004541 4278190080
0.016479287 0.7867049 0.2004541 4278190080
0.019225048 0.78664261 0.2004541 4278190080
0.021970993 0.78657067 0.2004541 4278190080
0.024716252 0.78648919 0.2004541 4278190080
0.027461627 0.78639817 0.2004541 4278190080
0.030206671 0.7862975 0.2004541 4278190080
0.032950927 0.78618729 0.2004541 4278190080
0.035695199 0.78606743 0.2004541 4278190080
0.038575921 0.78593135 0.2004541 4278190080
0.041319266 0.78579187 0.2004541 4278190080
0.044061691 0.78564286 0.2004541 4278190080
0.046803996 0.78548431 0.2004541 4278190080
0.04954531 0.78531617 0.2004541 4278190080
0.052286439 0.78513843 0.2004541 4278190080
0.055364687 0.78976911 0.20174734 4278190080
0.058120906 0.78957105 0.20174734 4278190080
0.061014742 0.78935272 0.20174734 4278190080
0.063769475 0.78913492 0.20174734 4278190080
0.06652385 0.78890753 0.20174734 4278190080
0.069276989 0.78867054 0.20174734 4278190080
0.071590289 0.7836141 0.2004541 4278190080
0.074325345 0.78335941 0.2004541 4278190080
0.077059075 0.78309518 0.2004541 4278190080
0.079792283 0.78282142 0.2004541 4278190080
0.083030641 0.78734136 0.20174734 4278190080
0.085778639 0.78704673 0.20174734 4278190080
0.088525586 0.78674251 0.20174734 4278190080
0.091271043 0.78642869 0.20174734 4278190080
0.094589345 0.79090095 0.2030406 4278190080
0.097349279 0.79056603 0.2030406 4278190080
0.1002465 0.79020387 0.2030406 4278190080
0.10300396 0.78984916 0.2030406 4278190080
0.10576059 0.78948474 0.2030406 4278190080
0.10851551 0.78911084 0.2030406 4278190080
0.11126953 0.78872722 0.2030406 4278190080
0.11402219 0.78833395 0.2030406 4278190080
0.11677304 0.7879312 0.2030406 4278190080
0.11952289 0.78751874 0.2030406 4278190080
0.12227086 0.7870968 0.2030406 4278190080
0.12501776 0.78666514 0.2030406 4278190080
0.12790008 0.78620166 0.2030406 4278190080
0.13064383 0.78575039 0.2030406 4278190080
0.13338597 0.78528953 0.2030406 4278190080
0.13695149 0.78957802 0.20433384 4278190080
0.13970697 0.7890951 0.20433384 4278190080
0.14246032 0.78860271 0.20433384 4278190080
0.14521237 0.78810054 0.20433384 4278190080
0.14796263 0.78758883 0.20433384 4278190080
0.15071067 0.78706759 0.20433384 4278190080
0.1534573 0.78653669 0.20433384 4278190080
0.15728121 0.79070604 0.2056271 4278190080
0.1600405 0.79015219 0.2056271 4278190080
0.16279742 0.78958875 0.2056271 4278190080
0.16555278 0.78901565 0.2056271 4278190080
0.1683057 0.78843302 0.2056271 4278190080
0.17105699 0.78784066 0.2056271 4278190080
0.17380618 0.78723872 0.2056271 4278190080
0.17655285 0.78662729 0.2056271 4278190080
0.17929778 0.78600621 0.2056271 4278190080
0.18204011 0.7853756 0.2056271 4278190080
0.18478064 0.78473532 0.2056271 4278190080
0.18751892 0.78408551 0.2056271 4278190080
0.19039136 0.78339297 0.2056271 4278190080
0.1931245 0.78272367 0.2056271 4278190080
0.19585571 0.78204471 0.2056271 4278190080
0.19858453 0.78135628 0.2056271 4278190080
0.20251654 0.78533524 0.20692036 4278190080
0.2052568 0.7846235 0.20692036 4278190080
0.20799415 0.78390229 0.20692036 4278190080
0.21072939 0.78317142 0.20692036 4278190080
0.21359833 0.78239387 0.20692036 4278190080
0.21632825 0.78164345 0.20692036 4278190080
0.21905555 0.78088349 0.20692036 4278190080
0.22177975 0.78011417 0.20692036 4278190080
0.22583865 0.78397638 0.20821361 4278190080
0.22857361 0.78318334 0.20821361 4278190080
0.2313062 0.78238064 0.20821361 4278190080
0.23403598 0.78156847 0.20821361 4278190080
0.23676248 0.78074682 0.20821361 4278190080
0.23948653 0.77991557 0.20821361 4278190080
0.24364109 0.783687 0.20950687 4278190080
0.24637535 0.78283173 0.20950687 4278190080
0.24910662 0.78196692 0.20950687 4278190080
0.25183442 0.78109264 0.20950687 4278190080
0.25469545 0.78016442 0.20950687 4278190080
0.25741735 0.77927059 0.20950687 4278190080
0.2601361 0.77836722 0.20950687 4278190080
0.2628513 0.7774545 0.20950687 4278190080
0.26556367 0.77653223 0.20950687 4278190080
0.26985124 0.78016508 0.21080011 4278190080
0.27270916 0.77917069 0.21080011 4278190080
0.27542707 0.7782141 0.21080011 4278190080
0.27814204 0.77724785 0.21080011 4278190080
0.28249678 0.78081393 0.21209337 4278190080
0.28522038 0.77982318 0.21209337 4278190080
0.28794089 0.77882272 0.21209337 4278190080
0.29079336 0.77776217 0.21209337 4278190080
0.29350665 0.77674234 0.21209337 4278190080
0.29793894 0.78022522 0.21338663 4278190080
0.30066079 0.77918041 0.21338663 4278190080
0.30337855 0.77812624 0.21338663 4278190080
0.30609304 0.77706248 0.21338663 4278190080
0.30893895 0.77593541 0.21338663 4278190080
0.31164575 0.77485222 0.21338663 4278190080
0.31434834 0.77375972 0.21338663 4278190080
0.31704754 0.77265769 0.21338663 4278190080
0.32159191 0.77600807 0.21467987 4278190080
0.32429847 0.77488089 0.21467987 4278190080
0.32888171 0.77819294 0.21597312 4278190080
0.33159584 0.7770403 0.21597312 4278190080
0.33621758 0.78031367 0.21726637 4278190080
0.33893949 0.77913523 0.21726637 4278190080
0.34165686 0.77794743 0.21726637 4278190080
0.34437048 0.77675003 0.21726637 4278190080
0.34707952 0.77554333 0.21726637 4278190080
0.3497847 0.77432698 0.21726637 4278190080
0.35248566 0.77310121 0.21726637 4278190080
0.35518187 0.7718662 0.21726637 4278190080
0.36004388 0.77493924 0.21855962 4278190080
0.36274651 0.77367789 0.21855962 4278190080
0.36751071 0.77677274 0.21985288 4278190080
0.37021965 0.77548528 0.21985288 4278190080
0.37502053 0.77853948 0.22114612 4278190080
0.37773603 0.77722561 0.22114612 4278190080
0.38257286 0.78023905 0.22243938 4278190080
0.38529423 0.77889878 0.22243938 4278190080
0.3903037 0.78180271 0.22373265 4278190080
0.39303046 0.7804355 0.22373265 4278190080
0.39575207 0.77905893 0.22373265 4278190080
0.39846924 0.77767265 0.22373265 4278190080
0.40118116 0.77627712 0.22373265 4278190080
0.40388858 0.77487195 0.22373265 4278190080
0.40659109 0.77345729 0.22373265 4278190080
0.41155052 0.77630073 0.22502589 4278190080
0.41425797 0.77485931 0.22502589 4278190080
0.41925195 0.77766007 0.22631915 4278190080
0.42209971 0.77611804 0.22631915 4278190080
0.42480603 0.77464008 0.22631915 4278190080
0.42984474 0.77737916 0.22761239 4278190080
0.43255585 0.77587384 0.22761239 4278190080
0.43526128 0.77435935 0.22761239 4278190080
0.44034308 0.77703726 0.22890565 4278190080
0.4430525 0.77549559 0.22890565 4278190080
0.4481675 0.77812952 0.2301989 4278190080
0.45088112 0.77656025 0.2301989 4278190080
0.45602852 0.77915019 0.23149215 4278190080
0.45888108 0.77747357 0.23149215 4278190080
0.46159235 0.77586699 0.23149215 4278190080
0.46429798 0.77425086 0.23149215 4278190080
0.46699753 0.77262563 0.23149215 4278190080
0.46969181 0.77099067 0.23149215 4278190080
0.47490716 0.77346253 0.2327854 4278190080
0.47773916 0.77171654 0.2327854 4278190080
0.48298636 0.77414209 0.23407865 4278190080
0.48568583 0.77245134 0.23407865 4278190080
0.49096408 0.77483118 0.2353719 4278190080
0.49366593 0.7731126 0.2353719 4278190080
0.49636176 0.77138454 0.2353719 4278190080
0.50167882 0.77369988 0.23666516 4278190080
0.50437665 0.77194387 0.23666516 4278190080
0.50985909 0.77412373 0.2379584 4278190080
0.51255834 0.77233917 0.2379584 4278190080
0.51525092 0.77054542 0.2379584 4278190080
0.51793766 0.76874208 0.2379584 4278190080
0.52333075 0.77092546 0.23925166 4278190080
0.52601838 0.76909417 0.23925166 4278190080
0.5314405 0.77123028 0.24054492 4278190080
0.53412914 0.76937073 0.24054492 4278190080
0.5369457 0.76740766 0.24054492 4278190080
0.54240364 0.76947653 0.24183817 4278190080
0.5450865 0.76757836 0.24183817 4278190080
0.55057245 0.76959932 0.24313143 4278190080
0.55325568 0.76767266 0.24313143 4278190080
0.5587697 0.76964504 0.24442467 4278190080
0.56430382 0.77158856 0.24571793 4278190080
0.56699389 0.76961392 0.24571793 4278190080
0.57255495 0.77150875 0.24701117 4278190080
0.57524472 0.76950532 0.24701117 4278190080
0.58083278 0.77135086 0.24830443 4278190080
0.58352149 0.76931888 0.24830443 4278190080
0.58620352 0.76727718 0.24830443 4278190080
0.58887798 0.76522648 0.24830443 4278190080
0.59450465 0.76698345 0.24959768 4278190080
0.59717846 0.76490349 0.24959768 4278190080
0.60283005 0.76661104 0.25089094 4278190080
0.60850126 0.76828814 0.25218418 4278190080
0.61432558 0.76982796 0.25347742 4278190080
0.61700916 0.76767874 0.25347742 4278190080
0.62272376 0.76927453 0.2547707 4278190080
0.62540537 0.76709604 0.2547707 4278190080
0.6311444 0.76864088 0.25606394 4278190080
0.63382339 0.7664333 0.25606394 4278190080
0.63971978 0.76781589 0.25735721 4278190080
0.64550078 0.76927793 0.25865045 4278190080
0.65129977 0.77070886 0.25994369 4278190080
0.65398586 0.76843095 0.25994369 4278190080
0.6598075 0.76981044 0.26123697 4278190080
0.66564631 0.77115899 0.26253021 4278190080
0.67150289 0.77247572 0.26382345 4278190080
0.67419541 0.77012688 0.26382345 4278190080
0.68007338 0.77139199 0.26511672 4278190080
0.6859687 0.77262497 0.26640996 4278190080
0.69188046 0.77382654 0.26770321 4278190080
0.6978094 0.77499586 0.26899645 4278190080
0.70051056 0.77255517 0.26899645 4278190080
0.70645952 0.7736721 0.27028972 4278190080
0.70915604 0.77120119 0.27028972 4278190080
0.71512502 0.77226514 0.27158296 4278190080
0.71781659 0.76976401 0.27158296 4278190080
0.72380561 0.77077436 0.2728762 4278190080
0.72662562 0.76811641 0.2728762 4278190080
0.73263359 0.76907259 0.27416947 4278190080
0.73852289 0.77012485 0.27546272 4278190080
0.74456185 0.77101636 0.27675596 4278190080
0.74724883 0.76841253 0.27675596 4278190080
0.75330555 0.76925045 0.27804923 4278190080
0.75951171 0.76992279 0.27934247 4278190080
0.76219481 0.76726675 0.27934247 4278190080
0.76828438 0.76801598 0.28063571 4278190080
0.77096033 0.76532978 0.28063571 4278190080
0.77706695 0.76602453 0.28192899 4278190080
0.77973592 0.76330763 0.28192899 4278190080
0.78252864 0.76044434 0.28192899 4278190080
0.78865355 0.76106232 0.28322226 4278190080
0.79130548 0.7583046 0.28322226 4278190080
0.79394782 0.75553763 0.28322226 4278190080
1.0762199 0.78594494 0.34659159 4278190080
1.059405 0.76800913 0.34012532 4278190080
1.0777607 0.77559084 0.34529832 4278190080
1.0411602 0.7437498 0.33236581 4278190080
1.0516299 0.74569815 0.33495232 4278190080
1.0621254 0.74758297 0.33753884 4278190080
1.0727781 0.74921554 0.34012532 4278190080
1.0793561 0.74821824 0.34141856 4278190080
1.0859404 0.74718356 0.34271184 4278190080
1.0965191 0.7488358 0.34529832 4278190080
1.103124 0.74771392 0.34659159 4278190080
1.109735 0.74655449 0.34788486 4278190080
1.1163508 0.74535853 0.34917811 4278190080
1.1269982 0.74679273 0.35176462 4278190080
1.1336337 0.74550778 0.35305786 4278190080
1.1443182 0.74682593 0.35564438 4278190080
1.1509722 0.74545228 0.35693762 4278190080
1.1616931 0.74665326 0.35952413 4278190080
1.1683645 0.74519062 0.36081737 4278190080
1.17504 0.74369043 0.36211061 4278190080
1.1859388 0.74451488 0.36469713 4278190080
1.1926298 0.74292475 0.36599037 4278190080
1.2034328 0.74383569 0.36857688 4278190080
1.2101393 0.74215513 0.36987013 4278190080
1.2209743 0.74294811 0.37245664 4278190080
1.2276952 0.74117756 0.37374988 4278190080
1.2385616 0.74185157 0.3763364 4278190080
1.2494479 0.74245799 0.37892288 4278190080
1.2561928 0.74054456 0.38021615 4278190080
1.2671084 0.74103206 0.38280267 4278190080
1.2738653 0.73902798 0.38409594 4278190080
1.2806232 0.73698634 0.38538918 4278190080
1.2873826 0.73490578 0.38668242 4278190080
1.2899402 0.73040724 0.38668242 4278190080
1.2966928 0.72826558 0.38797566 4278190080
1.3076659 0.7284354 0.39056218 4278190080
1.3145549 0.72597277 0.39185542 4278190080
1.3255533 0.72601968 0.39444193 4278190080
1.3365675 0.72599936 0.39702845 4278190080
1.3475982 0.72591019 0.39961493 4278190080
1.3543842 0.72347713 0.4009082 4278190080
1.3654372 0.72326702 0.40349469 4278190080
1.3765055 0.72298777 0.4060812 4278190080
1.3875881 0.72264081 0.40866768 4278190080
1.3986853 0.72222441 0.4112542 4278190080
1.4097964 0.72173929 0.41384071 4278190080
1.4252276 0.72337216 0.41772047 4278190080
1.4363731 0.72273427 0.42030698 4278190080
1.447531 0.72202808 0.42289349 4278190080
1.4587016 0.72125202 0.42547998 4278190080
1.4742215 0.72253227 0.42935973 4278190080
1.4854231 0.72160321 0.43194625 4278190080
1.4967619 0.72034329 0.43453273 4278190080
1.5079862 0.71927249 0.43711925 4278190080
1.5192211 0.71813208 0.43970576 4278190080
1.5304658 0.71692276 0.44229224 4278190080
1.5461018 0.71767634 0.446172 4278190080
1.5573734 0.71631211 0.44875854 4278190080
1.5687792 0.71460295 0.45134503 4278190080
1.5844707 0.71508336 0.45522478 4278190080
1.6001849 0.71546203 0.45910454 4278190080
1.6203367 0.71769655 0.46427754 4278190080
1.6361006 0.71785748 0.46815729 4278190080
1.6518854 0.71791708 0.47203705 4278190080
1.66769 0.71787608 0.4759168 4278190080
1.6790717 0.71583831 0.47850332 4278190080
1.6949086 0.71560937 0.4823831 4278190080
1.7107645 0.71527761 0.48626286 4278190080
1.7266387 0.71484375 0.49014261 4278190080
1.74253 0.71430868 0.49402234 4278190080
1.7585635 0.71336317 0.4979021 4278190080
1.7744884 0.71262056 0.50178188 4278190080
1.7904299 0.71177447 0.50566161 4278190080
1.8108809 0.71259528 0.51083463 4278190080
1.8268592 0.71152806 0.51471442 4278190080
1.8428518 0.71035784 0.51859415 4278190080
1.858858 0.70908564 0.52247393 4278190080
1.8793966 0.7094149 0.5276469 4278190080
1.8954351 0.70792055 0.53152668 4278190080
1.9160166 0.70799577 0.53669971 4278190080
1.9322081 0.70594108 0.54057944 4278190080
1.95283 0.70575809 0.54575241 4278190080
1.9689255 0.70381504 0.54963219 4278190080
1.989585 0.70337689 0.55480522 4278190080
2.0102654 0.70280302 0.55997825 4278190080
2.0309653 0.70209438 0.56515121 4278190080
2.0516849 0.70124859 0.57032424 4278190080
2.0769985 0.70181388 0.57679051 4278190080
2.0977602 0.7006796 0.58196354 4278190080
2.1185389 0.69940889 0.58713651 4278190080
2.1439252 0.6995008 0.59360272 4278190080
2.1647415 0.69794077 0.5987758 4278190080
2.1855721 0.69624496 0.60394883 4278190080
2.2064178 0.69441098 0.6091218 4278190080
2.2318888 0.6938737 0.61558807 4278190080
2.2527654 0.69175047 0.62076104 4278190080
2.2782764 0.69089031 0.62722731 4278190080
2.3038085 0.68986166 0.63369364 4278190080
2.3341134 0.68962336 0.64145315 4278190080
2.3596892 0.68823397 0.64791936 4278190080
2.3899255 0.68800932 0.65567887 4278190080
2.4201889 0.6875819 0.66343844 4278190080
2.4504774 0.68695277 0.67119795 4278190080
2.4807911 0.68611908 0.67895746 4278190080
2.5111282 0.68508345 0.68671691 4278190080
2.5414882 0.6838429 0.69447643 4278190080
2.5718699 0.68239868 0.70223594 4278190080
2.6022716 0.68075192 0.70999545 4278190080
2.6326933 0.67889982 0.71775496 4278190080
2.667814 0.67803466 0.72680777 4278190080
2.6982758 0.67575765 0.73456728 4278190080
2.733443 0.67443317 0.74362004 4278190080
2.7686329 0.67287272 0.75267279 4278190080
2.8085425 0.67219758 0.76301885 4278190080
2.8437791 0.67014551 0.7720716 4278190080
2.8837407 0.66894543 0.7824176 4278190080
2.9284368 0.66854942 0.79405689 4278190080
2.9637394 0.66573387 0.80310965 4278190080
2.9614429 0.65382594 0.8018164 4278190080
2.9684274 0.64450878 0.80310965 4278190080
2.9612124 0.63212585 0.80052316 4278190080
2.9681275 0.62277818 0.8018164 4278190080
2.965553 0.61143774 0.80052316 4278190080
2.9724028 0.60204202 0.8018164 4278190080
2.7669196 0.52031416 0.74362004 4278190080
2.7639689 0.50977749 0.74232674 4278190080
2.7704844 0.50098521 0.74362004 4278190080
2.7769721 0.49215358 0.74491328 4278190080
2.7739143 0.48163182 0.74362004 4278190080
2.7755787 0.47194552 0.74362004 4278190080
2.7772093 0.46225497 0.74362004 4278190080
2.7835729 0.45333362 0.74491328 4278190080
2.7851384 0.4436138 0.74491328 4278190080
2.7962146 0.43537617 0.74749976 4278190080
2.8024924 0.42633873 0.74879307 4278190080
2.8088136 0.4167735 0.75008625 4278190080
2.8150313 0.40765801 0.75137955 4278190080
2.8212194 0.39850563 0.75267279 4278190080
2.8130238 0.38733706 0.75008625 4278190080
2.8430805 0.38136905 0.75784576 4278190080
2.8922865 0.37769601 0.77077836 4278190080
2.9415009 0.37368399 0.78371084 4278190080
2.961961 0.36578274 0.78888386 4278190080
2.9728107 0.35659114 0.79147035 4278190080
2.9692397 0.34565437 0.79017711 4278190080
2.9704282 0.33528706 0.79017711 4278190080
2.9715807 0.32491565 0.79017711 4278190080
2.9727516 0.31402251 0.79017711 4278190080
2.9738297 0.30364314 0.79017711 4278190080
2.9700136 0.29330671 0.78888386 4278190080
2.9710195 0.28293699 0.78888386 4278190080
2.9671793 0.27212274 0.78759056 4278190080
2.968111 0.26176465 0.78759056 4278190080
2.9690068 0.25140175 0.78759056 4278190080
2.969866 0.24103741 0.78759056 4278190080
2.9706895 0.23066854 0.78759056 4278190080
2.9714766 0.22029687 0.78759056 4278190080
2.9674096 0.20958382 0.78629738 4278190080
2.9681232 0.19922371 0.78629738 4278190080
2.9688005 0.18886277 0.78629738 4278190080
2.9694417 0.17849794 0.78629738 4278190080
2.9652245 0.16785794 0.78500408 4278190080
2.9657922 0.15750732 0.78500408 4278190080
2.9663496 0.14663494 0.78500408 4278190080
2.9668434 0.13628051 0.78500408 4278190080
2.9673011 0.12592283 0.78500408 4278190080
2.9677227 0.11556519 0.78500408 4278190080
2.9632812 0.10503349 0.78371084 4278190080
2.9636297 0.09468843 0.78371084 4278190080
2.9639423 0.084343806 0.78371084 4278190080
2.9642186 0.073996574 0.78371084 4278190080
2.9644587 0.063650012 0.78371084 4278190080
2.964663 0.053301103 0.78371084 4278190080
2.9648309 0.042951539 0.78371084 4278190080
2.9649627 0.032603037 0.78371084 4278190080
2.9650586 0.022252554 0.78371084 4278190080
2.9651182 0.01190338 0.78371084 4278190080
2.9603117 0.0015499527 0.7824176 4278190080
2.960299 -0.0087834103 0.7824176 4278190080
2.9554207 -0.01908554 0.78112435 4278190080
2.9553361 -0.029401766 0.78112435 4278190080
2.9552155 -0.039717633 0.78112435 4278190080
2.9550588 -0.050033022 0.78112435 4278190080
2.9548662 -0.060347795 0.78112435 4278190080
2.9546375 -0.070661835 0.78112435 4278190080
2.9543729 -0.080975018 0.78112435 4278190080
2.9540722 -0.091287211 0.78112435 4278190080
2.9537177 -0.10211381 0.78112435 4278190080
2.9485168 -0.11223987 0.77983105 4278190080
2.948107 -0.12253143 0.77983105 4278190080
2.9476614 -0.13282149 0.77983105 4278190080
2.9471798 -0.14310993 0.77983105 4278190080
2.9514859 -0.15364774 0.78112435 4278190080
2.9509315 -0.16394942 0.78112435 4278190080
2.9503412 -0.1742491 0.78112435 4278190080
2.9497149 -0.18454663 0.78112435 4278190080
2.9490528 -0.19484194 0.78112435 4278190080
2.9483547 -0.20513487 0.78112435 4278190080
2.9476206 -0.21542528 0.78112435 4278190080
2.9468508 -0.2257131 0.78112435 4278190080
2.9460449 -0.23599815 0.78112435 4278190080
2.9452033 -0.24628034 0.78112435 4278190080
2.9443257 -0.25655952 0.78112435 4278190080
2.9434121 -0.26683554 0.78112435 4278190080
2.9424627 -0.27710837 0.78112435 4278190080
2.9414775 -0.28737777 0.78112435 4278190080
2.9404564 -0.29764372 0.78112435 4278190080
2.9393995 -0.307906 0.78112435 4278190080
2.9383068 -0.31816453 0.78112435 4278190080
2.9419782 -0.32895592 0.7824176 4278190080
2.9408121 -0.33922333 0.7824176 4278190080
2.934814 -0.34891644 0.78112435 4278190080
2.9335783 -0.35915869 0.78112435 4278190080
2.9322422 -0.36990839 0.78112435 4278190080
2.930933 -0.38014156 0.78112435 4278190080
2.9295883 -0.39037013 0.78112435 4278190080
2.9282076 -0.40059391 0.78112435 4278190080
2.9268632 -0.41030201 0.78112435 4278190080
2.9254131 -0.42051616 0.78112435 4278190080
2.9240026 -0.43021485 0.78112435 4278190080
2.922483 -0.4404189 0.78112435 4278190080
3.0322936 -0.47104973 0.69906884 4278190080
3.0306308 -0.48163152 0.69906884 4278190080
3.0337403 -0.49298894 0.70019275 4278190080
3.0320008 -0.50357568 0.70019275 4278190080
3.0302246 -0.51415628 0.70019275 4278190080
3.0332117 -0.52556235 0.70131665 4278190080
3.0313587 -0.53614706 0.70131665 4278190080
3.0342634 -0.54759049 0.70244056 4278190080
3.0323336 -0.55817872 0.70244056 4278190080
3.0303667 -0.56876016 0.70244056 4278190080
3.0283628 -0.57933462 0.70244056 4278190080
3.0263221 -0.58990204 0.70244056 4278190080
3.0290232 -0.60141104 0.70356447 4278190080
3.0269053 -0.61198068 0.70356447 4278190080
3.0247507 -0.62254286 0.70356447 4278190080
3.027328 -0.63409621 0.70468837 4278190080
3.0250962 -0.6446597 0.70468837 4278190080
3.0228274 -0.65521532 0.70468837 4278190080
3.0205219 -0.66576302 0.70468837 4278190080
3.0181794 -0.67630249 0.70468837 4278190080
3.0158002 -0.6868338 0.70468837 4278190080
3.0133846 -0.6973567 0.70468837 4278190080
3.010932 -0.70787114 0.70468837 4278190080
3.0084426 -0.71837699 0.70468837 4278190080
3.0059166 -0.72887403 0.70468837 4278190080
3.0080848 -0.74052674 0.70581228 4278190080
3.0054815 -0.7510224 0.70581228 4278190080
3.0075643 -0.76270658 0.70693618 4278190080
3.0048838 -0.77320033 0.70693618 4278190080
3.0068803 -0.78491515 0.70806009 4278190080
3.0041223 -0.79540628 0.70806009 4278190080
3.0060329 -0.80715126 0.70918399 4278190080
3.0031972 -0.81763935 0.70918399 4278190080
3.0050211 -0.82941377 0.7103079 4278190080
3.0021076 -0.83989817 0.7103079 4278190080
2.9991574 -0.85037237 0.7103079 4278190080
2.9961708 -0.86083621 0.7103079 4278190080
2.9978256 -0.87265128 0.7114318 4278190080
2.9947612 -0.88311034 0.7114318 4278190080
2.9963286 -0.89495283 0.71255571 4278190080
2.9931862 -0.90540659 0.71255571 4278190080
2.9946661 -0.9172762 0.71367961 4278190080
2.991446 -0.92772388 0.71367961 4278190080
2.9881895 -0.93816036 0.71367961 4278190080
2.9895396 -0.9500609 0.71480352 4278190080
2.9862051 -0.96049058 0.71480352 4278190080
2.9828341 -0.97090858 0.71480352 4278190080
2.9840543 -0.98283881 0.71592742 4278190080
2.9806054 -0.99324912 0.71592742 4278190080
2.9769449 -1.0041668 0.71592742 4278190080
2.9734216 -1.0145522 0.71592742 4278190080
2.9744675 -1.0265146 0.71705133 4278190080
2.9708662 -1.0368912 0.71705133 4278190080
2.971823 -1.0488768 0.71817523 4278190080
2.9681437 -1.0592439 0.71817523 4278190080
2.9690108 -1.0712517 0.71929914 4278190080
2.9652534 -1.081609 0.71929914 4278190080
2.966222 -1.0931209 0.72042304 4278190080
2.9623883 -1.1034683 0.72042304 4278190080
2.9585183 -1.1138022 0.72042304 4278190080
2.9546125 -1.1241226 0.72042304 4278190080
2.9552181 -1.1361777 0.72154701 4278190080
2.9512341 -1.1464864 0.72154701 4278190080
2.9517493 -1.1585612 0.72267085 4278190080
2.9476871 -1.1688576 0.72267085 4278190080
2.9435892 -1.1791399 0.72267085 4278190080
2.9439716 -1.1912353 0.72379476 4278190080
2.9397955 -1.2015043 0.72379476 4278190080
2.9400868 -1.2136178 0.72491866 4278190080
2.9358327 -1.2238731 0.72491866 4278190080
2.9360332 -1.2360041 0.72604257 4278190080
2.9317009 -1.2462453 0.72604257 4278190080
2.9315901 -1.2589045 0.72716647 4278190080
2.9273992 -1.2686191 0.72716647 4278190080
2.9274168 -1.2807827 0.72829038 4278190080
2.9273849 -1.2929618 0.72941428 4278190080
2.9273036 -1.3051566 0.73053819 4278190080
2.92273 -1.3153667 0.73053819 4278190080
2.9225564 -1.3275759 0.73166209 4278190080
2.9179044 -1.3377694 0.73166209 4278190080
2.9132168 -1.3479466 0.73166209 4278190080
2.9129086 -1.3601689 0.732786 4278190080
2.908143 -1.3703285 0.732786 4278190080
2.9077418 -1.3825636 0.7339099 4278190080
2.9072907 -1.3948125 0.73503381 4278190080
2.9067895 -1.407075 0.73615772 4278190080
2.90186 -1.4172131 0.73615772 4278190080
2.9012659 -1.4294872 0.73728162 4278190080
2.9006212 -1.4417744 0.73840553 4278190080
2.8955708 -1.4518906 0.73840553 4278190080
2.8948326 -1.4641882 0.73952943 4278190080
2.889704 -1.4742842 0.73952943 4278190080
2.8888721 -1.4865913 0.74065334 4278190080
2.8879898 -1.4989108 0.74177724 4278190080
2.8870564 -1.5112419 0.74290115 4278190080
2.8860722 -1.5235851 0.74402505 4278190080
2.8810041 -1.5331472 0.74402505 4278190080
2.8796577 -1.5460008 0.74514896 4278190080
2.8785284 -1.5583628 0.74627286 4278190080
2.8730712 -1.5684012 0.74627286 4278190080
2.8718469 -1.5807699 0.74739677 4278190080
2.8663116 -1.5907849 0.74739677 4278190080
2.8649929 -1.6031597 0.74852067 4278190080
2.8636229 -1.6155446 0.74964458 4278190080
2.8579662 -1.6255306 0.74964458 4278190080
2.8565009 -1.6379203 0.75076848 4278190080
2.8549843 -1.6503197 0.75189239 4278190080
2.8537056 -1.6622301 0.75301629 4278190080
2.8520875 -1.6746483 0.7541402 4278190080
2.8504171 -1.6870753 0.7552641 4278190080
2.8486948 -1.6995109 0.75638801 4278190080
2.8427451 -1.7094445 0.75638801 4278190080
2.8409271 -1.7218822 0.75751191 4278190080
