# .PCD v0.7 - Point Cloud Data file format
VERSION 0.7
FIELDS x y z rgb
SIZE 4 4 4 4
TYPE F F F U
COUNT 1 1 1 1
WIDTH 1074
HEIGHT 1
VIEWPOINT 0 0 0 1 0 0 0
POINTS 1074
DATA ascii
1.6531533 -2.3847876 0.35159305 4278190080
1.6420056 -2.3864551 0.35098368 4278190080
1.6280679 -2.3839757 0.349765 4278190080
1.6169519 -2.3855364 0.34915566 4278190080
1.6030748 -2.3829308 0.34793699 4278190080
1.5919912 -2.3843846 0.34732762 4278190080
1.5809172 -2.3857903 0.34671828 4278190080
1.5698528 -2.3871477 0.34610891 4278190080
1.5560859 -2.3843009 0.34489024 4278190080
1.5450559 -2.3855529 0.3442809 4278190080
1.5344526 -2.3864889 0.34367153 4278190080
1.5234433 -2.3876469 0.34306219 4278190080
0.5729506 -0.93350691 0.12979084 4278190080
0.5567826 -0.91430795 0.12674411 4278190080
1.3780206 -2.354425 0.33026594 4278190080
1.3673018 -2.3549287 0.32965657 4278190080
1.3644404 -2.3680501 0.33087525 4278190080
1.3512409 -2.364181 0.32965657 4278190080
1.34298 -2.3688834 0.32965657 4278190080
1.3322705 -2.3692312 0.32904723 4278190080
1.3215749 -2.3695331 0.32843786 4278190080
1.3084912 -2.3654466 0.32721919 4278190080
1.2978393 -2.3656485 0.32660982 4278190080
1.2872019 -2.3658054 0.32600048 4278190080
1.2765791 -2.3659165 0.32539111 4278190080
1.2659717 -2.3659825 0.32478181 4278190080
1.2553791 -2.3660033 0.32417244 4278190080
1.2448018 -2.365979 0.3235631 4278190080
1.2342399 -2.3659098 0.32295373 4278190080
1.2236938 -2.3657959 0.32234442 4278190080
1.2108992 -2.3612211 0.32112572 4278190080
1.2004004 -2.3610096 0.32051635 4278190080
1.1876842 -2.3563221 0.31929767 4278190080
1.1772336 -2.3560143 0.31868833 4278190080
1.1667995 -2.3556621 0.31807896 4278190080
1.1563827 -2.3552659 0.31746966 4278190080
1.1463934 -2.3546257 0.31686029 4278190080
1.1360106 -2.3541434 0.31625095 4278190080
1.1256448 -2.3536174 0.31564158 4278190080
1.1152968 -2.3530478 0.31503224 4278190080
1.1070765 -2.3569267 0.31503224 4278190080
1.0843596 -2.3510783 0.3132042 4278190080
0.38332215 -0.87075347 0.11211979 4278190080
0.98093593 -2.3369794 0.30650139 4278190080
0.97467732 -2.3449719 0.30711076 4278190080
0.96648604 -2.3483598 0.30711076 4278190080
0.95828265 -2.3517191 0.30711076 4278190080
0.94821119 -2.3504474 0.30650139 4278190080
0.93816006 -2.3491344 0.30589205 4278190080
0.92812997 -2.3477795 0.30528268 4278190080
0.91812086 -2.3463836 0.30467334 4278190080
0.90854174 -2.3447876 0.30406401 4278190080
0.90035146 -2.3479447 0.30406401 4278190080
0.89038932 -2.3464336 0.30345467 4278190080
0.88044894 -2.3448811 0.3028453 4278190080
0.87053001 -2.3432882 0.30223596 4278190080
0.86234522 -2.3463128 0.30223596 4278190080
0.85245419 -2.3446443 0.30162662 4278190080
0.84258503 -2.342936 0.30101728 4278190080
0.83273852 -2.341187 0.30040792 4278190080
0.82291424 -2.3393981 0.29979858 4278190080
0.81474334 -2.3422563 0.29979858 4278190080
0.80494839 -2.3403931 0.29918924 4278190080
0.79558438 -2.3383512 0.2985799 4278190080
0.78741699 -2.3411143 0.2985799 4278190080
0.77767456 -2.3391392 0.29797053 4278190080
0.76795566 -2.3371248 0.2973612 4278190080
0.75979275 -2.3397913 0.2973612 4278190080
0.74858826 -2.332978 0.29614249 4278190080
0.74193966 -2.3403077 0.29675186 4278190080
0.73376608 -2.3428833 0.29675186 4278190080
0.27141994 -0.92220569 0.11333849 4278190080
0.27096823 -0.93267888 0.11455718 4278190080
0.27865425 -0.97178286 0.11943195 4278190080
0.24958664 -0.88202029 0.10785437 4278190080
0.61360496 -2.3207619 0.29004902 4278190080
0.60675222 -2.327692 0.29065838 4278190080
0.59862345 -2.3297958 0.29065838 4278190080
0.59170532 -2.3366818 0.29126772 4278190080
0.58234394 -2.3339181 0.29065838 4278190080
0.57300866 -2.3311174 0.29004902 4278190080
0.56486815 -2.3331032 0.29004902 4278190080
0.55556989 -2.3302336 0.28943968 4278190080
0.5474323 -2.3321586 0.28943968 4278190080
0.53817105 -2.3292198 0.28883034 4278190080
0.53003711 -2.3310843 0.28883034 4278190080
0.52189702 -2.3329203 0.28883034 4278190080
0.51309043 -2.3297915 0.288221 4278190080
0.50495493 -2.3315685 0.288221 4278190080
0.49577948 -2.3284628 0.28761163 4278190080
0.48764873 -2.3301792 0.28761163 4278190080
0.47951204 -2.3318672 0.28761163 4278190080
0.47038659 -2.3286624 0.2870023 4278190080
0.4622553 -2.3302903 0.2870023 4278190080
0.45316944 -2.3270183 0.28639296 4278190080
0.44504398 -2.3285859 0.28639296 4278190080
0.4369131 -2.3301253 0.28639296 4278190080
0.42877659 -2.3316362 0.28639296 4278190080
0.42063519 -2.3331187 0.28639296 4278190080
0.41248834 -2.3345728 0.28639296 4278190080
0.40349036 -2.3311086 0.28578362 4278190080
0.39494377 -2.3325717 0.28578362 4278190080
0.38679928 -2.333936 0.28578362 4278190080
0.37905744 -2.335206 0.28578362 4278190080
0.37090355 -2.3365149 0.28578362 4278190080
0.36274546 -2.3377953 0.28578362 4278190080
0.12735549 -0.90275156 0.10724502 4278190080
0.12039109 -0.89869988 0.10663567 4278190080
0.12431265 -0.9532463 0.11333849 4278190080
0.12035992 -0.94875109 0.11272914 4278190080
0.10915136 -0.88513499 0.10480763 4278190080
0.10503342 -0.87563729 0.10358894 4278190080
0.099107064 -0.85135138 0.10054221 4278190080
0.092794932 -0.82210362 0.096886121 4278190080
0.096397616 -0.88162249 0.10419828 4278190080
0.091753066 -0.86714804 0.10237025 4278190080
0.088220559 -0.86252606 0.1017609 4278190080
0.2051893 -2.3219831 0.28151819 4278190080
0.19666305 -2.3177404 0.28090885 4278190080
0.18897387 -2.323359 0.28151819 4278190080
0.1808625 -2.3240044 0.28151819 4278190080
0.17238146 -2.3196726 0.28090885 4278190080
0.16428337 -2.3202603 0.28090885 4278190080
0.15584973 -2.3158679 0.28029948 4278190080
0.14816938 -2.3163719 0.28029948 4278190080
0.14008266 -2.3168752 0.28029948 4278190080
0.13211566 -2.3123722 0.27969012 4278190080
0.12404329 -2.3128192 0.27969012 4278190080
0.11572094 -2.3082817 0.27908078 4278190080
0.10766264 -2.3086717 0.27908078 4278190080
0.09960334 -2.3090334 0.27908078 4278190080
0.09154252 -2.3093669 0.27908078 4278190080
0.083480887 -2.3096724 0.27908078 4278190080
0.07558018 -2.3149097 0.27969012 4278190080
0.067498989 -2.3151596 0.27969012 4278190080
0.059417289 -2.3153811 0.27969012 4278190080
0.051334552 -2.3155744 0.27969012 4278190080
0.043251503 -2.3157394 0.27969012 4278190080
0.035167921 -2.3158762 0.27969012 4278190080
0.027025577 -2.3110225 0.27908078 4278190080
0.01936201 -2.3110995 0.27908078 4278190080
0.011294466 -2.3111529 0.27908078 4278190080
0.0032270898 -2.3111784 0.27908078 4278190080
-0.0048406329 -2.3111756 0.27908078 4278190080
-0.012907988 -2.3111446 0.27908078 4278190080
-0.020930147 -2.3061228 0.27847144 4278190080
-0.028980074 -2.3060358 0.27847144 4278190080
-0.037029341 -2.3059206 0.27847144 4278190080
-0.045078464 -2.3057773 0.27847144 4278190080
-0.05312673 -2.3056059 0.27847144 4278190080
-0.061174352 -2.3054063 0.27847144 4278190080
-0.068774663 -2.2902973 0.2766434 4278190080
-0.077101298 -2.2999632 0.2778621 4278190080
-0.083293542 -2.2500868 0.27176863 4278190080
-0.093557909 -2.3092861 0.27908078 4278190080
-0.10118172 -2.2990298 0.2778621 4278190080
-0.067312457 -0.93905753 0.11090109 4278190080
-0.070217945 -0.93386811 0.11029175 4278190080
-0.072698534 -0.92372245 0.10907306 4278190080
-0.071856052 -0.87400264 0.10297959 4278190080
-0.075754322 -0.88363564 0.10419828 4278190080
-0.078397118 -0.87842274 0.10358894 4278190080
-0.079629339 -0.8583777 0.10115156 4278190080
-0.084052071 -0.87291414 0.10297959 4278190080
-0.087591447 -0.87755364 0.10358894 4278190080
-0.20770055 -1.8229644 0.2205835 4278190080
-0.2105885 -1.7926552 0.21692742 4278190080
-0.21088283 -1.7426414 0.21083397 4278190080
-0.21175998 -1.7025342 0.20595919 4278190080
-0.21392341 -1.672249 0.20230311 4278190080
-0.21523091 -1.6370494 0.19803768 4278190080
-0.21695961 -1.6067795 0.19438159 4278190080
-0.21847947 -1.5765178 0.19072552 4278190080
-0.21979074 -1.5462656 0.18706943 4278190080
-0.22089374 -1.5160238 0.18341336 4278190080
-0.22252083 -1.4907017 0.18036664 4278190080
-0.22296926 -1.4605201 0.17671055 4278190080
-0.22423564 -1.4352168 0.17366381 4278190080
-0.22454512 -1.405022 0.17000774 4278190080
-0.2246464 -1.374843 0.16635166 4278190080
-0.22535732 -1.3495756 0.16330491 4278190080
-0.22589448 -1.3243204 0.16025817 4278190080
-0.22710966 -1.3039674 0.15782079 4278190080
-0.22818571 -1.2836221 0.15538341 4278190080
-0.23089364 -1.2730516 0.15416472 4278190080
-0.22992003 -1.2429583 0.15050864 4278190080
-0.22852728 -1.2129273 0.14685255 4278190080
-0.22620875 -1.1780065 0.14258713 4278190080
-0.12774035 -0.64102477 0.07555899 4278190080
-0.12997721 -0.64057499 0.07555899 4278190080
-0.13020475 -0.63039708 0.074340299 4278190080
-0.1313837 -0.62508208 0.073730946 4278190080
-0.13252707 -0.61976665 0.0731216 4278190080
-0.13468961 -0.61930025 0.0731216 4278190080
-0.13577901 -0.61398065 0.072512254 4278190080
-0.13683285 -0.60866112 0.071902908 4278190080
-0.13895668 -0.60817975 0.071902908 4278190080
-0.13995647 -0.60285681 0.071293563 4278190080
-0.14205995 -0.60236466 0.071293563 4278190080
-0.14290155 -0.59706384 0.070684217 4278190080
-0.14498487 -0.59656137 0.070684217 4278190080
-0.14706634 -0.59605163 0.070684217 4278190080
-0.14914602 -0.59553462 0.070684217 4278190080
-0.1511201 -0.5950368 0.070684217 4278190080
-0.15195782 -0.58969992 0.070074871 4278190080
-0.15276025 -0.58436453 0.069465525 4278190080
-0.1535272 -0.57903075 0.06885618 4278190080
-0.15425888 -0.57369882 0.068246834 4278190080
-0.15364979 -0.56358087 0.067028143 4278190080
-0.16487049 -0.59652483 0.071293563 4278190080
-0.16427429 -0.58638823 0.070074871 4278190080
-0.17987435 -0.63355172 0.076168336 4278190080
-0.20403802 -0.70922858 0.085917883 4278190080
-0.22595444 -0.77521455 0.094448738 4278190080
-0.25114444 -0.85057461 0.10419828 4278190080
-0.25979984 -0.86871141 0.10663567 4278190080
-0.26139203 -0.86304957 0.10602633 4278190080
-0.26570687 -0.86692291 0.10663567 4278190080
-0.26873136 -0.86599016 0.10663567 4278190080
-0.27175266 -0.8650468 0.10663567 4278190080
-0.27477053 -0.86409295 0.10663567 4278190080
-0.27778503 -0.86312854 0.10663567 4278190080
-0.28079629 -0.86215365 0.10663567 4278190080
-0.28535736 -0.86588162 0.10724502 4278190080
-0.28837818 -0.8648802 0.10724502 4278190080
-0.29124457 -0.8639192 0.10724502 4278190080
-0.29425848 -0.86289728 0.10724502 4278190080
-0.29726872 -0.86186486 0.10724502 4278190080
-0.30027544 -0.86082196 0.10724502 4278190080
-0.30327842 -0.85976857 0.10724502 4278190080
-0.30627766 -0.85870469 0.10724502 4278190080
-0.3092733 -0.85763031 0.10724502 4278190080
-0.31226507 -0.85654557 0.10724502 4278190080
-0.31525314 -0.85545033 0.10724502 4278190080
-0.31823725 -0.85434467 0.10724502 4278190080
-0.32121748 -0.85322863 0.10724502 4278190080
-0.32419392 -0.85210216 0.10724502 4278190080
-0.32716629 -0.85096532 0.10724502 4278190080
-0.33013478 -0.84981811 0.10724502 4278190080
-0.33295098 -0.8487187 0.10724502 4278190080
-0.3359116 -0.84755129 0.10724502 4278190080
-0.33886802 -0.84637356 0.10724502 4278190080
-0.3418203 -0.84518558 0.10724502 4278190080
-0.34476855 -0.84398723 0.10724502 4278190080
-0.3496052 -0.84736621 0.10785437 4278190080
-0.35446978 -0.85072166 0.10846371 4278190080
-0.35743713 -0.8494792 0.10846371 4278190080
-0.36234084 -0.85279387 0.10907306 4278190080
-0.3653155 -0.85152382 0.10907306 4278190080
-0.37010902 -0.85486192 0.1096824 4278190080
-0.37309074 -0.8535648 0.1096824 4278190080
-0.37606791 -0.85225731 0.1096824 4278190080
-0.37904063 -0.85093933 0.1096824 4278190080
-0.38200861 -0.8496111 0.1096824 4278190080
-0.38497204 -0.84827244 0.1096824 4278190080
-0.38793066 -0.84692347 0.1096824 4278190080
-0.39088458 -0.84556419 0.1096824 4278190080
-0.39593196 -0.848692 0.11029175 4278190080
-0.39889199 -0.84730476 0.11029175 4278190080
-0.40382829 -0.85046035 0.11090109 4278190080
-0.40679443 -0.84904552 0.11090109 4278190080
-0.41191569 -0.85208839 0.11151045 4278190080
-0.41488746 -0.85064536 0.11151045 4278190080
-0.41785419 -0.84919196 0.11151045 4278190080
-0.42081594 -0.84772819 0.11151045 4278190080
-0.42377248 -0.84625411 0.11151045 4278190080
-0.42896152 -0.84919935 0.11211979 4278190080
-0.43192312 -0.84769684 0.11211979 4278190080
-0.43714792 -0.85059792 0.11272914 4278190080
-0.44011444 -0.84906679 0.11272914 4278190080
-0.44307554 -0.84752536 0.11272914 4278190080
-0.44588363 -0.84605139 0.11272914 4278190080
-0.44883412 -0.84448981 0.11272914 4278190080
-0.45177928 -0.84291792 0.11272914 4278190080
-0.45707849 -0.84570175 0.11333849 4278190080
-0.45290309 -0.83102822 0.11151045 4278190080
-0.46775153 -0.85118872 0.11455718 4278190080
-0.46590939 -0.84086895 0.11333849 4278190080
-1.2735676 -2.2427959 0.31198552 4278190080
-1.2838545 -2.2426436 0.31259486 4278190080
-1.296636 -2.2467451 0.31381357 4278190080
-1.311564 -2.2553029 0.31564158 4278190080
-1.3194283 -2.250711 0.31564158 4278190080
-1.3298017 -2.2503641 0.31625095 4278190080
-1.3401883 -2.2499721 0.31686029 4278190080
-1.3505888 -2.2495351 0.31746966 4278190080
-1.3635714 -2.2532988 0.31868833 4278190080
-1.3736196 -2.2530017 0.31929767 4278190080
-1.3840737 -2.2524216 0.31990704 4278190080
-1.3945405 -2.2517958 0.32051635 4278190080
-1.4076477 -2.2553339 0.32173505 4278190080
-1.418154 -2.2546077 0.32234442 4278190080
-1.4286724 -2.253835 0.32295373 4278190080
-1.4392027 -2.2530167 0.3235631 4278190080
-1.4497443 -2.252152 0.32417244 4278190080
-1.4602979 -2.2512412 0.32478181 4278190080
-1.4708624 -2.2502842 0.32539111 4278190080
-1.4814384 -2.2492807 0.32600048 4278190080
-1.4920248 -2.2482309 0.32660982 4278190080
-1.5053806 -2.25126 0.32782853 4278190080
-1.5160029 -2.250107 0.32843786 4278190080
-1.5266353 -2.2489078 0.32904723 4278190080
-1.5372779 -2.2476611 0.32965657 4278190080
-1.5507461 -2.2504544 0.33087525 4278190080
-1.5614222 -2.2491045 0.33148462 4278190080
-1.5717157 -2.2479813 0.33209395 4278190080
-1.5852689 -2.2505956 0.33331263 4278190080
-1.5959872 -2.2490957 0.333922 4278190080
-1.6067142 -2.2475481 0.33453134 4278190080
-1.6203504 -2.2499802 0.33575001 4278190080
-1.6311085 -2.2483275 0.33635938 4278190080
-1.6448033 -2.2506335 0.33757809 4278190080
-1.6555915 -2.2488749 0.3381874 4278190080
-1.6693436 -2.2510548 0.3394061 4278190080
-1.6801612 -2.2491896 0.34001547 4278190080
-1.6909859 -2.2472765 0.34062481 4278190080
-1.7048156 -2.2492702 0.34184349 4278190080
-1.7156681 -2.2472503 0.34245285 4278190080
-1.7265271 -2.245182 0.34306219 4278190080
-1.7373929 -2.2430649 0.34367153 4278190080
-1.7513171 -2.2448125 0.34489024 4278190080
-1.7618171 -2.2428954 0.3454996 4278190080
-1.7757944 -2.2445154 0.34671828 4278190080
-1.786711 -2.2421842 0.34732762 4278190080
-1.8007392 -2.2436745 0.3485463 4278190080
-1.8116798 -2.2412348 0.34915566 4278190080
-1.8257586 -2.2425945 0.35037437 4278190080
-1.8367226 -2.2400448 0.35098368 4278190080
-1.8508505 -2.2412732 0.35220239 4278190080
-1.8650093 -2.24243 0.35342109 4278190080
-1.8791987 -2.2435153 0.35463977 4278190080
-1.8902185 -2.2407355 0.35524914 4278190080
-1.9044553 -2.2416875 0.35646781 4278190080
-1.9183294 -2.242903 0.35768652 4278190080
-1.9326251 -2.2437131 0.3589052 4278190080
-1.946949 -2.244451 0.3601239 4278190080
-1.9613016 -2.2451162 0.36134258 4278190080
-1.9724045 -2.2419827 0.36195195 4278190080
-1.9868003 -2.2425132 0.36317065 4278190080
-1.9975291 -2.2396159 0.36377999 4278190080
-2.0119669 -2.2400138 0.36499867 4278190080
-2.0231035 -2.2366571 0.36560804 4278190080
-2.0375822 -2.2369194 0.36682671 4278190080
-2.0487325 -2.2334504 0.36743605 4278190080
-2.063251 -2.2335763 0.36865476 4278190080
-2.0777953 -2.233628 0.36987343 4278190080
-2.0957584 -2.2372267 0.37170148 4278190080
-2.1103656 -2.2371175 0.37292019 4278190080
-2.1249976 -2.2369335 0.37413886 4278190080
-2.1396542 -2.2366745 0.37535757 4278190080
-2.1543345 -2.2363405 0.37657627 4278190080
-2.1686485 -2.2363095 0.37779495 4278190080
-2.1833763 -2.2358265 0.37901366 4278190080
-2.1981268 -2.2352684 0.38023233 4278190080
-2.2128999 -2.2346346 0.38145104 4278190080
-2.227695 -2.2339249 0.38266972 4278190080
-2.2425122 -2.2331388 0.38388842 4278190080
-2.2569616 -2.2326703 0.3851071 4278190080
-2.2718217 -2.2317343 0.38632581 4278190080
-2.2867033 -2.2307208 0.38754448 4278190080
-2.3051696 -2.2330844 0.38937256 4278190080
-2.3201032 -2.2319055 0.39059123 4278190080
-2.3350568 -2.2306492 0.39180994 4278190080
-2.3500297 -2.229316 0.39302862 4278190080
-2.3650224 -2.2279046 0.39424732 4278190080
-2.3836572 -2.2298064 0.39607537 4278190080
-2.3986981 -2.2282279 0.39729404 4278190080
-2.4137568 -2.2265711 0.39851275 4278190080
-2.4288332 -2.2248363 0.39973146 4278190080
-2.4435389 -2.2234497 0.40095013 4278190080
-2.4549673 -2.2182338 0.40155947 4278190080
-2.4667759 -2.2125344 0.40216884 4278190080
-2.4781897 -2.207211 0.40277815 4278190080
-2.4598572 -2.1755331 0.39851275 4278190080
-2.5159123 -2.2095046 0.40643427 4278190080
-2.5606222 -2.2337737 0.41252774 4278190080
-2.5909111 -2.2443171 0.4161838 4278190080
-2.5949667 -2.2320232 0.41557443 4278190080
-2.6140633 -2.232621 0.41740251 4278190080
-2.6256254 -2.2266924 0.41801181 4278190080
-2.6447701 -2.2271037 0.41983989 4278190080
-2.6601429 -2.2242243 0.42105857 4278190080
-2.6793456 -2.2244353 0.42288664 4278190080
-2.6947527 -2.2213826 0.42410532 4278190080
-2.7255323 -2.2308226 0.42776141 4278190080
-2.7098107 -2.2029889 0.42410532 4278190080
-2.7290688 -2.2028677 0.42593333 4278190080
-2.7909284 -2.2049332 0.4320268 4278190080
-2.8259416 -2.2166178 0.43629223 4278190080
-3.073808 -2.2761595 0.46493152 4278190080
-3.0817344 -2.2654161 0.46493152 4278190080
-3.0615623 -2.2341666 0.46066612 4278190080
-3.0813992 -2.2322004 0.46249413 4278190080
-3.0851431 -2.2185338 0.4618848 4278190080
-3.0969074 -2.2106345 0.46249413 4278190080
-3.0965064 -2.1940725 0.46127546 4278190080
-3.1325617 -2.2032347 0.46554089 4278190080
-3.1605792 -2.206491 0.46858764 4278190080
-3.1845784 -2.2067516 0.47102502 4278190080
-3.2127063 -2.2096839 0.47407174 4278190080
-3.2367947 -2.2096484 0.47650912 4278190080
-3.2609224 -2.2094705 0.47894651 4278190080
-3.2809696 -2.2063828 0.48077455 4278190080
-3.3051624 -2.2059367 0.48321193 4278190080
-3.3335295 -2.2080891 0.48625869 4278190080
-3.3536575 -2.204618 0.48808673 4278190080
-3.3779588 -2.2037437 0.49052411 4278190080
-3.4064596 -2.2054245 0.4935708 4278190080
-3.4266632 -2.2015681 0.49539888 4278190080
-3.4510653 -2.2002654 0.49783626 4278190080
-3.4796941 -2.2014723 0.50088304 4278190080
-3.5041704 -2.1998665 0.5033204 4278190080
-3.5286772 -2.1981173 0.50575781 4278190080
-3.5532141 -2.1962237 0.50819516 4278190080
-3.5777807 -2.1941855 0.51063257 4278190080
-3.6066153 -2.1945817 0.51367927 4278190080
-3.6312487 -2.1922381 0.51611668 4278190080
-3.6601658 -2.1922996 0.51916337 4278190080
-3.6891277 -2.1921859 0.52221012 4278190080
-3.7181332 -2.1918967 0.52525687 4278190080
-3.746799 -2.1920853 0.52830362 4278190080
-3.7801807 -2.1939397 0.53195965 4278190080
-3.8050201 -2.1906347 0.53439707 4278190080
-3.8255723 -2.1847231 0.53622514 4278190080
-3.8374927 -2.1738021 0.53683442 4278190080
-1.1541489 -0.62743437 0.1566021 4278190080
-1.1694369 -0.63046706 0.15843014 4278190080
-1.1016061 -0.58894444 0.1486806 4278190080
-1.1431173 -0.6060158 0.15416472 4278190080
-4.2905436 -2.1795416 0.58619153 4278190080
-4.2933149 -2.1630697 0.5855822 4278190080
-4.3407974 -2.1680262 0.5910663 4278190080
-4.3928137 -2.1748807 0.5971598 4278190080
-4.4226542 -2.1704657 0.60020649 4278190080
-4.4703684 -2.1745524 0.6056906 4278190080
-4.5002832 -2.1697114 0.60873735 4278190080
-4.5033522 -2.1518486 0.60812801 4278190080
-2.7391858 -1.2854611 0.36682671 4278190080
-2.7301564 -1.269614 0.36499867 4278190080
-2.7120354 -1.2496918 0.36195195 4278190080
-2.6892943 -1.2278498 0.35829586 4278190080
-2.7023938 -1.2230181 0.35951456 4278190080
-2.7021182 -1.2115465 0.3589052 4278190080
-2.7063308 -1.2021072 0.3589052 4278190080
-2.7150528 -1.1946518 0.35951456 4278190080
-2.7146568 -1.1831845 0.3589052 4278190080
-2.7187705 -1.1737015 0.3589052 4278190080
-2.7274144 -1.1661546 0.35951456 4278190080
-2.7400656 -1.1490048 0.3601239 4278190080
-1.7412614 -0.57822794 0.2205835 4278190080
-1.764238 -0.5718745 0.2230209 4278190080
-1.7804022 -0.57025361 0.22484893 4278190080
-1.8060393 -0.57152194 0.22789568 4278190080
-1.81276 -0.56669503 0.22850502 4278190080
-2.0611353 -0.56618345 0.25775367 4278190080
-2.0918393 -0.5667724 0.26140973 4278190080
-2.1369557 -0.57099712 0.26689386 4278190080
-5.9781103 -1.5750203 0.75437123 4278190080
-4.9306188 -1.2448915 0.61970562 4278190080
-4.920486 -1.2240789 0.61787754 4278190080
-4.9247289 -1.2068959 0.61787754 4278190080
-4.9096146 -1.1850407 0.61544013 4278190080
-4.9137216 -1.1678947 0.61544013 4278190080
-4.9127359 -1.1504622 0.61483085 4278190080
-4.9118857 -1.132192 0.61422151 4278190080
-4.906322 -1.1119882 0.61300278 4278190080
-4.9053302 -1.0937755 0.61239344 4278190080
-4.9042711 -1.0755818 0.6117841 4278190080
-4.9031444 -1.0574101 0.61117476 4278190080
-4.8970962 -1.0382303 0.60995609 4278190080
-4.8958316 -1.0201179 0.60934669 4278190080
-4.8945007 -1.0020269 0.60873735 4278190080
-4.8931036 -0.98395634 0.60812801 4278190080
-4.8914709 -0.96676236 0.60751861 4278190080
-4.8899441 -0.94873714 0.60690933 4278190080
-4.8834753 -0.92980605 0.6056906 4278190080
-4.8818126 -0.91184294 0.60508126 4278190080
-4.8800845 -0.89390284 0.60447192 4278190080
-4.8782907 -0.87598455 0.60386258 4278190080
-4.876431 -0.85809094 0.60325325 4278190080
-4.874506 -0.84022105 0.60264385 4278190080
-4.877409 -0.823201 0.60264385 4278190080
-4.8753567 -0.80536211 0.60203457 4278190080
-4.873239 -0.78754628 0.60142523 4278190080
-4.8710566 -0.76975632 0.60081583 4278190080
-4.8688087 -0.75199115 0.60020649 4278190080
-4.8664975 -0.7342512 0.59959716 4278190080
-4.864121 -0.71653646 0.59898782 4278190080
-4.86168 -0.69884598 0.59837848 4278190080
-4.8591752 -0.68118256 0.59776908 4278190080
-4.8566065 -0.66354525 0.5971598 4278190080
-4.8539739 -0.6459341 0.59655041 4278190080
-4.8463554 -0.62771195 0.59533173 4278190080
-4.8435936 -0.61016989 0.59472239 4278190080
-4.8407679 -0.59265608 0.59411305 4278190080
-4.8378792 -0.57516938 0.59350371 4278190080
-4.8349271 -0.55771005 0.59289432 4278190080
-4.831912 -0.54027843 0.59228498 4278190080
-4.8288355 -0.52287334 0.59167564 4278190080
-4.825695 -0.50549763 0.5910663 4278190080
-4.8224926 -0.48815018 0.59045696 4278190080
-4.8192277 -0.47083125 0.58984756 4278190080
-4.8159018 -0.4535411 0.58923829 4278190080
-4.8174553 -0.43672669 0.58923829 4278190080
-4.8140063 -0.4194774 0.58862895 4278190080
-4.8154411 -0.4026711 0.58862895 4278190080
-4.8168178 -0.38585988 0.58862895 4278190080
-4.8131866 -0.36866492 0.58801955 4278190080
-4.8144445 -0.35186049 0.58801955 4278190080
-4.8106923 -0.3347086 0.58741021 4278190080
-4.80688 -0.31758723 0.58680087 4278190080
-4.8030062 -0.30049652 0.58619153 4278190080
-4.7990713 -0.28343672 0.5855822 4278190080
-4.8000317 -0.26668209 0.5855822 4278190080
-4.7959771 -0.24966747 0.5849728 4278190080
-4.7968192 -0.23292512 0.5849728 4278190080
-4.7976031 -0.21617994 0.5849728 4278190080
-4.7933702 -0.19922604 0.58436352 4278190080
-4.7940369 -0.18249182 0.58436352 4278190080
-4.7946444 -0.16575666 0.58436352 4278190080
-4.7902336 -0.14886531 0.58375412 4278190080
-4.7907238 -0.13214362 0.58375412 4278190080
-4.7861948 -0.1153008 0.58314478 4278190080
-4.7865505 -0.099428371 0.58314478 4278190080
-4.7868686 -0.08271984 0.58314478 4278190080
-4.7821655 -0.065940604 0.58253545 4278190080
-4.7823668 -0.049247582 0.58253545 4278190080
-4.7825093 -0.032553963 0.58253545 4278190080
-4.7776318 -0.015843488 0.58192611 4278190080
-4.777658 0.00083340058 0.58192611 4278190080
-4.777626 0.017511552 0.58192611 4278190080
-4.7775354 0.034188218 0.58192611 4278190080
-4.7773871 0.050864466 0.58192611 4278190080
-4.7771807 0.067540094 0.58192611 4278190080
-4.7769156 0.084214903 0.58192611 4278190080
-4.7765751 0.10172316 0.58192611 4278190080
-4.7761908 0.11839565 0.58192611 4278190080
-4.7757483 0.13506669 0.58192611 4278190080
-4.7752476 0.15173736 0.58192611 4278190080
-4.7747183 0.16757075 0.58192611 4278190080
-4.7741041 0.18423763 0.58192611 4278190080
-4.773397 0.20173363 0.58192611 4278190080
-4.7776208 0.21862125 0.58253545 4278190080
-4.7768288 0.23529795 0.58253545 4278190080
-4.7759781 0.2519705 0.58253545 4278190080
-4.7701616 0.26752916 0.58192611 4278190080
-4.7691989 0.28417826 0.58192611 4278190080
-4.768178 0.3008239 0.58192611 4278190080
-4.7670989 0.31746584 0.58192611 4278190080
-4.7659616 0.33410394 0.58192611 4278190080
-4.7647662 0.35073924 0.58192611 4278190080
-4.7635131 0.36736897 0.58192611 4278190080
-4.7622018 0.38399425 0.58192611 4278190080
-4.7657771 0.40103096 0.58253545 4278190080
-4.764348 0.4176639 0.58253545 4278190080
-4.7628613 0.43429306 0.58253545 4278190080
-4.7613163 0.45091566 0.58253545 4278190080
-4.7597132 0.46753275 0.58253545 4278190080
-4.7580523 0.48414415 0.58253545 4278190080
-4.7612691 0.50126928 0.58314478 4278190080
-4.75949 0.51788718 0.58314478 4278190080
-4.7625852 0.53505152 0.58375412 4278190080
-4.7606883 0.55167252 0.58375412 4278190080
-4.7587337 0.56828684 0.58375412 4278190080
-4.756721 0.58489418 0.58375412 4278190080
-4.7595739 0.60211855 0.58436352 4278190080
-4.7574434 0.61872864 0.58436352 4278190080
-4.7552547 0.63533121 0.58436352 4278190080
-4.7530079 0.65192604 0.58436352 4278190080
-4.7507033 0.66851288 0.58436352 4278190080
-4.7483406 0.68509287 0.58436352 4278190080
-4.7459202 0.70166326 0.58436352 4278190080
-4.7483487 0.71896797 0.5849728 4278190080
-4.74581 0.73553818 0.5849728 4278190080
-4.7481155 0.75287664 0.5855822 4278190080
-4.7454581 0.76944709 0.5855822 4278190080
-4.7427435 0.78600687 0.5855822 4278190080
-4.744864 0.80338562 0.58619153 4278190080
-4.7469211 0.82078868 0.58680087 4278190080
-4.7538013 0.83907849 0.58801955 4278190080
-4.7508435 0.85566825 0.58801955 4278190080
-4.772233 0.87672997 0.5910663 4278190080
-4.7740216 0.89429635 0.59167564 4278190080
-4.765996 0.91002429 0.5910663 4278190080
-4.3135219 0.87054235 0.53561574 4278190080
-4.2861509 0.88060009 0.53256899 4278190080
-4.2296166 0.8843832 0.52586621 4278190080
-4.1634007 0.88571715 0.51794469 4278190080
-4.0875258 0.88450164 0.5088045 4278190080
-4.0165591 0.88383293 0.50027364 4278190080
-3.9408038 0.88159621 0.49113342 4278190080
-3.8699534 0.879942 0.48260257 4278190080
-3.8039992 0.87892133 0.47468108 4278190080
-3.7380993 0.87745208 0.46675956 4278190080
-3.6722572 0.87553263 0.45883808 4278190080
-3.6112983 0.87433225 0.4515259 4278190080
-3.5503931 0.87271708 0.44421375 4278190080
-3.4895439 0.8706876 0.4369016 4278190080
-3.4335635 0.86946321 0.43019879 4278190080
-3.3776348 0.86785787 0.42349595 4278190080
-3.3217599 0.8658728 0.41679314 4278190080
-3.2707388 0.86477703 0.41069967 4278190080
-3.2197661 0.86333579 0.40460622 4278190080
-3.1736329 0.86285216 0.39912209 4278190080
-3.1227584 0.86073762 0.39302862 4278190080
-3.0765676 0.86015064 0.38754448 4278190080
-3.0305736 0.85870898 0.38206038 4278190080
-2.9847772 0.85643464 0.37657627 4278190080
-2.943646 0.85576576 0.37170148 4278190080
-2.9025564 0.85481948 0.36682671 4278190080
-2.8615098 0.85359699 0.36195195 4278190080
-2.820507 0.85209835 0.35707715 4278190080
-2.7795506 0.85032409 0.35220239 4278190080
-2.7433817 0.8497436 0.34793699 4278190080
-2.7025156 0.8474353 0.34306219 4278190080
-2.6664302 0.84635371 0.33879676 4278190080
-2.6303852 0.84503067 0.33453134 4278190080
-2.5942354 0.84391963 0.33026594 4278190080
-2.5582762 0.84210813 0.32600048 4278190080
-2.5223618 0.84005606 0.32173505 4278190080
-2.4911964 0.8393482 0.31807896 4278190080
-2.4600668 0.83843374 0.31442291 4278190080
-2.4289744 0.83731169 0.31076682 4278190080
-2.3979204 0.83598292 0.30711076 4278190080
-2.3622248 0.83279753 0.3028453 4278190080
-2.3265815 0.82937336 0.2985799 4278190080
-2.2956593 0.82739383 0.29492378 4278190080
-2.236661 0.81540447 0.28761163 4278190080
-2.2477708 0.82835495 0.28943968 4278190080
-2.2310588 0.83060986 0.28761163 4278190080
-2.2188563 0.8348971 0.28639296 4278190080
-2.2112896 0.8408739 0.28578362 4278190080
-2.1759136 0.83612674 0.28151819 4278190080
-2.1498504 0.83473557 0.27847144 4278190080
-2.1238241 0.8331728 0.27542472 4278190080
-2.0978348 0.83143854 0.27237797 4278190080
-2.0764909 0.83137828 0.26994058 4278190080
-2.0505729 0.82931811 0.26689386 4278190080
-2.0292885 0.82896382 0.26445645 4278190080
-2.0080321 0.82847118 0.26201907 4278190080
-1.9822233 0.82593167 0.25897235 4278190080
-1.9610308 0.82514739 0.25653496 4278190080
-1.9398685 0.82422477 0.25409758 4278190080
-1.9187367 0.82316458 0.2516602 4278190080
-1.90219 0.82393944 0.24983215 4278190080
-1.8811145 0.82262057 0.24739477 4278190080
-1.8600713 0.8211652 0.24495737 4278190080
-1.8390617 0.81957257 0.24251999 4278190080
-1.822612 0.81987917 0.24069194 4278190080
-1.801664 0.8180294 0.23825456 4278190080
-1.7852629 0.81811088 0.23642652 4278190080
-1.7688831 0.81808841 0.23459849 4278190080
-1.7525257 0.81796122 0.23277044 4278190080
-1.7360481 0.81803262 0.2309424 4278190080
-1.7197365 0.81769437 0.22911437 4278190080
-1.7034483 0.81725276 0.22728632 4278190080
-1.6871843 0.81670696 0.22545828 4278190080
-1.6710876 0.81576627 0.22363023 4278190080
-1.6548737 0.81501651 0.22180219 4278190080
-1.6342411 0.81195539 0.21936481 4278190080
-1.6180869 0.81098396 0.21753678 4278190080
-1.6018181 0.8101896 0.21570873 4278190080
-1.590139 0.81126529 0.21449004 4278190080
-1.5740592 0.80999857 0.21266201 4278190080
-1.558008 0.80862963 0.21083397 4278190080
-1.5465233 0.80919021 0.20961526 4278190080
-1.5305219 0.80763572 0.20778722 4278190080
-1.5187904 0.80857545 0.20656852 4278190080
-1.5028414 0.80682969 0.20474049 4278190080
-1.4912875 0.80734527 0.2035218 4278190080
-1.4753922 0.80541253 0.20169376 4278190080
-1.4638766 0.80577147 0.20047507 4278190080
-1.4523766 0.80605984 0.19925638 4278190080
-1.4408925 0.80627781 0.19803768 4278190080
-1.4337469 0.808864 0.19742833 4278190080
-1.422287 0.80895698 0.19620964 4278190080
-1.4151495 0.8114481 0.1956003 4278190080
-1.4080117 0.81389916 0.19499093 4278190080
-1.4008743 0.81631047 0.19438159 4278190080
-1.3893156 0.81641102 0.1931629 4278190080
-1.3821875 0.81872636 0.19255355 4278190080
-1.3707992 0.81845778 0.19133486 4278190080
-1.3594297 0.81811982 0.19011617 4278190080
-1.348222 0.81747729 0.18889748 4278190080
-1.3368912 0.81700271 0.18767878 4278190080
-1.3254375 0.81669068 0.18646009 4278190080
-1.3141468 0.8160761 0.1852414 4278190080
-1.3028766 0.81539273 0.18402271 4278190080
-1.291627 0.814641 0.18280402 4278190080
-1.280399 0.81382042 0.18158533 4278190080
-1.2733715 0.81560814 0.18097597 4278190080
-1.2621775 0.8146655 0.17975728 4278190080
-1.2551658 0.81636041 0.17914793 4278190080
-1.2440069 0.81529641 0.17792924 4278190080
-1.2328711 0.81416422 0.17671055 4278190080
-1.2258899 0.81571352 0.17610119 4278190080
-1.2147912 0.8144604 0.1748825 4278190080
-1.203716 0.8131398 0.17366381 4278190080
-1.192665 0.8117522 0.17244512 4278190080
-1.1857313 0.81310374 0.17183577 4278190080
-1.1747198 0.81159586 0.17061707 4278190080
-1.1637334 0.8100211 0.16939838 4278190080
-1.1568356 0.81122899 0.16878904 4278190080
-1.1458901 0.80953538 0.16757035 4278190080
-1.1390141 0.81065267 0.166961 4278190080
-1.1281111 0.8088401 0.16574231 4278190080
-1.1212579 0.80986714 0.16513297 4278190080
-1.1103984 0.80793643 0.16391426 4278190080
-1.1035684 0.80887389 0.16330491 4278190080
-1.0967458 0.80977333 0.16269556 4278190080
-1.0859483 0.80767334 0.16147687 4278190080
-1.0791508 0.80848342 0.16086753 4278190080
-1.0683994 0.80626661 0.15964884 4278190080
-1.0616275 0.80698806 0.15903948 4278190080
-1.0509235 0.8046549 0.15782079 4278190080
-1.0441785 0.8052876 0.15721145 4278190080
-1.037442 0.80588311 0.1566021 4278190080
-1.0305732 0.80662143 0.15599276 4278190080
-1.023854 0.80714148 0.15538341 4278190080
-1.0132573 0.80453843 0.15416472 4278190080
-1.006567 0.80497092 0.15355538 4278190080
-0.99602097 0.80225372 0.15233667 4278190080
-0.98550653 0.79947251 0.15111798 4278190080
-0.97886676 0.79976767 0.15050864 4278190080
-0.96840489 0.79687297 0.14928995 4278190080
-0.96179634 0.79708177 0.1486806 4278190080
-0.95519793 0.79725426 0.14807124 4278190080
-0.95240921 0.80058366 0.14807124 4278190080
-0.93445802 0.79107708 0.14563386 4278190080
-0.93169099 0.79433411 0.14563386 4278190080
-0.92891264 0.79758143 0.14563386 4278190080
-0.9270643 0.80730623 0.1462432 4278190080
-0.78737015 0.85836107 0.1383217 4278190080
-0.77100158 0.84642887 0.13588431 4278190080
-0.76471329 0.84543449 0.13527498 4278190080
-0.75512493 0.84071469 0.13405629 4278190080
-0.73236585 0.82112354 0.1304002 4278190080
-0.71304345 0.80509919 0.12735346 4278190080
-0.70695144 0.80385667 0.12674411 4278190080
-0.7041412 0.80631942 0.12674411 4278190080
-0.69807088 0.80502319 0.12613477 4278190080
-0.69525665 0.807455 0.12613477 4278190080
-0.69243389 0.80987692 0.12613477 4278190080
-0.68624985 0.80862546 0.12552541 4278190080
-0.68342286 0.81101614 0.12552541 4278190080
-0.67740309 0.80959064 0.12491608 4278190080
-0.67457306 0.81195027 0.12491608 4278190080
-0.66857672 0.81047171 0.12430673 4278190080
-0.66574359 0.81280053 0.12430673 4278190080
-0.65977097 0.81126934 0.12369739 4278190080
-0.65693516 0.8135674 0.12369739 4278190080
-0.65098703 0.81198359 0.12308803 4278190080
-0.64505804 0.81036818 0.12247869 4278190080
-0.63900697 0.808833 0.12186934 4278190080
-0.6331169 0.80715376 0.12125999 4278190080
-0.63029563 0.80935878 0.12125999 4278190080
-0.62443107 0.80762786 0.12065064 4278190080
-0.62160796 0.80980271 0.12065064 4278190080
-0.61576939 0.80802035 0.1200413 4278190080
-0.6129452 0.81016487 0.1200413 4278190080
-0.6101135 0.81229949 0.1200413 4278190080
-0.60430783 0.81044573 0.11943195 4278190080
-0.59852237 0.8085615 0.1188226 4278190080
-0.59275764 0.8066467 0.11821326 4278190080
-0.58993834 0.80871087 0.11821326 4278190080
-0.58420116 0.80674565 0.11760391 4278190080
-0.58138156 0.80877995 0.11760391 4278190080
-0.57567209 0.80676484 0.11699457 4278190080
-0.57285249 0.80876935 0.11699457 4278190080
-0.57002592 0.81076401 0.11699457 4278190080
-0.56435227 0.8086791 0.11638522 4278190080
-0.56138444 0.8107422 0.11638522 4278190080
-0.55574012 0.80860692 0.11577588 4278190080
-0.55291426 0.81054187 0.11577588 4278190080
-0.54729927 0.80835748 0.11516653 4278190080
-0.54170614 0.806144 0.11455718 4278190080
-0.53613538 0.8039012 0.11394784 4278190080
-0.53332603 0.80576771 0.11394784 4278190080
-0.52778554 0.80347657 0.11333849 4278190080
-0.52497768 0.80531394 0.11333849 4278190080
-0.52216327 0.80714166 0.11333849 4278190080
-0.51666158 0.80478317 0.11272914 4278190080
-0.51384926 0.80658174 0.11272914 4278190080
-0.51103067 0.80837047 0.11272914 4278190080
-0.50556868 0.80594534 0.11211979 4278190080
-0.50275213 0.80770528 0.11211979 4278190080
-0.49732193 0.80523294 0.11151045 4278190080
-0.49450815 0.80696398 0.11151045 4278190080
-0.48911011 0.80444473 0.11090109 4278190080
-0.48615831 0.80623209 0.11090109 4278190080
-0.4807933 0.80366534 0.11029175 4278190080
-0.47798508 0.80533874 0.11029175 4278190080
-0.47517106 0.80700225 0.11029175 4278190080
-0.46984795 0.80437088 0.1096824 4278190080
-0.46703735 0.80600601 0.1096824 4278190080
-0.46408018 0.80771232 0.1096824 4278190080
-0.45880041 0.8050158 0.10907306 4278190080
-0.45598763 0.80661237 0.10907306 4278190080
-0.45074213 0.80387044 0.10846371 4278190080
-0.44793341 0.80543894 0.10846371 4278190080
-0.44272232 0.802652 0.10785437 4278190080
-0.43991768 0.8041926 0.10785437 4278190080
-0.43710789 0.80572331 0.10785437 4278190080
-0.43429276 0.80724418 0.10785437 4278190080
-0.43147236 0.80875516 0.10785437 4278190080
-0.42632601 0.80586964 0.10724502 4278190080
-0.42351022 0.80735296 0.10724502 4278190080
-0.41839951 0.80442357 0.10663567 4278190080
-0.41558903 0.80587918 0.10663567 4278190080
-0.4105143 0.80290622 0.10602633 4278190080
-0.40770918 0.80433428 0.10602633 4278190080
-0.40489888 0.80575264 0.10602633 4278190080
-0.40208384 0.80716103 0.10602633 4278190080
-0.39692637 0.80417913 0.10541698 4278190080
-0.39411688 0.80555975 0.10541698 4278190080
-0.38913697 0.8024652 0.10480763 4278190080
-0.38633353 0.80381864 0.10480763 4278190080
-0.38352534 0.80516225 0.10480763 4278190080
-0.37859401 0.80200827 0.10419828 4278190080
-0.37565187 0.8033905 0.10419828 4278190080
-0.37284526 0.80469686 0.10419828 4278190080
-0.37003413 0.80599344 0.10419828 4278190080
-0.36721846 0.80728018 0.10419828 4278190080
-0.36235905 0.80403268 0.10358894 4278190080
-0.35955027 0.80529267 0.10358894 4278190080
-0.35673714 0.80654275 0.10358894 4278190080
-0.35192806 0.8032375 0.10297959 4278190080
-0.34912214 0.80446106 0.10297959 4278190080
-0.34435195 0.80111551 0.10237025 4278190080
-0.34155348 0.80231267 0.10237025 4278190080
-0.33875084 0.8035 0.10237025 4278190080
-0.33594409 0.80467755 0.10237025 4278190080
-0.33313322 0.80584526 0.10237025 4278190080
-0.32829821 0.8024677 0.1017609 4278190080
-0.32549512 0.80360878 0.1017609 4278190080
-0.32254747 0.8047964 0.1017609 4278190080
-0.31790614 0.80130446 0.10115156 4278190080
-0.31524715 0.80235428 0.10115156 4278190080
-0.31244454 0.80344975 0.10115156 4278190080
-0.30949754 0.80458957 0.10115156 4278190080
-0.30492163 0.80102694 0.10054221 4278190080
-0.3021237 0.80208641 0.10054221 4278190080
-0.2993221 0.80313611 0.10054221 4278190080
-0.29493943 0.79946834 0.099932864 4278190080
-0.29214701 0.800493 0.099932864 4278190080
-0.28935105 0.80150789 0.099932864 4278190080
-0.28488249 0.79783934 0.099323511 4278190080
-0.28195646 0.79887807 0.099323511 4278190080
-0.27916619 0.79985744 0.099323511 4278190080
-0.27637228 0.80082709 0.099323511 4278190080
-0.27197266 0.79709005 0.098714165 4278190080
-0.26918867 0.79803455 0.098714165 4278190080
-0.26640141 0.79896933 0.098714165 4278190080
-0.2636109 0.79989433 0.098714165 4278190080
-0.26081699 0.80080974 0.098714165 4278190080
-0.25636068 0.79703587 0.09810482 4278190080
-0.25357699 0.79792589 0.09810482 4278190080
-0.25079 0.79880619 0.09810482 4278190080
-0.24653013 0.79493666 0.097495466 4278190080
-0.24375382 0.7957924 0.097495466 4278190080
-0.24097455 0.79663837 0.097495466 4278190080
-0.23819233 0.79747468 0.097495466 4278190080
-0.23540701 0.79830128 0.097495466 4278190080
-0.23261903 0.79911816 0.097495466 4278190080
-0.22982821 0.79992527 0.097495466 4278190080
-0.22703458 0.80072266 0.097495466 4278190080
-0.22290112 0.79673105 0.096886121 4278190080
-0.21997938 0.79754269 0.096886121 4278190080
-0.21719413 0.79830569 0.096886121 4278190080
-0.21312012 0.79426575 0.096276775 4278190080
-0.21034636 0.79500484 0.096276775 4278190080
-0.20756982 0.79573429 0.096276775 4278190080
-0.20479096 0.79645401 0.096276775 4278190080
-0.20187056 0.79719919 0.096276775 4278190080
-0.19908641 0.79789907 0.096276775 4278190080
-0.19630006 0.79858911 0.096276775 4278190080
-0.1935111 0.7992695 0.096276775 4278190080
-0.1907202 0.79994005 0.096276775 4278190080
-0.18792656 0.80060095 0.096276775 4278190080
-0.18401384 0.7964167 0.095667429 4278190080
-0.18123253 0.79705417 0.095667429 4278190080
-0.17844902 0.79768199 0.095667429 4278190080
-0.17566375 0.79829997 0.095667429 4278190080
-0.17182633 0.79405791 0.095058084 4278190080
-0.16905376 0.79465276 0.095058084 4278190080
-0.16613978 0.79526711 0.095058084 4278190080
-0.16236512 0.79098082 0.094448738 4278190080
-0.15960293 0.79154277 0.094448738 4278190080
-0.15683921 0.79209501 0.094448738 4278190080
-0.15407316 0.79263771 0.094448738 4278190080
-0.15130523 0.79317069 0.094448738 4278190080
-0.14853588 0.79369396 0.094448738 4278190080
-0.14576429 0.79420763 0.094448738 4278190080
-0.14285251 0.79473656 0.094448738 4278190080
-0.14007732 0.79523039 0.094448738 4278190080
-0.13730086 0.79571444 0.094448738 4278190080
-0.13452229 0.79618889 0.094448738 4278190080
-0.13174251 0.79665357 0.094448738 4278190080
-0.12816811 0.79220963 0.093839392 4278190080
-0.12540182 0.79265219 0.093839392 4278190080
-0.12187607 0.78818065 0.093230046 4278190080
-0.1191239 0.78860128 0.093230046 4278190080
-0.11564658 0.78410262 0.092620701 4278190080
-0.11277162 0.78452128 0.092620701 4278190080
-0.11003269 0.78491014 0.092620701 4278190080
-0.10729201 0.78528947 0.092620701 4278190080
-0.10455001 0.78565919 0.092620701 4278190080
-0.10244463 0.79094094 0.093230046 4278190080
-0.099682935 0.79129374 0.093230046 4278190080
-0.096782148 0.79165375 0.093230046 4278190080
-0.094018005 0.79198682 0.093230046 4278190080
-0.091253132 0.79231012 0.093230046 4278190080
-0.088486731 0.79262388 0.093230046 4278190080
-0.085719667 0.79292786 0.093230046 4278190080
-0.082434982 0.78828645 0.092620701 4278190080
-0.079682678 0.78856945 0.092620701 4278190080
-0.076929823 0.78884274 0.092620701 4278190080
-0.074175611 0.78910649 0.092620701 4278190080
-0.071420915 0.78936058 0.092620701 4278190080
-0.068526983 0.78961706 0.092620701 4278190080
-0.06618236 0.79479706 0.093230046 4278190080
-0.063407429 0.79502326 0.093230046 4278190080
-0.060631722 0.79523975 0.093230046 4278190080
-0.057855699 0.79544652 0.093230046 4278190080
-0.055078551 0.79564369 0.093230046 4278190080
-0.052301157 0.79583108 0.093230046 4278190080
-0.049522698 0.79600877 0.093230046 4278190080
-0.046604969 0.79618496 0.093230046 4278190080
-0.043552607 0.79138756 0.092620701 4278190080
-0.040790137 0.79153472 0.092620701 4278190080
-0.038026746 0.79167229 0.092620701 4278190080
-0.035262894 0.79180026 0.092620701 4278190080
-0.032499034 0.79191852 0.092620701 4278190080
-0.029734356 0.79202712 0.092620701 4278190080
-0.026969738 0.79212606 0.092620701 4278190080
-0.02420437 0.79221541 0.092620701 4278190080
-0.021438705 0.79229504 0.092620701 4278190080
-0.018673202 0.79236507 0.092620701 4278190080
-0.015907049 0.79242539 0.092620701 4278190080
-0.013141125 0.79247612 0.092620701 4278190080
-0.010374618 0.79251719 0.092620701 4278190080
-0.0076079848 0.79254854 0.092620701 4278190080
-0.0048416811 0.79257029 0.092620701 4278190080
-0.0019368514 0.79258269 0.092620701 4278190080
0.00082995923 0.79258466 0.092620701 4278190080
0.0035967596 0.79257691 0.092620701 4278190080
0.0063630943 0.7925595 0.092620701 4278190080
0.0091297729 0.7925325 0.092620701 4278190080
0.011895919 0.79249579 0.092620701 4278190080
0.014662342 0.79244941 0.092620701 4278190080
0.017319458 0.7874319 0.092011355 4278190080
0.020067751 0.78736663 0.092011355 4278190080
0.022816218 0.78729177 0.092011355 4278190080
0.025701517 0.78720289 0.092011355 4278190080
0.028270122 0.7821489 0.091402009 4278190080
0.031136535 0.78204 0.091402009 4278190080
0.033866342 0.78192657 0.091402009 4278190080
0.036459152 0.78180993 0.091402009 4278190080
0.039187703 0.78167796 0.091402009 4278190080
0.041916195 0.7815364 0.091402009 4278190080
0.044643763 0.7813853 0.091402009 4278190080
0.047507685 0.78121644 0.091402009 4278190080
0.050234098 0.78104585 0.091402009 4278190080
0.052960318 0.78086573 0.091402009 4278190080
0.05603857 0.78562629 0.092011355 4278190080
0.058780741 0.78542584 0.092011355 4278190080
0.061522197 0.78521585 0.092011355 4278190080
0.064262487 0.78499633 0.092011355 4278190080
0.067002416 0.78476727 0.092011355 4278190080
0.0697411 0.78452861 0.092011355 4278190080
0.07247936 0.78428036 0.092011355 4278190080
0.075353287 0.78400946 0.092011355 4278190080
0.078089699 0.78374165 0.092011355 4278190080
0.080825157 0.78346425 0.092011355 4278190080
0.083559215 0.78317738 0.092011355 4278190080
0.086292677 0.7828809 0.092011355 4278190080
0.089024663 0.78257495 0.092011355 4278190080
0.091755986 0.7822594 0.092011355 4278190080
0.094486184 0.78193432 0.092011355 4278190080
0.097214818 0.78159976 0.092011355 4278190080
0.099942684 0.78125566 0.092011355 4278190080
0.10345311 0.78580439 0.092620701 4278190080
0.10619561 0.78543848 0.092620701 4278190080
0.10893641 0.78506303 0.092620701 4278190080
0.1116763 0.78467798 0.092620701 4278190080
0.1144144 0.7842834 0.092620701 4278190080
0.11715153 0.78387922 0.092620701 4278190080
0.12002369 0.78344458 0.092620701 4278190080
0.12275786 0.78302079 0.092620701 4278190080
0.12549011 0.78258759 0.092620701 4278190080
0.12822126 0.78214473 0.092620701 4278190080
0.13177077 0.78658688 0.093230046 4278190080
0.13451542 0.7861222 0.093230046 4278190080
0.13725884 0.78564781 0.093230046 4278190080
0.14000018 0.78516394 0.093230046 4278190080
0.14274023 0.78467047 0.093230046 4278190080
0.14638378 0.78904682 0.093839392 4278190080
0.14927468 0.78850502 0.093839392 4278190080
0.1510862 0.78310627 0.093230046 4278190080
0.15381858 0.78257418 0.093230046 4278190080
0.1565495 0.78203243 0.093230046 4278190080
0.158287 0.77661854 0.092620701 4278190080
0.16099711 0.77606124 0.092620701 4278190080
0.16370524 0.77549446 0.092620701 4278190080
0.16641098 0.77491838 0.092620701 4278190080
0.17030972 0.7791515 0.093230046 4278190080
0.17302859 0.77855223 0.093230046 4278190080
0.17683893 0.78278422 0.093839392 4278190080
0.17957003 0.78216219 0.093839392 4278190080
0.18229936 0.78153062 0.093839392 4278190080
0.18502605 0.78088957 0.093839392 4278190080
0.18775091 0.78023887 0.093839392 4278190080
0.19047347 0.77957875 0.093839392 4278190080
0.19319329 0.77890915 0.093839392 4278190080
0.19591118 0.77823001 0.093839392 4278190080
0.19862626 0.77754146 0.093839392 4278190080
0.20133935 0.77684337 0.093839392 4278190080
0.20418516 0.77610022 0.093839392 4278190080
0.20689318 0.7753827 0.093839392 4278190080
0.21089482 0.77944624 0.094448738 4278190080
0.21361406 0.77870536 0.094448738 4278190080
0.21633112 0.77795494 0.094448738 4278190080
0.22039138 0.78197175 0.095058084 4278190080
0.22325626 0.78115863 0.095058084 4278190080
0.22598141 0.78037465 0.095058084 4278190080
0.22870421 0.77958101 0.095058084 4278190080
0.23142381 0.77877802 0.095058084 4278190080
0.23414101 0.77796543 0.095058084 4278190080
0.23830219 0.78189045 0.095667429 4278190080
0.24102978 0.78105396 0.095667429 4278190080
0.24523479 0.78494471 0.096276775 4278190080
0.24811 0.78404063 0.096276775 4278190080
0.25084546 0.78316975 0.096276775 4278190080
0.25357747 0.78228945 0.096276775 4278190080
0.25630677 0.78139949 0.096276775 4278190080
0.25903258 0.78050011 0.096276775 4278190080
0.26175562 0.77959114 0.096276775 4278190080
0.26620793 0.78332531 0.096886121 4278190080
0.26894078 0.78239125 0.096886121 4278190080
0.27167037 0.78144765 0.096886121 4278190080
0.27439624 0.78049469 0.096886121 4278190080
0.27725494 0.7794838 0.096886121 4278190080
0.27997431 0.77851117 0.096886121 4278190080
0.28269029 0.77752906 0.096886121 4278190080
0.28540239 0.77653766 0.096886121 4278190080
0.28983968 0.78018868 0.097495466 4278190080
0.29256102 0.7791723 0.097495466 4278190080
0.29527923 0.77814627 0.097495466 4278190080
0.29977074 0.78174454 0.09810482 4278190080
0.30249745 0.78069347 0.09810482 4278190080
0.30703008 0.78425395 0.098714165 4278190080
0.30976552 0.7831775 0.098714165 4278190080
0.31249759 0.78209138 0.098714165 4278190080
0.31536189 0.78094083 0.098714165 4278190080
0.31808612 0.77983516 0.098714165 4278190080
0.32080647 0.77872002 0.098714165 4278190080
0.32352251 0.77759558 0.098714165 4278190080
0.32623503 0.77646148 0.098714165 4278190080
0.32894316 0.77531809 0.098714165 4278190080
0.33178291 0.7741071 0.098714165 4278190080
0.33448279 0.77294433 0.098714165 4278190080
0.33717901 0.77177203 0.098714165 4278190080
0.34187338 0.77513111 0.099323511 4278190080
0.34457716 0.77393299 0.099323511 4278190080
0.34931108 0.77725196 0.099932864 4278190080
0.35202184 0.77602804 0.099932864 4278190080
0.3567946 0.77930677 0.10054221 4278190080
0.35951245 0.77805668 0.10054221 4278190080
0.36222634 0.77679694 0.10054221 4278190080
0.36493585 0.77552772 0.10054221 4278190080
0.36764047 0.77424926 0.10054221 4278190080
0.37248534 0.77743667 0.10115156 4278190080
0.37519658 0.77613187 0.10115156 4278190080
0.37803903 0.77475131 0.10115156 4278190080
