# .PCD v0.7 - Point Cloud Data file format
VERSION 0.7
FIELDS x y z rgb
SIZE 4 4 4 4
TYPE F F F U
COUNT 1 1 1 1
WIDTH 1148
HEIGHT 1
VIEWPOINT 0 0 0 1 0 0 0
POINTS 1148
DATA ascii
2.4428818 -0.25444791 0.50295961 4294967295
2.4443331 -0.28473499 0.50203758 4294967295
2.4414549 -0.31461674 0.50490528 4294967295
2.4412496 -0.34397399 0.49918124 4294967295
2.4420593 -0.37501988 0.49596363 4294967295
2.4420717 -0.4045442 0.49603462 4294967295
2.4443078 -0.43278375 0.49647945 4294967295
2.4534998 -0.46417502 0.49835286 4294967295
2.4560001 -0.49313968 0.49547875 4294967295
2.4560001 -0.53872639 0.49547875 4294967295
2.4489999 -0.55705571 0.50330275 4294967295
2.4387498 -0.58417112 0.50302577 4294967295
2.4426315 -0.61455023 0.49891174 4294967295
2.4498 -0.6453687 0.49838424 4294967295
2.455615 -0.67538255 0.50118005 4294967295
2.4559999 -0.70138806 0.49962297 4294967295
2.4560001 -0.73246992 0.49547875 4294967295
2.4560001 -0.7723583 0.49547875 4294967295
2.4509165 -0.86362851 0.50074559 4294967295
2.4410837 -0.8762117 0.5107426 4294967295
2.4330001 -0.95140952 0.51828825 4294967295
2.4375002 -0.972247 0.51616824 4294967295
2.445087 2.2355375 0.47585958 4294967295
2.4452066 0.49303427 0.47405955 4294967295
2.4453995 0.46407118 0.47533938 4294967295
2.4459996 0.43445772 0.47598937 4294967295
2.4509616 0.40745127 0.47367045 4294967295
2.4528825 0.37386632 0.46940589 4294967295
2.4490342 0.34315911 0.47557187 4294967295
2.4359999 0.32161877 0.4793568 4294967295
2.4392729 0.12504905 0.48022714 4294967295
2.4517999 0.11410511 0.4733389 4294967295
2.4466667 0.041399948 0.4842205 4294967295
2.4436667 0.0063730041 0.48805049 4294967295
2.451 -0.025823155 0.46140823 4294967295
2.4497778 -0.048544854 0.46333432 4294967295
2.4469166 -0.078764617 0.4731181 4294967295
2.4433334 -0.10510768 0.47578648 4294967295
2.4428995 -0.13342986 0.47578746 4294967295
2.4378519 -0.16121343 0.47324538 4294967295
2.4330001 -0.18792653 0.46324977 4294967295
2.4340003 -0.35256001 0.46808681 4294967295
2.4381151 -0.37467 0.4727971 4294967295
2.4367273 -0.40343329 0.46534169 4294967295
2.4366002 -0.43611059 0.47760016 4294967295
2.4394 -0.46679324 0.48508817 4294967295
2.441304 -0.49732861 0.47767156 4294967295
2.4474514 -0.52494854 0.47616926 4294967295
2.4450276 -0.55616587 0.47574201 4294967295
2.4413602 -0.58649552 0.47295797 4294967295
2.4426539 -0.61558282 0.4735834 4294967295
2.4515665 -0.64583719 0.47560698 4294967295
2.4560001 -0.66408986 0.48693123 4294967295
2.4531603 -0.70793831 0.47320515 4294967295
2.4478238 -0.73469663 0.47604275 4294967295
2.4490688 -0.76489091 0.47617093 4294967295
2.4526074 -0.79344344 0.47459155 4294967295
2.4526448 -0.82526928 0.47349128 4294967295
2.4482892 -0.85691631 0.47627699 4294967295
2.4472003 2.2615447 0.44076091 4294967295
2.4458332 2.2436347 0.4520691 4294967295
2.4400911 0.4884437 0.45087093 4294967295
2.4408636 0.46415189 0.44750226 4294967295
2.4364996 0.4341155 0.44857281 4294967295
2.4345 0.40550798 0.45521337 4294967295
2.4394286 0.3737317 0.4544121 4294967295
2.4375 0.34946859 0.45513472 4294967295
2.4330001 0.12113585 0.45337105 4294967295
2.4461765 0.107094 0.44250333 4294967295
2.4510002 0.076540463 0.43582255 4294967295
2.444375 0.054359522 0.44101772 4294967295
2.4330001 -0.02563351 0.45619357 4294967295
2.4379091 -0.046765458 0.4534989 4294967295
2.4330001 -0.06702999 0.45431191 4294967295
2.4330001 -0.11595312 0.45054859 4294967295
2.4329994 -0.13571052 0.44490358 4294967295
2.4354234 -0.16627422 0.44527268 4294967295
2.4330001 -0.19121945 0.44866693 4294967295
2.4409044 -0.34503505 0.44438881 4294967295
2.4511156 -0.37339714 0.44478029 4294967295
2.4511724 -0.40450048 0.44394404 4294967295
2.4451151 -0.43486908 0.44494897 4294967295
2.4418619 -0.46528226 0.44422203 4294967295
2.4333596 -0.4942379 0.4448908 4294967295
2.4349999 -0.52408105 0.44955415 4294967295
2.4335625 -0.55532742 0.45088664 4294967295
2.4378572 -0.58687311 0.45041522 4294967295
2.4445999 -0.61564231 0.44455594 4294967295
2.4538002 -0.64642221 0.44426253 4294967295
2.454864 -0.67516983 0.44267783 4294967295
2.443939 -0.70513654 0.4445737 4294967295
2.4340003 -0.73217857 0.45365846 4294967295
2.4353998 -0.76852143 0.44935524 4294967295
2.4420397 -0.79631096 0.44463331 4294967295
2.4493043 -0.82609648 0.44513747 4294967295
2.4517143 -0.85693449 0.44472206 4294967295
2.4406669 -0.87449074 0.43963143 4294967295
2.4462857 2.2621 0.41910234 4294967295
2.445389 2.2396033 0.41017702 4294967295
2.4360001 0.098670512 0.42785519 4294967295
2.4347999 0.076040611 0.42790058 4294967295
2.4330001 -0.1413555 0.42796868 4294967295
2.4330001 -0.1573496 0.42608702 4294967295
2.4342859 -0.3483901 0.42550075 4294967295
2.4424999 -0.37709168 0.42316636 4294967295
2.4448667 -0.40582076 0.42185843 4294967295
2.4437225 -0.43585846 0.42001688 4294967295
2.4428182 -0.46497753 0.41988158 4294967295
2.4330003 -0.48946235 0.42608702 4294967295
2.4342859 -0.61949211 0.42469433 4294967295
2.4430714 -0.64439929 0.42233682 4294967295
2.4437001 -0.67464697 0.41935807 4294967295
2.4405835 -0.6995424 0.42390883 4294967295
2.4385557 -0.80019599 0.42336336 4294967295
2.4466472 -0.82551908 0.41878432 4294967295
2.4487224 -0.85496873 0.42012575 4294967295
2.4394002 -0.87579715 0.42546442 4294967295
2.4441502 2.2264042 0.38417131 4294967295
2.4330001 2.2154217 0.39409882 4294967295
2.4436667 2.2837243 0.34440798 4294967295
2.4393077 2.2603319 0.34674883 4294967295
2.4432499 2.2407212 0.35610706 4294967295
2.4477777 2.2881961 0.32517523 4294967295
2.4460998 2.2642348 0.32531214 4294967295
2.4522083 2.2388296 0.32388061 4294967295
2.451 2.285836 0.30786631 4294967295
2.4502001 2.2626326 0.29770356 4294967295
2.4536471 2.2442639 0.29725701 4294967295
2.4504001 2.2574124 0.27266461 4294967295
2.4539168 2.2468007 0.26395851 4294967295
2.447 2.2508795 0.24576047 4294967295
2.4457366 2.2317762 0.2378439 4294967295
2.446125 2.2117352 0.22528556 4294967295
2.4445 2.2608657 0.19687736 4294967295
2.4386156 2.2326941 0.20012039 4294967295
2.4450452 2.2114067 0.2083289 4294967295
2.451 2.2829926 0.1770713 4294967295
2.4487598 2.2620475 0.17624921 4294967295
2.4483712 2.2326553 0.17501155 4294967295
2.4513333 2.2169454 0.16186157 4294967295
2.4464669 2.2594719 0.14288571 4294967295
2.4396317 2.2339771 0.14619514 4294967295
2.4437392 2.2128565 0.14357883 4294967295
2.4560001 2.2852077 0.11450407 4294967295
2.4505 2.2639217 0.11382622 4294967295
2.4494998 2.2332783 0.11476344 4294967295
2.4547501 2.2167156 0.12101391 4294967295
2.4535 2.2881706 0.097025961 4294967295
2.4426363 2.2633505 0.094269663 4294967295
2.4406252 2.2311828 0.09500587 4294967295
2.4437499 2.2118654 0.081426054 4294967295
2.4424999 2.2098873 0.055004179 4294967295
2.4458003 2.2242091 0.017782986 4294967295
2.4430001 2.2167695 0.031345755 4294967295
2.4497499 2.2363534 0.00056695938 4294967295
2.4560001 2.2620075 -0.025919318 4294967295
2.4560001 2.2838511 -0.13513744 4294967295
2.4512727 2.2615328 -0.13059407 4294967295
2.4458001 2.2357633 -0.12445068 4294967295
2.4447858 2.2030413 -0.12268835 4294967295
2.4406667 2.1865337 -0.13481653 4294967295
2.4560001 2.2876499 -0.14273524 4294967295
2.445941 2.2645969 -0.15370387 4294967295
2.4362729 2.2389536 -0.1579752 4294967295
2.4454286 2.198318 -0.16133773 4294967295
2.44575 2.1887259 -0.14847684 4294967295
2.4560001 2.2819517 -0.1769253 4294967295
2.4535999 2.260936 -0.18194145 4294967295
2.4524736 2.2373462 -0.18461716 4294967295
2.4509091 2.2110395 -0.17910588 4294967295
2.4560001 2.2591581 -0.22251207 4294967295
2.4559999 2.2430992 -0.21681368 4294967295
2.4560001 2.2553594 -0.23580813 4294967295
2.4560001 2.2477615 -0.23960704 4294967295
2.4856668 0.79562575 1.9062164 4294967295
2.4823334 -0.89198214 1.9043529 4294967295
2.4700003 2.2834978 1.8707361 4294967295
2.4600003 2.2694964 1.8719264 4294967295
2.4611113 1.1795549 1.8899869 4294967295
2.4608328 1.1583318 1.8890389 4294967295
2.46 1.1355827 1.888098 4294967295
2.4731736 0.8019647 1.8839343 4294967295
2.4748948 -0.89644647 1.886091 4294967295
2.4649999 -0.90101141 1.8851594 4294967295
2.4787085 2.2893763 1.8539031 4294967295
2.4775791 2.2649193 1.8539621 4294967295
2.4747055 2.2349615 1.8511407 4294967295
2.475368 2.2062237 1.8440268 4294967295
2.4693077 2.1762037 1.8425812 4294967295
2.4671431 2.1426604 1.8421835 4294967295
2.4657695 2.1145556 1.8442122 4294967295
2.4600003 2.0887551 1.8452908 4294967295
2.4706001 1.7209387 1.8498417 4294967295
2.4721515 1.69521 1.8562412 4294967295
2.4677143 1.6695751 1.8510737 4294967295
2.4680002 1.5681684 1.8421531 4294967295
2.4756927 1.5440003 1.8448818 4294967295
2.47369 1.5168329 1.8497654 4294967295
2.4670002 1.4889172 1.8471448 4294967295
2.4600003 1.4694784 1.842437 4294967295
2.4686153 1.4204193 1.843533 4294967295
2.4705496 1.3963848 1.8466607 4294967295
2.4741921 1.3644491 1.845404 4294967295
2.4730346 1.3363812 1.848822 4294967295
2.4732308 1.3056663 1.849089 4294967295
2.4704778 1.2763641 1.8490509 4294967295
2.469826 1.2451229 1.8479511 4294967295
2.4682105 1.2172841 1.8480438 4294967295
2.4633334 1.1923705 1.8451763 4294967295
2.4717143 0.99966204 1.8421718 4294967295
2.4727497 0.974011 1.846414 4294967295
2.4795949 0.94442052 1.8544958 4294967295
2.4752581 0.91633517 1.8557976 4294967295
2.4650002 0.89482385 1.8451172 4294967295
2.4768498 0.79680729 1.8537807 4294967295
2.4743335 -0.89865971 1.8673426 4294967295
2.475857 -0.90332699 1.8505324 4294967295
2.4840002 2.2866397 1.827682 4294967295
2.4870431 2.2656281 1.824114 4294967295
2.4890003 2.2426727 1.8285106 4294967295
2.4873335 2.1937187 1.8359678 4294967295
2.484417 2.1728909 1.8353767 4294967295
2.482125 2.1447244 1.8312764 4294967295
2.4799654 2.1145277 1.8281471 4294967295
2.4774663 2.0845928 1.8307179 4294967295
2.4745927 2.0540109 1.8281294 4294967295
2.4759603 2.0240376 1.8206484 4294967295
2.4744999 1.9950113 1.8188007 4294967295
2.4713793 1.964846 1.8218397 4294967295
2.47 1.9361535 1.8206345 4294967295
2.4730871 1.9056377 1.8182759 4294967295
2.473815 1.8746077 1.8205103 4294967295
2.4719646 1.8451144 1.8224261 4294967295
2.4690003 1.8154744 1.8236809 4294967295
2.4683464 1.7852573 1.8235589 4294967295
2.4677417 1.7544657 1.8264512 4294967295
2.4768655 1.7257135 1.8249347 4294967295
2.4848068 1.6961184 1.8237731 4294967295
2.4799712 1.6650363 1.8247017 4294967295
2.476258 1.6355926 1.8229715 4294967295
2.4778571 1.6053779 1.8290149 4294967295
2.4780004 1.5771166 1.8356646 4294967295
2.4865003 1.5465868 1.8350401 4294967295
2.4881663 1.5137268 1.8253419 4294967295
2.4808521 1.4851311 1.827195 4294967295
2.4771035 1.4550736 1.8289093 4294967295
2.4837186 1.4279857 1.8281548 4294967295
2.4843333 1.3956339 1.8355269 4294967295
2.4865 1.3641453 1.836488 4294967295
2.4875712 1.3313537 1.8312826 4294967295
2.4812002 1.3046095 1.8248141 4294967295
2.4778094 1.2728794 1.826827 4294967295
2.4810314 1.2440367 1.8260317 4294967295
2.4784815 1.2140852 1.8253086 4294967295
2.4709001 1.1841848 1.8230503 4294967295
2.4744053 1.1550105 1.8222125 4294967295
2.4743123 1.1256628 1.8292824 4294967295
2.477793 1.0953083 1.8299689 4294967295
2.4802496 1.064356 1.8315079 4294967295
2.4784999 1.0342791 1.8327967 4294967295
2.4803941 1.0053958 1.825826 4294967295
2.4732854 0.97352636 1.8263559 4294967295
2.473 0.94580841 1.8226614 4294967295
2.4787223 0.91609979 1.8256706 4294967295
2.4733 0.88597941 1.8239406 4294967295
2.4727776 0.85684562 1.8155026 4294967295
2.4688749 0.82390827 1.8146179 4294967295
2.4771931 0.79836547 1.8247719 4294967295
2.4769688 -0.91487998 1.823875 4294967295
2.4678001 -0.93409497 1.816849 4294967295
2.4730771 2.2881076 1.8018012 4294967295
2.4758067 2.262167 1.794609 4294967295
2.4865003 2.2449012 1.7908212 4294967295
2.4890003 1.9834434 1.8060527 4294967295
2.4866672 1.963122 1.8033032 4294967295
2.4846256 1.9349152 1.7963865 4294967295
2.4875932 1.906927 1.7981043 4294967295
2.4874091 1.8743581 1.7997156 4294967295
2.4830389 1.8439713 1.7958678 4294967295
2.4815004 1.8149 1.7950484 4294967295
2.4794171 1.7848457 1.7958057 4294967295
2.4808424 1.7550231 1.7951461 4294967295
2.4845717 1.7260925 1.7968315 4294967295
2.4885004 1.6989741 1.8029069 4294967295
2.4890003 1.6658237 1.8060527 4294967295
2.4890003 1.5086179 1.799636 4294967295
2.4853337 1.4846159 1.795505 4294967295
2.4836974 1.4532433 1.793878 4294967295
2.4867272 1.432463 1.8001523 4294967295
2.4842777 1.3043449 1.7984833 4294967295
2.4764478 1.2756189 1.7965806 4294967295
2.4789996 1.2485262 1.7995534 4294967295
2.4875715 1.2138602 1.8069612 4294967295
2.484 1.1841198 1.8059301 4294967295
2.4873333 1.1664739 1.8071126 4294967295
2.4865 0.99493432 1.8047552 4294967295
2.4784 0.97305828 1.796641 4294967295
2.4711716 0.94473326 1.7927176 4294967295
2.4739089 0.91492015 1.7944189 4294967295
2.4808748 0.88930404 1.7992077 4294967295
2.487 0.85433924 1.8073245 4294967295
2.4847894 0.82159549 1.803561 4294967295
2.4873335 0.80482161 1.8042252 4294967295
2.4812331 -0.91670704 1.7957064 4294967295
2.469625 -0.93492621 1.8017673 4294967295
2.4700003 2.2834978 1.7761775 4294967295
2.468677 2.2637267 1.7652346 4294967295
2.4824166 2.2435975 1.7637745 4294967295
2.4890003 1.9343568 1.7714032 4294967295
2.4890003 1.9141446 1.7714033 4294967295
2.4890003 1.8159711 1.7771782 4294967295
2.4890003 1.7870965 1.7771782 4294967295
2.4890003 1.7537305 1.7714032 4294967295
2.4890003 1.7351224 1.7771782 4294967295
2.4890003 1.4839141 1.7771782 4294967295
2.4890001 1.4600927 1.7750126 4294967295
2.485667 0.93500423 1.7774117 4294967295
2.4840002 0.91900527 1.7775285 4294967295
2.4741664 -0.91390604 1.7664891 4294967295
2.4684722 2.2602561 1.7329065 4294967295
2.4826193 2.2441275 1.7399305 4294967295
2.4890003 1.7564453 1.7354212 4294967295
2.475143 -0.90675032 1.7361103 4294967295
2.4742813 2.2613943 1.7098 4294967295
2.4890003 2.2445972 1.6982543 4294967295
2.4865003 -0.89828861 1.700917 4294967295
2.4709089 -0.90316039 1.7080972 4294967295
2.4738235 2.2576449 1.6746469 4294967295
2.4830906 2.2334225 1.6724139 4294967295
2.4890003 2.2144396 1.667455 4294967295
2.4847145 -0.89832759 1.6769843 4294967295
2.474 -0.9017449 1.6739255 4294967295
2.4646668 2.2556827 1.6451112 4294967295
2.4799464 2.2404125 1.6464771 4294967295
2.4890001 -0.89823419 1.6328055 4294967295
2.4735835 -0.90222794 1.6455148 4294967295
2.4600003 2.2856681 1.602717 4294967295
2.4703588 2.2614603 1.6125593 4294967295
2.485667 2.2418993 1.6146449 4294967295
2.4848335 -0.89768708 1.6136526 4294967295
2.474 -0.9017449 1.615258 4294967295
2.4694448 2.2855303 1.5839518 4294967295
2.4715488 2.2653122 1.5861585 4294967295
2.4790282 2.2335055 1.5844123 4294967295
2.4865003 2.212687 1.5816878 4294967295
2.4860001 -0.89426398 1.5853182 4294967295
2.471 -0.90537351 1.5840719 4294967295
2.4722223 2.2916059 1.5567889 4294967295
2.4761896 2.2649786 1.5554786 4294967295
2.4812226 2.2362823 1.564396 4294967295
2.4890003 2.2144396 1.5692816 4294967295
2.4890001 0.53971714 1.5461819 4294967295
2.4873335 -0.89570773 1.5570329 4294967295
2.4722223 -0.90554935 1.5558274 4294967295
2.4735553 2.2874205 1.5238727 4294967295
2.4787998 2.2695334 1.5242547 4294967295
2.474 0.54794472 1.5285174 4294967295
2.4791667 0.53374463 1.5239167 4294967295
2.4890001 -0.89823419 1.5259697 4294967295
2.4718885 -0.9047901 1.5241506 4294967295
2.4723334 2.2870877 1.496766 4294967295
2.4793429 2.2656479 1.4937088 4294967295
2.4890003 2.249089 1.482658 4294967295
2.4765 0.52838486 1.5008013 4294967295
2.4739335 -0.91534817 1.4949975 4294967295
2.4650002 -0.93246132 1.4819486 4294967295
2.4790003 2.2822323 1.4711214 4294967295
2.4790003 2.2626476 1.4642069 4294967295
2.4861429 2.2418282 1.4634264 4294967295
2.4764092 -0.91978252 1.4649829 4294967295
2.4633334 -0.93278408 1.4746335 4294967295
2.4777503 2.2604752 1.4337518 4294967295
2.4859443 2.2434356 1.4366124 4294967295
2.4754543 -0.91472578 1.4358933 4294967295
2.4700003 2.2834978 1.4036741 4294967295
2.4734519 2.2631645 1.4063017 4294967295
2.4838331 2.2363329 1.402097 4294967295
2.477 -0.91896272 1.404597 4294967295
2.472667 2.2865999 1.368608 4294967295
2.4714243 2.2653482 1.3761146 4294967295
2.4797566 2.2327104 1.3742509 4294967295
2.4890003 2.2144396 1.3787097 4294967295
2.4771304 -0.91416192 1.3741033 4294967295
2.4785001 2.2827296 1.3463368 4294967295
2.4797149 2.261858 1.3455031 4294967295
2.484926 2.2364287 1.3493217 4294967295
2.4776669 0.51426518 1.3422477 4294967295
2.4743845 -0.90796101 1.3467276 4294967295
2.4675002 2.286906 1.3154805 4294967295
2.47405 2.2619441 1.3158665 4294967295
2.4795001 0.51175827 1.3236344 4294967295
2.4745002 0.50786662 1.3076879 4294967295
2.4748335 -0.90794563 1.3140062 4294967295
2.4654448 2.2513006 1.2879615 4294967295
2.4758098 2.2448008 1.282791 4294967295
2.4649999 0.50591683 1.29322 4294967295
2.4762223 -0.9127574 1.2846036 4294967295
2.4755526 2.2293336 1.2543485 4294967295
2.4747143 -0.91793358 1.2548318 4294967295
2.4720418 2.2258506 1.227322 4294967295
2.483762 2.2081096 1.2202127 4294967295
2.4890003 2.1855652 1.2112374 4294967295
2.4765 0.49678531 1.216382 4294967295
2.4753332 -0.90936416 1.2246661 4294967295
2.4643333 2.2222164 1.195616 4294967295
2.4740005 2.2048981 1.1957716 4294967295
2.4843576 2.1868334 1.1934774 4294967295
2.474 0.4962838 1.1955914 4294967295
2.4890001 -0.89823419 1.1881378 4294967295
2.474 -0.90220451 1.1966331 4294967295
2.4704242 2.230365 1.1621187 4294967295
2.4807899 2.2054458 1.1674405 4294967295
2.4840004 2.1869266 1.1781449 4294967295
2.4750953 -0.90741748 1.1641612 4294967295
2.4620004 2.2521067 1.1260529 4294967295
2.478152 2.2373655 1.1362159 4294967295
2.4890003 2.2144396 1.1477134 4294967295
2.4806669 0.50337672 1.1398602 4294967295
2.4751499 -0.91331393 1.1356025 4294967295
2.4673243 2.2635257 1.1046476 4294967295
2.4814167 2.2380507 1.1048608 4294967295
2.4890001 -0.89823419 1.0957394 4294967295
2.4750454 -0.90883809 1.1066011 4294967295
2.4620309 2.2636268 1.0741525 4294967295
2.4773183 2.2341902 1.0748758 4294967295
2.4862731 2.2141025 1.076231 4294967295
2.47 0.50121224 1.0684211 4294967295
2.4769232 -0.89518863 1.072625 4294967295
2.4691253 -0.90465844 1.081118 4294967295
2.4728124 2.2577291 1.043031 4294967295
2.4796669 2.2457519 1.0552174 4294967295
2.4790001 0.49728683 1.0416609 4294967295
2.474 -0.8931936 1.0459623 4294967295
2.4698889 2.2550282 1.0206418 4294967295
2.4789443 2.2406077 1.0077809 4294967295
2.4790001 0.49728683 1.001399 4294967295
2.4680002 -0.89828432 1.0183703 4294967295
2.4840002 -0.90219307 1.0138888 4294967295
2.4716113 2.2247405 0.98881853 4294967295
2.4779375 2.2146332 0.98035532 4294967295
2.4840002 0.50212812 0.987005 4294967295
2.4744 -0.90559357 0.98096609 4294967295
2.4674375 2.2249467 0.95156258 4294967295
2.4801815 2.2138994 0.95480251 4294967295
2.4685001 0.51236254 0.95495772 4294967295
2.4762499 -0.91156644 0.9541831 4294967295
2.4763949 2.2355189 0.92458642 4294967295
2.4860003 2.2140689 0.93815601 4294967295
2.467 0.51205117 0.92466545 4294967295
2.484 0.50981641 0.92744696 4294967295
2.4890001 -0.89823419 0.91382986 4294967295
2.4758499 -0.90897787 0.92611182 4294967295
2.4725862 2.2575657 0.89055002 4294967295
2.4831331 2.2464561 0.89886451 4294967295
2.46 0.51059824 0.89497221 4294967295
2.4765 0.50827712 0.88887131 4294967295
2.4819999 -0.8962751 0.89429593 4294967295
2.471 -0.9054864 0.89779222 4294967295
2.4768667 2.2867684 0.86610281 4294967295
2.4786475 2.2642422 0.86668491 4294967295
2.487 2.2434292 0.86139321 4294967295
2.4759002 0.50527114 0.86580622 4294967295
2.4890001 -0.89823419 0.8676306 4294967295
2.4743528 -0.9047603 0.86473739 4294967295
2.4877501 2.3157797 0.83138466 4294967295
2.4832499 2.2943113 0.83428258 4294967295
2.4764998 2.2624514 0.83452874 4294967295
2.483583 2.2412972 0.83374476 4294967295
2.4790001 0.50303853 0.83843404 4294967295
2.4890001 -0.89823419 0.83009374 4294967295
2.4749997 -0.90465653 0.83409584 4294967295
2.473526 2.2921977 0.80763566 4294967295
2.4694805 2.2637608 0.80429137 4294967295
2.4783423 2.2351928 0.80516696 4294967295
2.4860003 2.2140687 0.79626727 4294967295
2.4845002 -0.89602572 0.80302417 4294967295
2.4682307 -0.90306026 0.80592662 4294967295
2.4625001 2.2908504 0.78679824 4294967295
2.461 2.2620416 0.78492343 4294967295
2.4691999 2.2330899 0.77721727 4294967295
2.4822254 2.2104368 0.7749998 4294967295
2.4728 0.5121001 0.77183497 4294967295
2.48 0.50899547 0.77602196 4294967295
2.4861429 -0.89719808 0.78110993 4294967295
2.4724705 -0.90507346 0.77369398 4294967295
2.4686522 2.2279515 0.74637258 4294967295
2.4816921 2.215229 0.74546909 4294967295
2.4738574 0.51264948 0.74621266 4294967295
2.47545 -0.90710723 0.74626714 4294967295
2.4655559 2.2234457 0.72229344 4294967295
2.4776955 2.2151017 0.71297109 4294967295
2.4840002 0.51557976 0.72284389 4294967295
2.4753332 -0.90333831 0.71590781 4294967295
2.4758694 2.2132211 0.6841014 4294967295
2.4760001 0.51966393 0.69058949 4294967295
2.4765556 -0.91352552 0.68616837 4294967295
2.4746668 2.2284434 0.65126932 4294967295
2.4780002 2.2167659 0.66454518 4294967295
2.4780002 0.52870083 0.653377 4294967295
2.4695001 -0.92843455 0.66151458 4294967295
2.4840002 -0.93388546 0.65658331 4294967295
2.461875 2.2545612 0.6189431 4294967295
2.4777391 2.2372477 0.62573016 4294967295
2.4840002 0.53286964 0.63639432 4294967295
2.4720001 -0.95232385 0.6186291 4294967295
2.46 2.298986 0.59151709 4294967295
2.46 2.2628376 0.60705447 4294967295
2.4736454 2.2330089 0.5939424 4294967295
2.4890001 2.2144396 0.5817728 4294967295
2.485667 -0.98161387 0.5874573 4294967295
2.4700968 2.2308755 0.56355643 4294967295
2.4837499 2.2137902 0.56377977 4294967295
2.4810002 0.5235858 0.55951101 4294967295
2.475143 -0.98674524 0.5625487 4294967295
2.4840002 -0.990556 0.56052047 4294967295
2.4616663 2.2557988 0.5292145 4294967295
2.4708283 2.2349417 0.53545213 4294967295
2.4831302 2.2124581 0.53753793 4294967295
2.47 0.51267385 0.54691637 4294967295
2.4771111 0.49371195 0.54125631 4294967295
2.4739091 0.46443161 0.53079408 4294967295
2.4791999 0.43634799 0.52631789 4294967295
2.4781113 0.40384051 0.52656895 4294967295
2.4776361 0.37471372 0.52714902 4294967295
2.4807 0.34509078 0.52689779 4294967295
2.4753637 0.31434676 0.52662039 4294967295
2.476125 0.2834104 0.5304783 4294967295
2.474 0.25520995 0.53262013 4294967295
2.4755557 0.22790982 0.53230852 4294967295
2.4751666 0.19500475 0.52688015 4294967295
2.4814999 0.16385312 0.5268991 4294967295
2.4823332 0.13510709 0.52657962 4294967295
2.4830003 0.10633073 0.52401406 4294967295
2.4881668 0.074817091 0.52402246 4294967295
2.4821253 0.040793676 0.52617824 4294967295
2.4840002 0.016085662 0.52497816 4294967295
2.4840002 -0.083796151 0.52401572 4294967295
2.4820001 -0.10677803 0.52401245 4294967295
2.4850001 -0.13573053 0.52401733 4294967295
2.4820001 -0.16435303 0.52401245 4294967295
2.4773333 -0.195654 0.52400494 4294967295
2.4780002 -0.22734067 0.52400601 4294967295
2.4880002 -0.25712103 0.52402216 4294967295
2.4890001 -0.29764405 0.52402377 4294967295
2.4890001 -0.30919385 0.52402377 4294967295
2.4865 -0.4675279 0.52401972 4294967295
2.4790001 -0.49488199 0.52400762 4294967295
2.48 -0.52673334 0.52400923 4294967295
2.484 -0.55639476 0.52401572 4294967295
2.4810002 -0.58450454 0.52401084 4294967295
2.4890001 -0.60371399 0.52402377 4294967295
2.4890001 -0.68456268 0.52402377 4294967295
2.4890001 -0.70188737 0.52402377 4294967295
2.4890001 -0.80583566 0.52402377 4294967295
2.4873335 -0.82548887 0.52402109 4294967295
2.4811428 -0.85920703 0.52483606 4294967295
2.4734282 -0.88644743 0.53015685 4294967295
2.476083 -0.91653019 0.53837347 4294967295
2.4754283 -0.94624323 0.54043096 4294967295
2.4717388 -0.97426713 0.53947484 4294967295
2.4629164 2.2593188 0.51445735 4294967295
2.4759545 2.2330847 0.50716484 4294967295
2.4873335 2.2135918 0.50222409 4294967295
2.4660001 0.43173045 0.51826507 4294967295
2.461875 0.40246436 0.5118469 4294967295
2.46 0.37646922 0.50685406 4294967295
2.46 0.33936971 0.5182693 4294967295
2.46 0.32795444 0.5182693 4294967295
2.46 0.18526396 0.5182693 4294967295
2.4608333 0.16533846 0.5182687 4294967295
2.4650002 0.13099146 0.51509356 4294967295
2.4686959 0.10472637 0.50756574 4294967295
2.474185 0.075985536 0.50742239 4294967295
2.4663332 0.04904845 0.50841314 4294967295
2.4685001 0.010498615 0.51540512 4294967295
2.4758258 -0.013857115 0.50578743 4294967295
2.4769998 -0.043331422 0.50390333 4294967295
2.4692917 -0.072077736 0.50849164 4294967295
2.4649997 -0.10603974 0.51541197 4294967295
2.4658999 -0.13468175 0.51541018 4294967295
2.4683335 -0.16155013 0.51731217 4294967295
2.4625001 -0.18877099 0.51826751 4294967295
2.4625001 -0.22877653 0.51826751 4294967295
2.4689999 -0.25730106 0.51611972 4294967295
2.4695451 -0.28541574 0.51514405 4294967295
2.4677777 -0.3148199 0.5157271 4294967295
2.4721818 -0.34569034 0.51462036 4294967295
2.4726362 -0.37443256 0.51044881 4294967295
2.4711668 -0.40683305 0.51015145 4294967295
2.4721999 -0.43519759 0.512541 4294967295
2.4705293 -0.46536908 0.51287496 4294967295
2.46735 -0.49541992 0.50968874 4294967295
2.4653928 -0.52545875 0.5068382 4294967295
2.4690001 -0.55208057 0.51731169 4294967295
2.467 -0.58120626 0.51826435 4294967295
2.4734001 -0.61428624 0.51539701 4294967295
2.4698997 -0.64433497 0.51082617 4294967295
2.4712665 -0.67392653 0.51292729 4294967295
2.4676921 -0.70644259 0.51255089 4294967295
2.4756248 -0.73401666 0.50822079 4294967295
2.4739995 -0.76461107 0.50407237 4294967295
2.4686069 -0.79512465 0.50683177 4294967295
2.4652307 -0.82497209 0.50706184 4294967295
2.4638996 -0.8517282 0.50970334 4294967295
2.46 -0.87064576 0.5182693 4294967295
2.4700005 2.2307961 0.47630444 4294967295
2.4789999 2.2052219 0.4751325 4294967295
2.4847693 2.1845005 0.46725538 4294967295
2.46 0.39573243 0.48473701 4294967295
2.4599996 0.37437642 0.4809795 4294967295
2.46 0.35649255 0.47831595 4294967295
2.4670999 0.1010716 0.47647721 4294967295
2.4763436 0.076247849 0.47588211 4294967295
2.4637501 0.051217191 0.48682544 4294967295
2.46 0.0026201233 0.48402357 4294967295
2.4713748 -0.016368797 0.48278254 4294967295
2.4690001 -0.042446665 0.47917181 4294967295
2.4630001 -0.065946996 0.483982 4294967295
2.460535 -0.67754978 0.47463685 4294967295
2.46 -0.6965633 0.47974285 4294967295
2.46 -0.80500811 0.48973119 4294967295
2.46 -0.81927717 0.48973119 4294967295
2.4616668 2.2510414 0.43449837 4294967295
2.4704707 2.2353604 0.44290039 4294967295
2.4802856 2.2041993 0.44360179 4294967295
2.48525 2.186589 0.45337954 4294967295
2.4657142 0.098242112 0.45043507 4294967295
2.4701998 0.077137701 0.44949365 4294967295
2.4662502 0.056991279 0.45246196 4294967295
2.46 -0.67658663 0.45548546 4294967295
2.46 -0.84210765 0.43265498 4294967295
2.4625001 2.2508509 0.42685279 4294967295
2.4692857 2.2320757 0.41698888 4294967295
2.4831665 2.2098055 0.41455102 4294967295
2.46 -0.84496146 0.42694736 4294967295
2.471875 2.2254596 0.38466975 4294967295
2.4812224 2.2145407 0.39480144 4294967295
2.4733331 2.2337832 0.35487604 4294967295
2.4694998 2.2257051 0.32788226 4294967295
2.4789524 2.2117743 0.31887019 4294967295
2.4665861 2.2300017 0.29407784 4294967295
2.481318 2.2138691 0.29503235 4294967295
2.4731698 2.2332723 0.2662718 4294967295
2.4856668 2.21435 0.25488439 4294967295
2.466933 2.2283781 0.2431505 4294967295
2.4742496 2.2044375 0.23497337 4294967295
2.4823334 2.1873765 0.22644338 4294967295
2.4747839 2.2034557 0.20447409 4294967295
2.484 2.1869302 0.21856061 4294967295
2.4685335 2.2213998 0.17498678 4294967295
2.4790556 2.2157955 0.17635649 4294967295
2.4745908 2.2159476 0.14610994 4294967295
2.46 2.2970834 0.10161301 4294967295
2.4779999 2.2212238 0.11102539 4294967295
2.4682498 2.2174356 0.1202701 4294967295
2.4795001 2.2203367 0.098296523 4294967295
2.4745555 2.2138896 0.084464699 4294967295
2.4754 2.2135663 0.056271702 4294967295
2.4770999 2.2230742 0.022563189 4294967295
2.47175 2.2177131 0.033668965 4294967295
2.4625001 2.2508509 -0.018794 4294967295
2.4753997 2.2319958 -0.006516993 4294967295
2.4649999 2.2845945 -0.042217851 4294967295
2.466042 2.264097 -0.038170874 4294967295
2.4794497 2.2363951 -0.034585416 4294967295
2.4689333 2.2874711 -0.065649807 4294967295
2.4734721 2.262785 -0.065831363 4294967295
2.4818759 2.2325566 -0.064778686 4294967295
2.4890001 2.2144396 -0.065016508 4294967295
2.4721816 2.2849905 -0.091829479 4294967295
2.4733596 2.2647953 -0.095769227 4294967295
2.4803574 2.2330296 -0.095997512 4294967295
2.4852502 2.21542 -0.097271204 4294967295
2.4633334 2.2868471 -0.12565005 4294967295
2.4656668 2.267282 -0.1174947 4294967295
2.4660001 2.2323048 -0.11338866 4294967295
2.4745998 2.2066607 -0.12339395 4294967295
2.475333 2.1965158 -0.15587145 4294967295
2.46 2.2735393 -0.19161594 4294967295
2.46 2.2285919 -0.19518316 4294967295
2.4734247 2.1996746 -0.18688291 4294967295
2.4599996 2.2681649 -0.20697892 4294967295
2.4631033 2.2306015 -0.21382684 4294967295
2.4775946 2.2050364 -0.21474665 4294967295
2.4630001 2.2518804 -0.24863511 4294967295
2.4726214 2.2341039 -0.24553066 4294967295
2.484952 2.2097249 -0.24197441 4294967295
2.470727 2.258111 -0.27073973 4294967295
2.4809427 2.2388177 -0.27412605 4294967295
2.4890001 2.2346518 -0.29023784 4294967295
2.4980001 0.78572541 1.9060062 4294967295
2.5120554 0.76941901 1.9144517 4294967295
2.5046 -0.88699901 1.9105647 4294967295
2.5009997 0.78693539 1.8843136 4294967295
2.5137 0.77544397 1.8893758 4294967295
2.5016248 -0.89408118 1.8851184 4294967295
2.5120001 -0.90070617 1.870391 4294967295
2.5006361 0.78538096 1.85583 4294967295
2.5140002 0.77845448 1.8539745 4294967295
2.493 -0.89967763 1.8601769 4294967295
2.5088573 -0.90206486 1.8529021 4294967295
2.5000279 2.2330027 1.8216718 4294967295
2.5044072 2.2068722 1.824506 4294967295
2.5014 2.17624 1.8210202 4294967295
2.5000591 2.1457891 1.8137991 4294967295
2.5027831 2.1140754 1.8146741 4294967295
2.5035558 2.0857067 1.8171053 4294967295
2.4980001 2.0577488 1.81504 4294967295
2.4930003 2.0386887 1.8139036 4294967295
2.4960001 1.6287928 1.813133 4294967295
2.501852 1.6049643 1.8174052 4294967295
2.5014286 1.5754699 1.8209466 4294967295
2.4950001 1.5476971 1.8215913 4294967295
2.4930003 1.5277523 1.8177596 4294967295
2.4970908 1.4147245 1.816541 4294967295
2.5053449 1.396925 1.8256974 4294967295
2.5038671 1.3653451 1.8260916 4294967295
2.4971666 1.3400776 1.8189534 4294967295
2.493 1.1450319 1.8139036 4294967295
2.4968235 1.1251417 1.8145146 4294967295
2.5001814 1.0947905 1.8147157 4294967295
2.5015001 1.0647681 1.8153954 4294967295
2.4976666 1.0370682 1.8153445 4294967295
2.5014284 0.78450042 1.8236544 4294967295
2.517 0.77938348 1.8321998 4294967295
2.493 -0.89967769 1.8139036 4294967295
2.506 -0.90260953 1.8270297 4294967295
2.504838 2.2331991 1.7963113 4294967295
2.5153337 2.167836 1.8060403 4294967295
2.5154998 2.1449234 1.7978532 4294967295
2.5160382 2.1170242 1.7977918 4294967295
2.5155997 2.0863585 1.7964501 4294967295
2.5079565 2.0542107 1.7948393 4294967295
2.5060534 2.0259378 1.7960138 4294967295
2.500731 1.9961323 1.7960167 4294967295
2.4940002 1.9683353 1.7901187 4294967295
2.4930003 1.8969761 1.7878748 4294967295
2.4970002 1.8774103 1.784104 4294967295
2.4930003 1.8564868 1.7849827 4294967295
2.4930003 1.7147741 1.7849827 4294967295
2.4936254 1.691578 1.7915646 4294967295
2.5007772 1.6636945 1.79245 4294967295
2.5052257 1.6367241 1.8018484 4294967295
2.5162859 1.6065166 1.8076402 4294967295
2.5150003 1.5735257 1.8066483 4294967295
2.5064998 1.5437748 1.7979481 4294967295
2.4963753 1.5216097 1.7935554 4294967295
2.499964 1.4208266 1.7938948 4294967295
2.5104766 1.3953329 1.7941358 4294967295
2.5123603 1.3643514 1.7934077 4294967295
2.5056956 1.3337382 1.7939239 4294967295
2.5018001 1.3067555 1.7859466 4294967295
2.5036998 1.2765619 1.7886633 4294967295
2.501909 1.2427739 1.7984695 4294967295
2.5039999 1.2154162 1.8031336 4294967295
2.5048499 1.1841631 1.7967768 4294967295
2.5062053 1.1545836 1.7962716 4294967295
2.5130687 1.1257895 1.7985673 4294967295
2.5135713 1.0999004 1.8062458 4294967295
2.5074 1.0265697 1.8073997 4294967295
2.5030003 1.0056275 1.8006219 4294967295
2.5050836 0.97765684 1.7857698 4294967295
2.5079999 0.95698524 1.7809558 4294967295
2.5076666 0.90254748 1.7827202 4294967295
2.5027645 0.88529462 1.79539 4294967295
2.5054996 0.85466212 1.8018441 4294967295
2.4979331 0.82758129 1.7905642 4294967295
2.5023 0.7953251 1.7945215 4294967295
2.493 -0.89967769 1.8081194 4294967295
2.5050998 -0.9028731 1.7946007 4294967295
2.5007935 2.228703 1.7651244 4294967295
2.513087 2.20772 1.7624775 4294967295
2.5145004 2.1735961 1.7621887 4294967295
2.5153928 2.1457894 1.7638327 4294967295
2.517 2.1191182 1.7710528 4294967295
2.5153337 2.0838671 1.768755 4294967295
2.5118754 2.0543628 1.7644413 4294967295
2.511549 2.0254681 1.7631869 4294967295
2.5061765 1.9957672 1.7632797 4294967295
2.4944816 1.9633805 1.7651545 4294967295
2.4975793 1.9332156 1.7549596 4294967295
2.5011334 1.9046906 1.7680126 4294967295
2.5066369 1.8769196 1.7791933 4294967295
2.5032225 1.8427721 1.7746531 4294967295
2.5032401 1.8133446 1.7641309 4294967295
2.4945912 1.783748 1.7634227 4294967295
2.4930003 1.7555389 1.7623968 4294967295
2.4998369 1.7251174 1.7641479 4294967295
2.504308 1.6961621 1.7721498 4294967295
2.5114548 1.6702421 1.7747422 4294967295
2.5058892 1.5078644 1.7766439 4294967295
2.5014288 1.4846809 1.7697564 4294967295
2.5023334 1.4533833 1.7691367 4294967295
2.5080431 1.4258004 1.7718481 4294967295
2.5055449 1.3949449 1.7680823 4294967295
2.5112307 1.3709891 1.7727177 4294967295
2.517 1.1721146 1.775261 4294967295
2.5145414 1.1539574 1.7650396 4294967295
2.5113332 1.1248525 1.7653769 4294967295
2.5139999 1.1070369 1.7616177 4294967295
2.5045383 0.94312584 1.7760639 4294967295
2.503077 0.91667444 1.774892 4294967295
2.5063636 0.81943685 1.7769432 4294967295
2.5094001 0.80380124 1.7781605 4294967295
2.5017273 -0.90598214 1.765125 4294967295
2.5040998 2.2326291 1.7332271 4294967295
2.5134215 2.2082326 1.7413195 4294967295
2.5138752 2.1782444 1.746724 4294967295
2.5126369 1.9932686 1.7445912 4294967295
2.5052223 1.9643919 1.7417622 4294967295
2.505167 1.9415783 1.7456127 4294967295
2.5130002 1.8118254 1.735567 4294967295
2.5001667 1.783994 1.7305852 4294967295
2.5016956 1.754295 1.7320946 4294967295
2.4998004 1.7379993 1.7443494 4294967295
2.517 1.1414553 1.7446017 4294967295
2.5136669 1.1263367 1.7468655 4294967295
2.5043335 -0.89793861 1.7229356 4294967295
2.5043335 -0.90278703 1.7374529 4294967295
2.4930003 2.2527034 1.7155725 4294967295
2.5001791 2.2336733 1.7082448 4294967295
2.5070002 2.2162156 1.6990197 4294967295
2.5140004 1.6621437 1.6993959 4294967295
2.5114002 1.6446795 1.6975958 4294967295
2.5044441 -0.8947621 1.7049197 4294967295
2.5006092 2.2118835 1.6758221 4294967295
2.5125 1.6582285 1.6870276 4294967295
2.5100002 1.6478461 1.6887834 4294967295
2.5064166 -0.89578867 1.675465 4294967295
2.5030744 2.2297258 1.6431732 4294967295
2.4970002 2.2169135 1.6560762 4294967295
2.5009 -0.89845699 1.6456538 4294967295
2.4989002 2.2298863 1.6204181 4294967295
2.5072503 2.2099288 1.609699 4294967295
2.5022998 -0.89257038 1.6126133 4294967295
2.5008888 2.1996763 1.5844353 4294967295
2.5120003 2.1882763 1.5848058 4294967295
2.5018001 -0.8883329 1.583375 4294967295
2.504143 2.263586 1.551173 4294967295
2.5062666 2.2355831 1.5625931 4294967295
2.5038002 2.2101524 1.5667989 4294967295
2.5120001 0.56218928 1.5498363 4294967295
2.5074999 0.53353912 1.5436167 4294967295
2.5032728 -0.89228451 1.5552344 4294967295
2.5051429 2.2702994 1.525424 4294967295
2.5170002 2.2043116 1.5110071 4294967295
2.4979999 0.56485182 1.5383009 4294967295
2.5012221 -0.89554232 1.5267112 4294967295
2.5120001 -0.90070617 1.5148667 4294967295
2.5018003 2.2565725 1.5021212 4294967295
2.5065415 2.2353442 1.4930868 4294967295
2.5109134 2.2045529 1.4916371 4294967295
2.5143335 2.1851192 1.4976408 4294967295
2.493 0.52323192 1.4957734 4294967295
2.493 -0.89967769 1.5073419 4294967295
2.5036001 -0.90872115 1.4952674 4294967295
2.5037503 2.2296071 1.4667711 4294967295
2.5136671 2.2169423 1.4766445 4294967295
2.493 0.51166356 1.4784209 4294967295
2.5030911 -0.91016948 1.4664497 4294967295
2.5021291 2.2311428 1.4343547 4294967295
2.5080001 2.2197056 1.4201787 4294967295
2.5027499 -0.90657222 1.4332855 4294967295
2.4955003 2.2279367 1.4128001 4294967295
2.5029597 2.2119603 1.4023387 4294967295
2.5033998 -0.90883273 1.4049686 4294967295
2.5025835 2.2129524 1.3751669 4294967295
2.5005 -0.89947486 1.371074 4294967295
2.5018334 -0.90285075 1.3811836 4294967295
2.5030003 2.2501247 1.3312733 4294967295
2.4994001 2.2309206 1.3367653 4294967295
2.5050001 2.2170265 1.3472822 4294967295
2.5075002 0.51463956 1.3356459 4294967295
2.5015452 -0.90433407 1.3461008 4294967295
2.5037 2.2539291 1.3152206 4294967295
2.5133336 2.2369473 1.3171189 4294967295
2.5120502 2.2075469 1.3135163 4294967295
2.4955001 0.5063867 1.3085802 4294967295
2.5035386 -0.90435785 1.3135538 4294967295
2.5028002 2.2522521 1.2963623 4294967295
2.5046 2.2334077 1.2848535 4294967295
2.5115314 2.2046096 1.2837775 4294967295
2.5020711 -0.90708709 1.2832704 4294967295
2.4980001 2.2224388 1.2658989 4294967295
2.5067372 2.2079866 1.2553489 4294967295
2.5141432 2.1834755 1.249058 4294967295
2.5044286 -0.9091813 1.2549443 4294967295
2.4955003 2.2005262 1.2333105 4294967295
2.500792 2.1816325 1.2246693 4294967295
2.5046248 -0.90386188 1.224278 4294967295
2.4998333 2.1824975 1.195226 4294967295
2.493 0.49431103 1.1949958 4294967295
2.5006666 -0.8985644 1.191896 4294967295
2.5120001 -0.90070617 1.2059684 4294967295
2.5046251 2.1930811 1.1603677 4294967295
2.4990003 2.1878026 1.1705289 4294967295
2.5039999 -0.89854676 1.1718231 4294967295
2.5051668 -0.90308774 1.1566259 4294967295
2.4967504 2.2234981 1.1272151 4294967295
2.5027421 2.2092209 1.1395497 4294967295
2.5079999 -0.89927185 1.1234102 4294967295
2.5027144 -0.90358222 1.1366562 4294967295
2.4979002 2.2240717 1.1134415 4294967295
2.5033753 2.216681 1.102698 4294967295
2.5031817 -0.89699936 1.1032302 4294967295
2.4930003 2.2266748 1.0619595 4294967295
2.5024078 2.2065558 1.0732487 4294967295
2.5020001 -0.88673729 1.0730292 4294967295
2.5060625 2.2528524 1.0386245 4294967295
2.5051999 2.2355072 1.0526831 4294967295
2.5095456 2.2099483 1.0549634 4294967295
2.5005 0.50159967 1.0548961 4294967295
2.5016665 -0.89054275 1.0477176 4294967295
2.517 -0.90249896 1.0321376 4294967295
2.4996672 2.2529202 1.026675 4294967295
2.5039499 2.2338176 1.013507 4294967295
2.493 -0.89967769 1.0272543 4294967295
2.51 -0.90581268 1.0219698 4294967295
2.5145001 2.2225387 0.98786479 4294967295
2.5004001 2.2158682 0.98291767 4294967295
2.5010002 0.50362808 0.98633486 4294967295
2.5005 -0.90818584 0.97946107 4294967295
2.5001998 2.2104681 0.95446444 4294967295
2.517 0.51074946 0.96789908 4294967295
2.5042002 -0.90603226 0.95167947 4294967295
2.5009232 2.2272518 0.91637731 4294967295
2.5040908 2.2106681 0.92809427 4294967295
2.5120001 0.50973487 0.92621148 4294967295
2.5023847 -0.89456463 0.92287272 4294967295
2.4979999 -0.90148205 0.93553913 4294967295
2.5051467 2.2362883 0.8956961 4294967295
2.4988 0.50588834 0.88927346 4294967295
2.5031817 -0.89172333 0.89575219 4294967295
2.5039089 2.231365 0.86627662 4294967295
2.5123332 2.2177048 0.85923141 4294967295
2.5065002 0.50280327 0.86426854 4294967295
2.5032225 -0.89625746 0.86736393 4294967295
2.493 2.3163295 0.84216046 4294967295
2.5051033 2.229939 0.8359015 4294967295
2.50875 0.50325465 0.84127057 4294967295
2.5028181 -0.89634687 0.83603024 4294967295
2.4971669 2.2245955 0.8166256 4294967295
2.5038335 2.2118032 0.80160785 4294967295
2.493 0.5058794 0.79010272 4294967295
2.5038333 -0.89050323 0.80530912 4294967295
2.5014 2.1961954 0.77290857 4294967295
2.5120001 2.1882763 0.76301998 4294967295
2.5028 0.50786799 0.77372146 4294967295
2.5020626 -0.89204627 0.77294528 4294967295
2.5025716 2.202636 0.74634641 4294967295
2.5036001 0.51267111 0.74477869 4294967295
2.5008464 -0.89668864 0.74766111 4294967295
2.517 -0.90249896 0.73430437 4294967295
2.5040588 2.2148306 0.71680218 4294967295
2.5010002 0.5191083 0.70971638 4294967295
2.50175 -0.90283537 0.71848458 4294967295
2.5026667 2.2149706 0.68663108 4294967295
2.4980001 0.52428132 0.67762089 4294967295
2.5027502 -0.91769677 0.68374974 4294967295
2.5106666 2.2220325 0.64931285 4294967295
2.5014117 2.2176149 0.65616173 4294967295
2.5073335 0.53011489 0.65592265 4294967295
2.5025001 -0.92922312 0.66920125 4294967295
2.51 -0.94073814 0.6551137 4294967295
2.5017197 2.2231758 0.62434566 4294967295
2.493 2.2179983 0.63971394 4294967295
2.5015001 0.53662372 0.61978465 4294967295
2.5029998 -0.95845085 0.61987412 4294967295
2.4979999 -0.96523571 0.61097515 4294967295
2.5035002 2.2224696 0.60148835 4294967295
2.5010715 2.2164536 0.59035528 4294967295
2.5027499 -0.97868764 0.59661978 4294967295
2.517 -0.99009699 0.58246773 4294967295
2.5025382 2.2036793 0.56424779 4294967295
2.5064001 0.52604198 0.56475651 4294967295
2.5079999 0.50892317 0.55314946 4294967295
2.5145001 -0.92785299 0.55323535 4294967295
2.5045002 -0.94739294 0.55310321 4294967295
2.5056002 -0.97628969 0.55661398 4294967295
2.5089998 -0.99131137 0.56916374 4294967295
2.5024002 2.2019479 0.53566116 4294967295
2.5039999 0.49356347 0.54728687 4294967295
2.4998002 0.46665949 0.53912514 4294967295
2.5062859 0.43546644 0.53485543 4294967295
2.5013332 0.40601072 0.53468674 4294967295
2.5039997 0.37447664 0.53566742 4294967295
2.5112002 0.34642929 0.53571248 4294967295
2.5040002 0.31640279 0.53566742 4294967295
2.5074 0.28305021 0.53919029 4294967295
2.5054998 0.25409618 0.54149002 4294967295
2.5058334 0.22264509 0.53956479 4294967295
2.4980001 0.19390763 0.53562993 4294967295
2.506 0.16546853 0.53567994 4294967295
2.5074 0.13763726 0.53453189 4294967295
2.5036669 0.10852003 0.53245062 4294967295
2.5037775 0.072364934 0.53180349 4294967295
2.5042856 0.045821473 0.53401661 4294967295
2.5048573 0.015123902 0.53236091 4294967295
2.5074 -0.010141374 0.52522153 4294967295
2.5064998 -0.074391916 0.52696681 4294967295
2.5021667 -0.10473876 0.52985054 4294967295
2.503 -0.13671136 0.52985382 4294967295
2.503 -0.1657483 0.52985382 4294967295
2.4960001 -0.19423354 0.52982622 4294967295
2.4950001 -0.22311378 0.52982229 4294967295
2.5076001 -0.25333634 0.52987194 4294967295
2.5050001 -0.28210735 0.52696961 4294967295
2.5072858 -0.31560025 0.52821803 4294967295
2.5043335 -0.34306011 0.52502191 4294967295
2.517 -0.36523095 0.52406907 4294967295
2.517 -0.41194993 0.52406907 4294967295
2.4996667 -0.43518823 0.52404106 4294967295
2.5068572 -0.46428218 0.52904266 4294967295
2.494 -0.49498549 0.52981836 4294967295
2.4980001 -0.52476519 0.52983409 4294967295
2.5088 -0.55613267 0.52987665 4294967295
2.5058002 -0.58452266 0.52986485 4294967295
2.5018001 -0.61260289 0.52637625 4294967295
2.517 -0.64846462 0.52406907 4294967295
2.5065999 -0.6719296 0.52405226 4294967295
2.5077999 -0.70136434 0.52987272 4294967295
2.5058334 -0.72892451 0.52599567 4294967295
2.5056002 -0.79841059 0.52521861 4294967295
2.5038335 -0.82515073 0.5298571 4294967295
2.5020001 -0.85731435 0.5315184 4294967295
2.5021253 -0.88553375 0.53855765 4294967295
2.5003335 -0.91679811 0.54724693 4294967295
2.493 -0.9343828 0.547167 4294967295
2.5016665 2.2046137 0.50620162 4294967295
2.4955001 -0.023399903 0.51824433 4294967295
2.4967499 -0.045118269 0.51824343 4294967295
2.493 -0.37620887 0.51824605 4294967295
2.493 -0.40368375 0.51824605 4294967295
2.493 -0.64806563 0.51824605 4294967295
2.4955001 -0.74135816 0.51824433 4294967295
2.503 -0.76680517 0.51823902 4294967295
2.493 -0.78399396 0.51824605 4294967295
2.5028 2.1941602 0.48920456 4294967295
2.4999998 2.1808569 0.47581303 4294967295
2.5064998 2.1921787 0.43391865 4294967295
2.5002499 2.1852694 0.44573939 4294967295
2.5031817 2.1974661 0.41343132 4294967295
2.5027499 2.2266533 0.37597245 4294967295
2.5010834 2.2106652 0.39057475 4294967295
2.5045624 2.2333512 0.35480297 4294967295
2.5039999 2.2248564 0.33813739 4294967295
2.503619 2.2077773 0.32212329 4294967295
2.5044346 2.207428 0.29566979 4294967295
2.501652 2.2120447 0.26335922 4294967295
2.5059998 2.1946511 0.23671341 4294967295
2.497 2.1867816 0.23049259 4294967295
2.5059998 2.1965916 0.19893733 4294967295
2.5 2.1869187 0.21247944 4294967295
2.517 2.2218313 0.16199714 4294967295
2.5027001 2.2126675 0.17651927 4294967295
2.5110002 2.2238128 0.13809201 4294967295
2.4975452 2.2178187 0.14791748 4294967295
2.5043333 2.2248468 0.1134454 4294967295
2.493 2.2179983 0.12492144 4294967295
2.5093334 2.2247612 0.095162272 4294967295
2.5007498 2.2137551 0.082105547 4294967295
2.5066521 2.2134275 0.055250645 4294967295
2.5077219 2.2223444 0.02207455 4294967295
2.4942501 2.2176614 0.033578932 4294967295
2.4979093 2.2228725 -0.0038716793 4294967295
2.5057366 2.2167602 -0.0062263012 4294967295
2.494 2.2235153 -0.031468093 4294967295
2.5030665 2.2137618 -0.036180794 4294967295
2.5014999 2.2061863 -0.065819323 4294967295
2.5021532 2.2104783 -0.094446123 4294967295
2.5051875 2.2124763 -0.12403148 4294967295
2.5055001 2.2068243 -0.15511358 4294967295
2.5048332 2.1970301 -0.18449318 4294967295
2.493 2.1890774 -0.19320875 4294967295
2.5038331 2.1950185 -0.21759981 4294967295
2.493 2.1890774 -0.20477712 4294967295
2.4995198 2.1947789 -0.24563277 4294967295
2.5068336 2.1866701 -0.25532562 4294967295
2.4937146 2.2252445 -0.28020245 4294967295
2.493741 2.2045085 -0.27356482 4294967295
2.5050666 2.1822085 -0.27647364 4294967295
2.4955001 2.2260087 -0.29524779 4294967295
2.4951427 2.2017059 -0.29761261 4294967295
2.5079229 2.179776 -0.29684186 4294967295
2.54075 0.75283641 1.9344747 4294967295
2.5345001 -0.88525194 1.9324676 4294967295
2.53 0.75678319 1.9129224 4294967295
2.5320001 -0.89172494 1.9119672 4294967295
2.533 0.76480609 1.8858923 4294967295
2.5220001 -0.89551455 1.8933213 4294967295
2.5449998 -0.90663379 1.8822169 4294967295
2.5327144 0.76785564 1.8556947 4294967295
2.5353334 -0.90514064 1.8476285 4294967295
2.5270002 2.2218583 1.8110236 4294967295
2.5257502 2.2061145 1.8111178 4294967295
2.5220003 2.1852846 1.8114007 4294967295
2.523818 1.3915503 1.8192533 4294967295
2.5469999 1.2397627 1.8123829 4294967295
2.5339999 1.0891875 1.8116543 4294967295
2.5320003 1.065998 1.8135722 4294967295
2.5303333 1.0418197 1.8117474 4294967295
2.5309999 0.78253663 1.8171632 4294967295
2.5377693 0.77357852 1.8312397 4294967295
2.5369999 -0.90378392 1.822011 4294967295
2.526 2.2239082 1.7987946 4294967295
2.5324762 2.2072294 1.7969013 4294967295
2.5241058 2.175091 1.7933674 4294967295
2.5220003 2.1560273 1.7879947 4294967295
2.5220003 2.1131167 1.7840937 4294967295
2.5220003 2.0975127 1.7821432 4294967295
2.5382502 1.9004917 1.782909 4294967295
2.5345004 1.8815134 1.7825184 4294967295
2.5350003 1.6595453 1.7839261 4294967295
2.5320001 1.6355622 1.794345 4294967295
2.5338423 1.6073236 1.8032128 4294967295
2.5323846 1.5782336 1.8022358 4294967295
2.5320001 1.5476991 1.7913224 4294967295
2.5320003 1.5242369 1.7812731 4294967295
2.5220001 1.3894846 1.8055491 4294967295
2.5361667 1.354118 1.7823541 4294967295
2.5320003 1.3366805 1.7848759 4294967295
2.5319998 1.3019745 1.7910603 4294967295
2.53075 1.2739297 1.7997286 4294967295
2.5300002 1.2471576 1.8060975 4294967295
2.538667 1.2116386 1.7992941 4294967295
2.5291429 1.1930673 1.7890567 4294967295
2.5220001 1.1173912 1.7938462 4294967295
2.5338185 1.1033674 1.7949899 4294967295
2.5357499 1.0278647 1.8066601 4294967295
2.5345001 1.0045712 1.795735 4294967295
2.5353332 0.972646 1.7848827 4294967295
2.5377142 0.90775907 1.7883223 4294967295
2.535125 0.8835054 1.8034099 4294967295
2.5351818 0.85237157 1.7945938 4294967295
2.5320001 0.83690029 1.7812731 4294967295
2.5345001 0.79303843 1.7925019 4294967295
2.5357499 -0.90922195 1.7919618 4294967295
2.5220003 2.1999135 1.7762918 4294967295
2.5220003 2.1852846 1.7762918 4294967295
2.5351822 2.1453617 1.753432 4294967295
2.52775 2.115473 1.7580276 4294967295
2.5312312 2.0866406 1.7555758 4294967295
2.5320003 2.0593965 1.7530584 4294967295
2.5470002 1.9587488 1.7532881 4294967295
2.5345004 1.9344231 1.7619396 4294967295
2.5303338 1.9067942 1.7765226 4294967295
2.5360003 1.8667206 1.7750109 4294967295
2.5324547 1.8498064 1.7654556 4294967295
