# .PCD v0.7 - Point Cloud Data file format
VERSION 0.7
FIELDS x y z rgb
SIZE 4 4 4 4
TYPE F F F U
COUNT 1 1 1 1
WIDTH 1134
HEIGHT 1
VIEWPOINT 0 0 0 1 0 0 0
POINTS 1134
DATA ascii
2.3629999 0.92906994 1.8396351 4294967295
2.3534443 -0.86872286 1.8245877 4294967295
2.359 -0.8732127 1.810035 4294967295
2.365 1.0258846 1.8078289 4294967295
2.3575387 1.0039128 1.8075399 4294967295
2.3510001 0.98131925 1.8074691 4294967295
2.3511002 -0.87956148 1.7942362 4294967295
2.3558333 -0.89389777 1.7645628 4294967295
2.3524287 -0.89806211 1.7354912 4294967295
2.359 -0.90057909 1.7224624 4294967295
2.3500001 -0.89895451 1.7105833 4294967295
2.3498998 -0.90145862 1.7020078 4294967295
2.3502727 -0.90541178 1.674382 4294967295
2.3533502 -0.91314876 1.6461271 4294967295
2.3526666 -0.91179186 1.6155047 4294967295
2.3510001 -0.90570122 1.5847416 4294967295
2.3521111 -0.91370261 1.5549226 4294967295
2.3533912 -0.92168617 1.5254027 4294967295
2.3510833 -0.91367364 1.4956787 4294967295
2.3629999 0.55077308 1.466821 4294967295
2.346 0.51959509 1.4600093 4294967295
2.350688 -0.91341364 1.4673381 4294967295
2.3499999 0.48231426 1.4234452 4294967295
2.3517272 -0.91266966 1.4345121 4294967295
2.3550003 -0.89661199 1.4004707 4294967295
2.3502002 -0.90375316 1.4126182 4294967295
2.348 -0.89773816 1.3845375 4294967295
2.3519998 -0.90608352 1.3696358 4294967295
2.3543847 -0.91729462 1.3427608 4294967295
2.3548126 -0.92116028 1.3153303 4294967295
2.3575001 0.49479318 1.2868392 4294967295
2.3528125 -0.92003685 1.2853193 4294967295
2.3516667 0.49902514 1.2521887 4294967295
2.3531737 -0.91708362 1.2539757 4294967295
2.365 0.62531883 1.212465 4294967295
2.3544285 0.49647865 1.2198979 4294967295
2.3548331 -0.91991347 1.2252611 4294967295
2.359 0.65383315 1.2025006 4294967295
2.3439999 0.6224786 1.2008824 4294967295
2.3492498 0.49033025 1.1996775 4294967295
2.3536 -0.91433787 1.1927345 4294967295
2.3508334 -0.9056325 1.1646737 4294967295
2.3520715 -0.90727782 1.1338311 4294967295
2.3523333 -0.90984941 1.1050543 4294967295
2.3524544 -0.91841584 1.0765501 4294967295
2.3469999 0.48169854 1.0383801 4294967295
2.35425 0.47772428 1.0399818 4294967295
2.3517275 -0.9176321 1.0446354 4294967295
2.3547695 0.48538432 1.0159204 4294967295
2.3629999 0.47949982 1.0282159 4294967295
2.3529093 -0.9131344 1.0136315 4294967295
2.3529091 0.49084297 0.98385143 4294967295
2.3527002 -0.91999805 0.98397285 4294967295
2.3541815 0.4911063 0.9538126 4294967295
2.3523333 -0.91894007 0.95359361 4294967295
2.3532503 0.4925282 0.92647839 4294967295
2.3524616 -0.91234493 0.92559719 4294967295
2.355 0.49426848 0.89535463 4294967295
2.3517139 -0.90363222 0.89405698 4294967295
2.355 0.49644482 0.86312771 4294967295
2.3521764 -0.90630633 0.8656987 4294967295
2.3538752 0.49743894 0.83715248 4294967295
2.3525455 -0.91100562 0.83393306 4294967295
2.3577499 0.50167447 0.80281472 4294967295
2.3522353 -0.90889728 0.80278802 4294967295
2.3525999 0.4992232 0.77490139 4294967295
2.3537369 -0.92211962 0.77615941 4294967295
2.3536 0.49723962 0.74277329 4294967295
2.3544211 -0.92066211 0.74432373 4294967295
2.3670001 0.49678707 0.72427887 4294967295
2.3527694 -0.8935625 0.70940971 4294967295
2.3507004 -0.90557629 0.7212435 4294967295
2.346 0.49782267 0.67075682 4294967295
2.3543332 -0.89514178 0.69434762 4294967295
2.3528636 -0.9158473 0.68160307 4294967295
2.3476155 -0.94273341 0.67462611 4294967295
2.3540001 0.51044363 0.64396256 4294967295
2.3555 0.50529146 0.65771776 4294967295
2.356941 -0.92230058 0.6528194 4294967295
2.3492858 -0.94162959 0.66123772 4294967295
2.3510003 0.51414943 0.6230998 4294967295
2.3556669 -0.89838159 0.62310344 4294967295
2.3527 -0.90471333 0.62806332 4294967295
2.346 0.51415199 0.60543942 4294967295
2.3523333 -0.914397 0.59930545 4294967295
2.359 -0.93889207 0.58401972 4294967295
2.3605001 0.5118531 0.57585281 4294967295
2.3535001 0.50486708 0.5592894 4294967295
2.3526666 -0.9563852 0.55837548 4294967295
2.3532002 0.49496862 0.53308308 4294967295
2.3543332 -0.92609668 0.5238061 4294967295
2.3521819 -0.94559652 0.53372955 4294967295
2.3539002 0.50167513 0.50687414 4294967295
2.362 -0.89623809 0.49423027 4294967295
2.3521428 -0.91139024 0.50471175 4294967295
2.3540001 0.50740004 0.47343206 4294967295
2.3569999 -0.89203107 0.47402185 4294967295
2.3465002 -0.91168022 0.47434092 4294967295
2.3540833 0.50681078 0.44461226 4294967295
2.3576844 -0.89286679 0.44722134 4294967295
2.3468065 -0.91172105 0.44439819 4294967295
2.3527501 0.49378666 0.42077199 4294967295
2.3561997 0.46720636 0.41229612 4294967295
2.3552003 0.43473867 0.40687644 4294967295
2.3563335 0.40464246 0.41022304 4294967295
2.3500001 0.3759878 0.41384542 4294967295
2.3520002 0.34356785 0.41466147 4294967295
2.359 0.31448966 0.41434798 4294967295
2.3636665 0.28494531 0.41413897 4294967295
2.3467999 0.25296476 0.4094494 4294967295
2.3499999 0.22605141 0.40929866 4294967295
2.3524287 0.19432102 0.40840799 4294967295
2.3532727 0.16480111 0.4066695 4294967295
2.3628335 0.13681197 0.40321192 4294967295
2.3606665 0.10385242 0.40423432 4294967295
2.3581429 0.077526391 0.40736121 4294967295
2.359 0.046298806 0.40887469 4294967295
2.3629999 0.016218578 0.40868625 4294967295
2.3604 -0.013909057 0.40880874 4294967295
2.3506668 -0.04385411 0.40926725 4294967295
2.3499999 -0.07383807 0.40929866 4294967295
2.3523333 -0.10391033 0.40555689 4294967295
2.3629999 -0.12907089 0.4032037 4294967295
2.3637998 -0.19491774 0.40316415 4294967295
2.3623333 -0.22494532 0.40323666 4294967295
2.3568001 -0.25448346 0.40351015 4294967295
2.3558333 -0.28443983 0.40355793 4294967295
2.3532002 -0.31416535 0.40368807 4294967295
2.3593333 -0.34510437 0.40338492 4294967295
2.365 -0.37335914 0.40310484 4294967295
2.3643334 -0.46924514 0.4031378 4294967295
2.3629999 -0.4936505 0.4032037 4294967295
2.3643334 -0.51862228 0.4031378 4294967295
2.3629999 -0.86646485 0.4032037 4294967295
2.355417 -0.88827425 0.41042554 4294967295
2.3528571 -0.90835541 0.42047226 4294967295
2.3486664 0.13600338 0.39846283 4294967295
2.3473332 0.11142749 0.39853185 4294967295
2.3473332 -0.13910453 0.39853185 4294967295
2.3493333 -0.16374494 0.39842835 4294967295
2.342 -0.1822561 0.39880782 4294967295
2.342 -0.388742 0.39880782 4294967295
2.3499999 -0.40643451 0.39839384 4294967295
2.3506668 -0.43652907 0.39835936 4294967295
2.3435998 -0.46513331 0.39872503 4294967295
2.342 -0.49524528 0.39880782 4294967295
2.3475997 -0.52584785 0.39851803 4294967295
2.3594 -0.55587274 0.39790741 4294967295
2.3638 -0.58869016 0.39767975 4294967295
2.3586001 -0.61587644 0.3979488 4294967295
2.3598001 -0.64355665 0.39788672 4294967295
2.3550003 -0.67228132 0.3981351 4294967295
2.3486667 -0.70317298 0.39846283 4294967295
2.3515 -0.73676479 0.39741057 4294967295
2.3492501 -0.76670468 0.39435497 4294967295
2.3475001 -0.79448879 0.39399195 4294967295
2.35025 -0.82364058 0.39430088 4294967295
2.3529999 -0.85185301 0.3982386 4294967295
2.3970003 2.0436049 1.8586228 4294967295
2.3970003 2.0297015 1.8586228 4294967295
2.3933003 1.8155588 1.852111 4294967295
2.3910005 1.663641 1.8505148 4294967295
2.3803003 1.6327926 1.8459768 4294967295
2.3842859 1.617063 1.8443972 4294967295
2.3943336 1.4469182 1.8515846 4294967295
2.3762004 1.4238456 1.8459007 4294967295
2.3847003 1.4006835 1.8467612 4294967295
2.3875999 1.0672759 1.8478397 4294967295
2.3950002 0.93331403 1.8491731 4294967295
2.3759999 0.9286685 1.8441387 4294967295
2.3759999 -0.86847997 1.8441387 4294967295
2.3840001 -0.87140417 1.8403003 4294967295
2.3943336 1.6561645 1.8349063 4294967295
2.38568 1.6323059 1.830133 4294967295
2.3824449 1.6172118 1.83206 4294967295
2.3922002 1.4445168 1.8281795 4294967295
2.378818 1.4229835 1.8228532 4294967295
2.3795998 1.4030316 1.825704 4294967295
2.3870001 1.059842 1.8278444 4294967295
2.381 1.0395074 1.8157281 4294967295
2.3889999 1.005807 1.8153548 4294967295
2.3827777 0.9767732 1.81504 4294967295
2.3824167 0.94453484 1.8265101 4294967295
2.3847144 -0.87718791 1.8241004 4294967295
2.3950002 1.2722863 1.8005521 4294967295
2.3970001 1.2575867 1.7993007 4294967295
2.3743334 1.0271765 1.8074024 4294967295
2.385 -0.89058536 1.7965685 4294967295
2.3786666 -0.89704925 1.7711134 4294967295
2.3930001 -0.90245467 1.7592167 4294967295
2.3710001 -0.89965916 1.7423321 4294967295
2.3829999 -0.90235859 1.7282239 4294967295
2.3710001 -0.8996591 1.7010736 4294967295
2.3889999 -0.9009462 1.7044972 4294967295
2.3710001 -0.89965916 1.6818197 4294967295
2.384778 -0.90610743 1.6728933 4294967295
2.3848333 -0.91504753 1.6443123 4294967295
2.3824286 -0.91030043 1.6159306 4294967295
2.3813334 -0.90786928 1.5852687 4294967295
2.3820999 -0.91602015 1.5546026 4294967295
2.3839092 -0.91308957 1.5244604 4294967295
2.3842223 -0.90835619 1.4955902 4294967295
2.3710001 0.51688045 1.4672759 4294967295
2.3783336 -0.91622859 1.463748 4294967295
2.3805714 -0.91038001 1.435189 4294967295
2.3821666 -0.89744234 1.4081764 4294967295
2.3889999 -0.9009462 1.3940954 4294967295
2.3710001 -0.89965916 1.3875096 4294967295
2.3842857 -0.91102409 1.3741755 4294967295
2.3836253 -0.9196505 1.3464966 4294967295
2.3840001 -0.92118573 1.3148282 4294967295
2.3889999 0.57346189 1.2721519 4294967295
2.3786666 0.49923563 1.2744036 4294967295
2.3842223 -0.91819155 1.2817109 4294967295
2.3970001 0.50308341 1.241302 4294967295
2.3844666 -0.90954816 1.2533884 4294967295
2.3889999 0.63997656 1.216723 4294967295
2.3840001 0.49480364 1.2226098 4294967295
2.3847144 -0.91987711 1.2289087 4294967295
2.3830001 -0.91618228 1.1993012 4294967295
2.383111 -0.90731204 1.1664555 4294967295
2.3851666 -0.91056859 1.1353457 4294967295
2.3970003 2.2271328 1.1106079 4294967295
2.38325 -0.91466826 1.1016834 4294967295
2.3842854 -0.92286962 1.0738775 4294967295
2.3755 0.47652477 1.0391588 4294967295
2.3794286 -0.91783565 1.0451568 4294967295
2.3834 0.48252708 1.0137906 4294967295
2.3864999 0.47873133 1.0249615 4294967295
2.3799999 -0.91688204 1.0152899 4294967295
2.3805001 0.48857412 0.98501551 4294967295
2.3786666 -0.92464381 0.97823381 4294967295
2.3818002 0.48884094 0.95375729 4294967295
2.3792 -0.91932267 0.9544096 4294967295
2.382 0.49440861 0.91898108 4294967295
2.3831427 -0.91215956 0.92433167 4294967295
2.3970001 0.497522 0.90761507 4294967295
2.3710001 -0.89965916 0.88690722 4294967295
2.385 -0.90258712 0.89775181 4294967295
2.3970001 0.497522 0.85478127 4294967295
2.383625 -0.90720159 0.86674678 4294967295
2.3860002 0.49855021 0.83388638 4294967295
2.3786666 -0.91176021 0.83564973 4294967295
2.3970001 0.50308341 0.81863183 4294967295
2.3838999 -0.90730798 0.80594069 4294967295
2.38325 0.50019753 0.76992893 4294967295
2.3856666 -0.91997802 0.77569652 4294967295
2.3710001 0.49762657 0.75488025 4294967295
2.3843637 -0.91578007 0.74413437 4294967295
2.37675 0.49883336 0.70856559 4294967295
2.381 -0.89117181 0.71535838 4294967295
2.3759999 -0.90155631 0.72781193 4294967295
2.3889999 0.50140435 0.69569165 4294967295
2.382 -0.89415795 0.69378358 4294967295
2.3840001 -0.91089177 0.67794418 4294967295
2.3889999 0.51249009 0.65134853 4294967295
2.3834546 -0.91844761 0.65808111 4294967295
2.3905001 0.51835829 0.63201118 4294967295
2.3796666 -0.8992601 0.62323928 4294967295
2.3856666 -0.90337664 0.62164187 4294967295
2.3889999 0.51803303 0.58483386 4294967295
2.38325 -0.91812915 0.59987903 4294967295
2.3889999 -0.94528931 0.58483386 4294967295
2.3864999 0.503636 0.55429989 4294967295
2.3829999 -0.96503103 0.55701613 4294967295
2.3805714 0.49093944 0.53251696 4294967295
2.3843334 -0.9222151 0.52569717 4294967295
2.3856668 -0.94766486 0.53585899 4294967295
2.3759999 -0.96219629 0.545892 4294967295
2.3836248 0.49887842 0.50727814 4294967295
2.3970001 0.03036027 0.49050635 4294967295
2.3970001 0.019237371 0.49050635 4294967295
2.3839166 -0.89347804 0.49896002 4294967295
2.3865001 -0.90829378 0.51555341 4294967295
2.3927999 0.50775367 0.47388715 4294967295
2.3970001 0.033140995 0.48216417 4294967295
2.3889999 0.019173164 0.48506191 4294967295
2.3970001 -0.58557028 0.46269912 4294967295
2.3970001 -0.60364497 0.46269912 4294967295
2.3858182 -0.88665092 0.47504607 4294967295
2.3872857 0.50500143 0.44238457 4294967295
2.3969998 0.15986256 0.44243956 4294967295
2.3956664 0.13780388 0.44297034 4294967295
2.3930001 0.015038821 0.45307148 4294967295
2.3943334 -0.56593418 0.4553538 4294967295
2.3926923 -0.58249044 0.45297688 4294967295
2.3970001 -0.60809416 0.45491308 4294967295
2.3825834 -0.88745433 0.44462293 4294967295
2.3970001 2.2234249 0.42747661 4294967295
2.3843334 0.48935464 0.42336255 4294967295
2.3880999 0.46298304 0.41637969 4294967295
2.3894999 0.43313083 0.4139089 4294967295
2.3876426 0.40336958 0.42178932 4294967295
2.3856666 0.37569651 0.421933 4294967295
2.3922999 0.34611839 0.42063171 4294967295
2.3970001 0.32511705 0.41820753 4294967295
2.3769999 0.25344619 0.41354179 4294967295
2.388 0.22417077 0.41304916 4294967295
2.3898571 0.19423759 0.41455495 4294967295
2.3861814 0.1646011 0.42095494 4294967295
2.3887219 0.13832769 0.41642824 4294967295
2.3826666 0.10944039 0.40868673 4294967295
2.3970001 0.0053337472 0.41264606 4294967295
2.3970001 -0.014131324 0.41264606 4294967295
2.3878334 -0.044534937 0.41305661 4294967295
2.3834 -0.074892052 0.41325516 4294967295
2.3840001 -0.10810667 0.40769702 4294967295
2.3734999 -0.14340842 0.40268472 4294967295
2.3751667 -0.16554454 0.40260234 4294967295
2.3902001 -0.22815017 0.40851724 4294967295
2.3889999 -0.25519979 0.40746146 4294967295
2.3927999 -0.28612429 0.40728247 4294967295
2.38975 -0.31073749 0.40742615 4294967295
2.3970001 -0.3366954 0.40708461 4294967295
2.3710001 -0.38805452 0.40280828 4294967295
2.3765998 -0.40552545 0.4025315 4294967295
2.3826666 -0.43694586 0.40223163 4294967295
2.3813334 -0.46344206 0.40415135 4294967295
2.3943336 -0.49463341 0.40721023 4294967295
2.3861427 -0.52734041 0.40602431 4294967295
2.3886001 -0.55165792 0.40305066 4294967295
2.3970001 -0.62589073 0.40152317 4294967295
2.3954 -0.64659536 0.40160224 4294967295
2.3970001 -0.67594379 0.40152317 4294967295
2.3930001 -0.71645242 0.40172088 4294967295
2.391 -0.73250782 0.40181974 4294967295
2.3864999 -0.86400944 0.40204215 4294967295
2.3853333 -0.8895793 0.41759813 4294967295
2.3710001 -0.58059388 0.39730716 4294967295
2.3710001 -0.76763213 0.39730716 4294967295
2.3747499 -0.79915458 0.39711308 4294967295
2.3827999 -0.82673985 0.39669654 4294967295
2.3970001 2.2345481 0.31995526 4294967295
2.4290001 2.2286863 1.8708578 4294967295
2.4200003 2.2120066 1.8714674 4294967295
2.4260001 2.1884046 1.8729395 4294967295
2.4290001 2.0934298 1.8764933 4294967295
2.4230003 1.9898636 1.8722035 4294967295
2.4290001 1.8736377 1.8736756 4294967295
2.4290001 1.8003736 1.8736756 4294967295
2.4277143 1.7809004 1.87336 4294967295
2.4290001 1.7574015 1.87438 4294967295
2.4272001 1.7269611 1.8743609 4294967295
2.4290001 1.6256671 1.8764933 4294967295
2.4245002 1.4004526 1.8739803 4294967295
2.4259999 1.1752392 1.8729395 4294967295
2.4230001 1.1597337 1.8712641 4294967295
2.4289999 0.93247664 1.8708577 4294967295
2.4289999 0.83103418 1.8708577 4294967295
2.4289999 0.80567354 1.8708577 4294967295
2.4289999 -0.87658125 1.8764933 4294967295
2.4290001 2.2230506 1.8595864 4294967295
2.4205003 2.201488 1.8546318 4294967295
2.4203002 2.1875646 1.8564661 4294967295
2.4213336 2.0765171 1.8618958 4294967295
2.4149096 2.0540218 1.8525515 4294967295
2.4112763 2.0243249 1.8542428 4294967295
2.4150338 1.9922788 1.8548735 4294967295
2.425143 1.9751478 1.8522291 4294967295
2.4245002 1.8645413 1.8613157 4294967295
2.4166672 1.8435524 1.8516845 4294967295
2.417711 1.8127915 1.852896 4294967295
2.4254003 1.7886798 1.8621012 4294967295
2.4290001 1.7130203 1.865222 4294967295
2.4176877 1.6938188 1.8575349 4294967295
2.4050002 1.6728424 1.8463434 4294967295
2.4266667 1.6222214 1.8517355 4294967295
2.4117503 1.6192397 1.8561262 4294967295
2.4200003 1.4736586 1.8462007 4294967295
2.4085002 1.4610674 1.8566854 4294967295
2.4290001 1.4115107 1.8426793 4294967295
2.4160717 1.4039844 1.8552494 4294967295
2.4289999 1.3016146 1.8426793 4294967295
2.4289999 1.2790718 1.8426793 4294967295
2.4289999 1.1748115 1.865222 4294967295
2.4265003 1.1530579 1.8601679 4294967295
2.4207916 1.1247319 1.8578521 4294967295
2.416955 1.0973644 1.8552136 4294967295
2.402 1.0781569 1.8474824 4294967295
2.415375 0.93564832 1.8541605 4294967295
2.4289999 0.84606266 1.8483149 4294967295
2.4201496 0.82267565 1.851619 4294967295
2.4218571 0.80088818 1.8536335 4294967295
2.4117999 -0.87596983 1.8556714 4294967295
2.4254003 2.201751 1.8373375 4294967295
2.4260001 2.0439358 1.8335314 4294967295
2.4163914 2.0221159 1.8260453 4294967295
2.4107902 1.9899824 1.8231739 4294967295
2.4222503 1.9759057 1.8326818 4294967295
2.4290001 1.682024 1.8370435 4294967295
2.4172001 1.6637521 1.8300683 4294967295
2.4163687 1.6345911 1.8260561 4294967295
2.4020002 1.6187428 1.8307633 4294967295
2.4245002 1.4749899 1.8317804 4294967295
2.4125717 1.4551309 1.8253127 4294967295
2.4172003 1.4254007 1.826714 4294967295
2.4130001 1.4078115 1.8367636 4294967295
2.4289999 1.3279145 1.8248328 4294967295
2.4155712 1.3052316 1.8221619 4294967295
2.412842 1.273641 1.8226955 4294967295
2.4233334 1.2521821 1.8231984 4294967295
2.421 1.0852764 1.8354946 4294967295
2.4133637 1.0669478 1.8265074 4294967295
2.414875 1.0363042 1.8216711 4294967295
2.4126 1.0045422 1.8225536 4294967295
2.4163334 0.97307158 1.8276803 4294967295
2.4128571 0.94866651 1.8354752 4294967295
2.4289999 0.84512335 1.8342257 4294967295
2.4209232 0.82610303 1.8348203 4294967295
2.4289999 0.80849135 1.8370435 4294967295
2.4135716 -0.88860917 1.8254756 4294967295
2.4290001 2.2531075 1.7863224 4294967295
2.4290001 2.2455935 1.7947758 4294967295
2.4200003 2.0126808 1.8097044 4294967295
2.4200003 2.0042584 1.8097044 4294967295
2.4277141 1.3286881 1.8065696 4294967295
2.4196 1.3053776 1.8005 4294967295
2.4111581 1.2762758 1.795549 4294967295
2.4127498 1.2532361 1.8020951 4294967295
2.411 -0.89805508 1.8049079 4294967295
2.4180002 -0.90252244 1.7899201 4294967295
2.4200003 2.2485027 1.7760155 4294967295
2.4188888 -0.90472716 1.7660733 4294967295
2.41625 -0.9051314 1.7361935 4294967295
2.4203637 -0.90510911 1.7042092 4294967295
2.4138887 -0.9146865 1.6720089 4294967295
2.4128571 -0.91793299 1.6467379 4294967295
2.416625 -0.91345674 1.6158569 4294967295
2.4171247 -0.91575462 1.5838218 4294967295
2.4171996 -0.91942161 1.5558286 4294967295
2.4124999 -0.91259772 1.5265212 4294967295
2.4200001 0.54721439 1.4952749 4294967295
2.4085 0.53622419 1.4906404 4294967295
2.4170001 -0.91898513 1.4912446 4294967295
2.4154999 0.51535708 1.4738305 4294967295
2.4109998 -0.92361838 1.4660577 4294967295
2.4174447 -0.90667868 1.4325366 4294967295
2.4154284 -0.90771216 1.4005359 4294967295
2.4147143 -0.91944236 1.3762863 4294967295
2.4289999 0.49852821 1.3411024 4294967295
2.4123001 -0.92315632 1.3438498 4294967295
2.4290001 2.2568648 1.3044705 4294967295
2.4230001 0.50291854 1.3053366 4294967295
2.4126365 -0.92409921 1.3146924 4294967295
2.402 0.50413281 1.2706718 4294967295
2.4141817 -0.91501278 1.2841511 4294967295
2.4136 0.50544029 1.2563593 4294967295
2.4243333 -0.89926434 1.264523 4294967295
2.4144669 -0.90830177 1.253639 4294967295
2.4227695 2.2264233 1.2205167 4294967295
2.4245002 2.2161145 1.2270763 4294967295
2.4289999 0.66196334 1.2283885 4294967295
2.411 0.64584917 1.2259464 4294967295
2.4085 0.4971073 1.2307847 4294967295
2.4121819 -0.9224 1.227042 4294967295
2.4254003 2.2298875 1.2070752 4294967295
2.4144444 -0.91550833 1.1930122 4294967295
2.4290001 2.2455935 1.1579423 4294967295
2.4187143 -0.91374743 1.1612554 4294967295
2.418417 2.2362511 1.128983 4294967295
2.4142001 -0.91605109 1.1344469 4294967295
2.4162357 2.2311356 1.1056151 4294967295
2.4159999 -0.9202314 1.1054777 4294967295
2.4166472 2.2325108 1.0747154 4294967295
2.414875 -0.9275052 1.0764868 4294967295
2.4290001 2.251229 1.0593177 4294967295
2.4200003 2.2485027 1.0573194 4294967295
2.4093332 0.47772163 1.0381708 4294967295
2.4144444 -0.92048639 1.0442545 4294967295
2.4120002 0.48664066 1.0079768 4294967295
2.4175 0.47934094 1.0259118 4294967295
2.40975 -0.92553413 1.0173205 4294967295
2.4289999 0.4928925 0.98605371 4294967295
2.4134002 -0.93254602 0.98866004 4294967295
2.4245 0.49197939 0.96550715 4294967295
2.4141428 -0.92562032 0.95758575 4294967295
2.4153333 0.49572325 0.93297476 4294967295
2.415375 -0.91508418 0.92529076 4294967295
2.4259999 2.255949 0.89354676 4294967295
2.4221666 2.243012 0.88826609 4294967295
2.411 0.50042778 0.89309716 4294967295
2.4115 -0.90476519 0.8959595 4294967295
2.4208424 2.2318265 0.8671214 4294967295
2.408 0.49980515 0.87029195 4294967295
2.4138892 -0.91343874 0.86366248 4294967295
2.4267499 2.2336509 0.83640134 4294967295
2.4187498 0.50203639 0.82973188 4294967295
2.4124446 -0.91599256 0.83484435 4294967295
2.4289999 2.2533426 0.80359811 4294967295
2.4247646 2.2330832 0.80455029 4294967295
2.4232666 2.2132974 0.80354279 4294967295
2.4125001 0.50539732 0.80564225 4294967295
2.4164999 -0.91060477 0.80354834 4294967295
2.4289999 2.2568648 0.78880441 4294967295
2.4254 2.233269 0.78727889 4294967295
2.4245 2.2161145 0.78830636 4294967295
2.4165001 0.50296259 0.77478892 4294967295
2.4166365 -0.92155117 0.77622426 4294967295
2.4093332 0.50008184 0.74470949 4294967295
2.415 -0.89954495 0.73122299 4294967295
2.4147146 -0.91463017 0.7468071 4294967295
2.4289999 0.50416386 0.72681177 4294967295
2.4137502 -0.89276677 0.71500707 4294967295
2.4289999 2.2625005 0.67045486 4294967295
2.402 0.50413281 0.69107461 4294967295
2.402 -0.89470267 0.69664764 4294967295
2.4164002 -0.91014802 0.68313324 4294967295
2.4289999 2.2591193 0.65692914 4294967295
2.4200001 0.5191403 0.6446203 4294967295
2.402 0.50970584 0.66320938 4294967295
2.4160001 -0.91912818 0.6536212 4294967295
2.4153335 0.52374321 0.61916548 4294967295
2.4119999 -0.90400976 0.62400568 4294967295
2.4289999 2.2568648 0.58310157 4294967295
2.423857 2.2360232 0.58337051 4294967295
2.42225 2.2112529 0.58292884 4294967295
2.415 0.52367085 0.60795236 4294967295
2.4165001 -0.91972828 0.60379875 4294967295
2.411 -0.94280654 0.58822787 4294967295
2.4245 2.2601879 0.56236398 4294967295
2.4149568 2.2348068 0.56337243 4294967295
2.4147246 2.2080314 0.56524116 4294967295
2.4154999 0.50975269 0.5603177 4294967295
2.4189999 -0.97287673 0.56317258 4294967295
2.4275 2.2554677 0.53706038 4294967295
2.4242504 2.2358541 0.53853202 4294967295
2.4109998 0.48923212 0.53439152 4294967295
2.4230001 0.47855291 0.52578866 4294967295
2.4180999 -0.91750789 0.52783835 4294967295
2.4187503 -0.94581991 0.53794003 4294967295
2.4154999 -0.96977019 0.54632246 4294967295
2.4289999 2.251229 0.51547325 4294967295
2.4250002 2.2397847 0.50354141 4294967295
2.4163334 0.49516824 0.50558782 4294967295
2.4245 0.47791103 0.51829427 4294967295
2.4289997 0.33992368 0.5142656 4294967295
2.4290004 0.31520236 0.49906343 4294967295
2.4289999 0.29282534 0.49293047 4294967295
2.4289999 0.18292932 0.49011263 4294967295
2.4211767 0.16285439 0.498144 4294967295
2.4130859 0.13374145 0.50392425 4294967295
2.4220002 0.10735691 0.49913263 4294967295
2.4182854 0.039057732 0.49867165 4294967295
2.4170001 0.014586014 0.49908686 4294967295
2.4289999 -0.003048589 0.49011263 4294967295
2.4259999 -0.10998381 0.49014953 4294967295
2.4254005 -0.13472302 0.49466547 4294967295
2.4271998 -0.16636869 0.49013478 4294967295
2.4228237 -0.67924565 0.49746755 4294967295
2.4164617 -0.70320928 0.50192207 4294967295
2.4245 -0.72814333 0.49691829 4294967295
2.416579 -0.89067525 0.50561947 4294967295
2.405 -0.90325785 0.51645029 4294967295
2.4203 2.2361307 0.47281188 4294967295
2.4243999 0.50883412 0.47327697 4294967295
2.4289999 0.27310041 0.47320554 4294967295
2.4289999 0.25055763 0.46694365 4294967295
2.4278755 0.22298588 0.46724319 4294967295
2.4216249 0.1931477 0.47289297 4294967295
2.4140399 0.16500483 0.47350329 4294967295
2.4107668 0.13400535 0.47356099 4294967295
2.4190402 0.10358939 0.47340047 4294967295
2.4191425 0.043485522 0.4798044 4294967295
2.4155002 0.0053696921 0.48467436 4294967295
2.427875 -0.11078023 0.47956216 4294967295
2.4235001 -0.1351777 0.47892746 4294967295
2.4254785 -0.16698016 0.47424534 4294967295
2.4290004 -0.18977791 0.47095126 4294967295
2.4289999 -0.31019393 0.46193415 4294967295
2.4289999 -0.50462538 0.46475199 4294967295
2.4269998 -0.5239104 0.4676165 4294967295
2.4185832 -0.55552113 0.4708513 4294967295
2.4121602 -0.5843932 0.47534442 4294967295
2.4144585 -0.61620742 0.47397873 4294967295
2.4173706 -0.64574641 0.47365654 4294967295
2.4184613 -0.67573899 0.47384679 4294967295
2.4224997 -0.70343357 0.47644663 4294967295
2.4289999 -0.73506266 0.47946742 4294967295
2.423044 -0.76417631 0.47015062 4294967295
2.4201579 -0.79301018 0.47013912 4294967295
2.4289999 -0.81458861 0.46193415 4294967295
2.4171538 -0.88437188 0.47213909 4294967295
2.4130003 2.2302492 0.4457016 4294967295
2.4218333 0.4993881 0.44057119 4294967295
2.423857 0.46132079 0.43554848 4294967295
2.4184377 0.43288547 0.44080585 4294967295
2.4170556 0.40634242 0.44135657 4294967295
2.4186668 0.37574208 0.43693423 4294967295
2.4245 0.34665161 0.43485475 4294967295
2.4289999 0.32382166 0.4337557 4294967295
2.4289999 0.27732718 0.4351646 4294967295
2.4269545 0.25444061 0.4443312 4294967295
2.4281006 0.2251167 0.445059 4294967295
2.4153998 0.19312508 0.44545019 4294967295
2.4044547 0.16942047 0.45035392 4294967295
2.4056001 0.12813331 0.45300472 4294967295
2.4151113 0.10466299 0.44483748 4294967295
2.4289999 0.08712253 0.43939137 4294967295
2.4205 0.037891049 0.44167262 4294967295
2.4070001 0.014789377 0.44116452 4294967295
2.4205 -0.012184034 0.43616304 4294967295
2.4281435 -0.31343904 0.44585663 4294967295
2.4289999 -0.50462538 0.44502705 4294967295
2.4190001 -0.52217501 0.44533727 4294967295
2.4118934 -0.55322522 0.4449515 4294967295
2.4079287 -0.58644289 0.4396818 4294967295
2.4109499 -0.61721998 0.44332585 4294967295
2.4119229 -0.64485168 0.44531679 4294967295
2.4188888 -0.67276555 0.44750851 4294967295
2.4289999 -0.69342119 0.4534806 4294967295
2.4204168 -0.76653224 0.44715849 4294967295
2.4161248 -0.79299599 0.44588193 4294967295
2.4289999 -0.81458861 0.4534806 4294967295
2.4153845 -0.88501531 0.44587833 4294967295
2.412385 2.2256835 0.41540313 4294967295
2.4176431 2.2146401 0.40971327 4294967295
2.4064999 0.48692834 0.42757779 4294967295
2.4122505 0.46430349 0.42595834 4294967295
2.4058571 0.43477377 0.42381597 4294967295
2.402 0.41310632 0.42728361 4294967295
2.4073999 0.37119976 0.42893702 4294967295
2.412143 0.34155932 0.42715937 4294967295
2.4168124 0.3137686 0.42368528 4294967295
2.4173121 0.28406265 0.42261055 4294967295
2.4111333 0.2543135 0.42321178 4294967295
2.4125624 0.22541969 0.42350817 4294967295
2.4083571 0.19615056 0.4241173 4294967295
2.4040003 0.1271227 0.42410949 4294967295
2.4103808 0.10402635 0.42031488 4294967295
2.4162669 0.077689685 0.41814989 4294967295
2.4196188 0.042947534 0.41912475 4294967295
2.4121108 0.014700903 0.42129779 4294967295
2.4141333 -0.014237129 0.42308593 4294967295
2.4167058 -0.044593006 0.42266232 4294967295
2.4198751 -0.073932268 0.41934425 4294967295
2.4199998 -0.1022532 0.41255528 4294967295
2.4127142 -0.13258415 0.40714946 4294967295
2.4203334 -0.16713125 0.40848559 4294967295
2.4173162 -0.19637924 0.41382569 4294967295
2.4175241 -0.22418702 0.41869128 4294967295
2.4160666 -0.25529677 0.41741452 4294967295
2.4210908 -0.2849333 0.41514969 4294967295
2.4237502 -0.31232828 0.41426936 4294967295
2.40975 -0.34549093 0.40648401 4294967295
2.4200001 -0.37361497 0.40600115 4294967295
2.4206667 -0.40459436 0.40596974 4294967295
2.4170001 -0.43483821 0.4061425 4294967295
2.4157779 -0.46637502 0.40869656 4294967295
2.4206111 -0.4978804 0.41877508 4294967295
2.4120998 -0.52349931 0.42037228 4294967295
2.4149168 -0.55353105 0.41792393 4294967295
2.4202962 -0.5824731 0.41473648 4294967295
2.4206004 -0.61031729 0.40937382 4294967295
2.4199998 -0.64312595 0.40414348 4294967295
2.4087501 -0.67362154 0.40235132 4294967295
2.4042499 -0.70309299 0.40116483 4294967295
2.402 -0.74980336 0.40127605 4294967295
2.4120002 -0.76693243 0.40078175 4294967295
2.4233749 -0.7916075 0.41078645 4294967295
2.4200001 -0.8199926 0.40038633 4294967295
2.4153335 -0.86043429 0.400617 4294967295
2.4159334 -0.88418055 0.41740209 4294967295
2.4289999 2.251229 0.39430583 4294967295
2.4245 2.229233 0.39359939 4294967295
2.4289999 2.2145972 0.39712366 4294967295
2.4289999 -0.83713138 0.3999415 4294967295
2.4289999 -0.85403842 0.3999415 4294967295
2.4259999 2.2597027 0.34662029 4294967295
2.4245002 2.2353332 0.34672922 4294967295
2.415 2.2578652 0.33899814 4294967295
2.4100885 2.230711 0.32489711 4294967295
2.4127336 2.2144804 0.32909292 4294967295
2.4289999 2.251229 0.29286331 4294967295
2.4216156 2.235718 0.30219561 4294967295
2.4289999 2.2427757 0.23650637 4294967295
2.4289999 2.2249293 0.19329938 4294967295
2.4289999 2.2174151 0.20551005 4294967295
2.4289999 2.251229 0.18014944 4294967295
2.4289999 2.2350266 0.18296731 4294967295
2.4289999 2.2399578 -0.017099857 4294967295
2.4259999 2.252192 -0.044573188 4294967295
2.4200001 2.242888 -0.031954229 4294967295
2.4289999 2.2534833 -0.055422604 4294967295
2.4289999 2.251229 -0.17489934 4294967295
2.4245 2.2408633 -0.18711251 4294967295
2.4289999 2.243715 -0.20683491 4294967295
2.451273 2.1922393 1.8811735 4294967295
2.4375002 2.1884093 1.8784178 4294967295
2.4560003 2.1356943 1.8896725 4294967295
2.4492226 2.1184404 1.8789399 4294967295
2.4330003 2.0968773 1.8730824 4294967295
2.4330003 1.9839778 1.8787273 4294967295
2.4478335 1.9659827 1.8806182 4294967295
2.4556668 1.934088 1.8796114 4294967295
2.4487276 1.9064218 1.87976 4294967295
2.4330003 1.8823682 1.8759048 4294967295
2.4330003 1.7948711 1.8759048 4294967295
2.4386251 1.7509274 1.8726693 4294967295
2.4375002 1.7331482 1.872752 4294967295
2.4432225 1.621944 1.8781282 4294967295
2.4538574 1.6122035 1.8854958 4294967295
2.4552858 1.5781541 1.8846613 4294967295
2.4535003 1.5054433 1.8759472 4294967295
2.4420002 1.4898988 1.8837534 4294967295
2.4509132 1.3943044 1.8810607 4294967295
2.4560003 1.3759156 1.8858736 4294967295
2.4547501 1.3282301 1.875212 4294967295
2.4539998 1.3049527 1.8836261 4294967295
2.4541249 1.2752161 1.8812737 4294967295
2.455375 1.2402662 1.8784059 4294967295
2.4488001 1.2162126 1.8795946 4294967295
2.4360001 1.1913897 1.875688 4294967295
2.4476669 0.93300509 1.8831295 4294967295
2.451 0.92954886 1.8745626 4294967295
2.4500906 0.85583168 1.8810362 4294967295
2.4398751 0.82625985 1.8804498 4294967295
2.4375 0.80284274 1.8784178 4294967295
2.4454999 -0.87968951 1.8800392 4294967295
2.448 2.2643011 1.8530188 4294967295
2.4364998 2.2371373 1.8542876 4294967295
2.4470005 2.1970785 1.8533657 4294967295
2.4352503 2.187803 1.8616168 4294967295
2.4530003 2.1105571 1.8614343 4294967295
2.4443686 2.0869653 1.8507237 4294967295
2.4330003 2.0630074 1.8448575 4294967295
2.4420342 1.9635826 1.8560219 4294967295
2.4536924 1.9370481 1.8536419 4294967295
2.4524505 1.9048167 1.8560095 4294967295
2.4440002 1.8764502 1.8517603 4294967295
2.4446254 1.8473908 1.8419633 4294967295
2.443563 1.811856 1.843505 4294967295
2.4418919 1.7867864 1.8522707 4294967295
2.4460402 1.7589383 1.8637483 4294967295
2.4476001 1.7236656 1.8596034 4294967295
2.4432502 1.7032187 1.8482887 4294967295
2.4490001 1.6259036 1.8564045 4294967295
2.4560003 1.5782067 1.8687785 4294967295
2.4508891 1.5070044 1.8514367 4294967295
2.4366004 1.4905536 1.8536043 4294967295
2.4507504 1.415616 1.8459891 4294967295
2.4474001 1.400967 1.8614072 4294967295
2.4549475 1.3642365 1.8559119 4294967295
2.4477861 1.336834 1.8565683 4294967295
2.4415715 1.3051071 1.860056 4294967295
2.4404738 1.2739303 1.8572804 4294967295
2.4523082 1.2462524 1.8566874 4294967295
2.4521875 1.2130572 1.8627659 4294967295
2.4441302 1.1836071 1.8538477 4294967295
2.4437001 1.155831 1.8469814 4294967295
2.4422226 1.1257849 1.846711 4294967295
2.4486001 1.1058797 1.843104 4294967295
2.4530001 0.96635514 1.8405665 4294967295
2.4473639 0.9408049 1.8536996 4294967295
2.4535 0.92764789 1.8617129 4294967295
2.4536002 0.88386071 1.8512368 4294967295
2.4409091 0.85777164 1.8574021 4294967295
2.4445 0.82070452 1.8482438 4294967295
2.4457142 0.79783297 1.856637 4294967295
2.4480002 -0.88840961 1.8537219 4294967295
2.4428334 2.2564957 1.8322643 4294967295
2.4396946 2.2329738 1.821444 4294967295
2.4407501 2.2111335 1.8317219 4294967295
2.4526002 2.0801952 1.8299185 4294967295
2.4429417 2.0550873 1.8245732 4294967295
2.4473639 2.0251043 1.8160232 4294967295
2.4453127 1.9936432 1.8228309 4294967295
2.4462311 1.9667891 1.8323957 4294967295
2.4536672 1.9438921 1.8342837 4294967295
2.4442503 1.8421491 1.838204 4294967295
2.4450002 1.8207141 1.8381368 4294967295
2.4494288 1.6904826 1.833498 4294967295
2.4420004 1.6647347 1.8260496 4294967295
2.4463336 1.6377242 1.8317734 4294967295
2.4543335 1.5078542 1.8355919 4294967295
2.4456925 1.4840465 1.830359 4294967295
2.4500909 1.4537305 1.8288354 4294967295
2.4485555 1.4266404 1.8324758 4294967295
2.4533126 1.3932689 1.8231924 4294967295
2.445389 1.3643026 1.8238719 4294967295
2.4342859 1.3403524 1.8253911 4294967295
2.4479444 1.2480118 1.8245838 4294967295
2.4451666 1.0908958 1.8353914 4294967295
2.4448571 1.0674025 1.8302401 4294967295
2.4466667 1.0338604 1.8314744 4294967295
2.446727 1.0063494 1.8327118 4294967295
2.4439998 0.97711784 1.836261 4294967295
2.451 0.87552482 1.8375988 4294967295
2.4453847 0.8562777 1.8349997 4294967295
2.4411998 0.83067554 1.8357219 4294967295
2.4330001 -0.89213723 1.8335676 4294967295
2.4430001 -0.90203351 1.8196979 4294967295
2.4421668 2.252089 1.7875149 4294967295
2.4443333 2.2429352 1.7959754 4294967295
2.4516153 1.3900877 1.7989826 4294967295
2.4422402 1.3632179 1.7943381 4294967295
2.4414229 1.3374491 1.7956083 4294967295
2.4438336 1.3067247 1.7949873 4294967295
2.4433334 1.2731837 1.7975636 4294967295
2.4482222 1.2535266 1.8039056 4294967295
2.447 -0.90578693 1.7957064 4294967295
2.4437857 2.25318 1.7636472 4294967295
2.4484172 2.2408009 1.7640041 4294967295
2.4466252 -0.90706199 1.7642883 4294967295
2.4472504 2.2574844 1.737974 4294967295
2.4532731 2.2416403 1.7425703 4294967295
2.4446669 -0.90586412 1.7358607 4294967295
2.4485714 -0.91042036 1.7040105 4294967295
2.4467144 -0.92108512 1.6787701 4294967295
2.4483335 -0.92142272 1.6458528 4294967295
2.4502001 -0.91834122 1.6154602 4294967295
2.4560003 2.2762532 1.5781631 4294967295
2.4441431 -0.92011541 1.5868211 4294967295
2.4540558 2.2684352 1.5504391 4294967295
2.4487145 -0.92021596 1.5587925 4294967295
2.4555457 2.2628844 1.5235857 4294967295
2.4520559 2.2362437 1.5202084 4294967295
2.4456251 -0.91520202 1.5254443 4294967295
2.4553752 2.2564464 1.4931486 4294967295
2.4506209 2.2328353 1.4956458 4294967295
2.4560003 2.21927 1.5040848 4294967295
2.4375 0.53138274 1.499505 4294967295
2.4422503 -0.92243928 1.5028172 4294967295
2.4526665 -0.93064696 1.4913641 4294967295
2.4432502 -0.92138803 1.4635326 4294967295
2.451 -0.93001455 1.4793344 4294967295
2.4480002 -0.90777463 1.4367647 4294967295
2.4535003 2.2602704 1.401186 4294967295
2.4434998 -0.91394144 1.40552 4294967295
2.4470005 2.2561903 1.375578 4294967295
2.4541252 2.2481782 1.3723717 4294967295
2.4437501 -0.92371053 1.3744359 4294967295
2.4485238 2.2576768 1.3471494 4294967295
2.4543335 2.2481318 1.351558 4294967295
2.4454999 -0.92508131 1.3466587 4294967295
2.4492004 2.2612264 1.3123232 4294967295
2.4462223 -0.92504084 1.3128644 4294967295
2.4560003 2.2819517 1.2818496 4294967295
2.4527004 2.2669299 1.2876465 4294967295
2.4330001 0.50499415 1.2944725 4294967295
2.4489999 -0.89799601 1.2739961 4294967295
2.4443636 -0.90892249 1.287524 4294967295
2.4497337 2.2609711 1.2560444 4294967295
2.4491336 2.2384367 1.2501773 4294967295
2.4560001 0.65792489 1.2419612 4294967295
2.4515002 0.50456548 1.2520142 4294967295
2.4512501 -0.89740199 1.2647276 4294967295
2.4445999 -0.90867019 1.2495649 4294967295
2.4423161 2.2280533 1.2262911 4294967295
2.445909 -0.92498058 1.2260938 4294967295
2.4560003 2.2534599 1.1906761 4294967295
2.4467275 2.2382388 1.2025833 4294967295
2.4478002 -0.91857487 1.1941156 4294967295
2.4467504 2.2534852 1.1682837 4294967295
2.4485338 2.2450721 1.1609988 4294967295
2.4487145 -0.91859078 1.1618985 4294967295
2.4446366 2.2396626 1.134973 4294967295
2.447222 -0.9210037 1.1333854 4294967295
2.4450002 2.2383878 1.1047083 4294967295
2.4467502 -0.92555678 1.1029929 4294967295
2.4470003 2.2508795 1.0633143 4294967295
2.4410002 2.2380579 1.0724952 4294967295
2.4406669 -0.92796648 1.0694401 4294967295
2.44875 -0.93057734 1.0807474 4294967295
2.4512002 2.2843122 1.0323966 4294967295
2.4480402 2.2656844 1.0469465 4294967295
2.4543335 2.2462325 1.0592481 4294967295
2.4468002 -0.92387289 1.0507674 4294967295
2.451 -0.93001455 1.0357687 4294967295
2.4535003 2.2824721 1.0249097 4294967295
2.4547503 2.2750919 1.0151979 4294967295
2.4466665 0.48891211 1.014028 4294967295
2.4330001 -0.92882961 1.026336 4294967295
2.4447999 -0.93786943 1.0117682 4294967295
2.4330001 0.49370426 0.98682123 4294967295
2.4466 -0.93856072 0.98376715 4294967295
2.4445 0.49603775 0.94648743 4294967295
2.4458001 -0.92576444 0.94842356 4294967295
2.4464998 -0.93114001 0.9638629 4294967295
2.4504001 2.2615767 0.91928625 4294967295
2.4543333 2.2481318 0.9130913 4294967295
2.4513333 0.5031119 0.92207789 4294967295
2.448 -0.91608804 0.92508745 4294967295
2.4398334 2.2565389 0.90604937 4294967295
2.4448695 2.2412481 0.8934058 4294967295
2.4438999 -0.90803391 0.89534545 4294967295
2.4426115 2.2342293 0.86398482 4294967295
2.4496002 0.50275618 0.86497974 4294967295
2.446857 -0.91870284 0.86620796 4294967295
2.4356999 2.2602656 0.83080006 4294967295
2.4414244 2.2376492 0.83429933 4294967295
2.4524002 0.50333083 0.83690131 4294967295
2.4467144 -0.91864765 0.83373725 4294967295
2.4445 2.2826097 0.81037629 4294967295
2.4355714 2.2670088 0.80891269 4294967295
2.4411998 2.2318971 0.81847453 4294967295
2.4458666 2.2157748 0.80201983 4294967295
2.44225 0.50691408 0.80442894 4294967295
2.446125 -0.91396767 0.80345988 4294967295
2.4461365 2.2619381 0.77313507 4294967295
2.4460869 2.2352085 0.77859128 4294967295
2.4445 2.217346 0.78767049 4294967295
2.4419999 0.50401884 0.77603662 4294967295
2.4444287 -0.92021406 0.77146852 4294967295
2.4560001 2.2591584 0.75760233 4294967295
2.4492502 0.50268435 0.7484175 4294967295
2.4474165 -0.90971667 0.74683774 4294967295
2.4464998 0.50779623 0.71978211 4294967295
2.4448001 -0.89589012 0.72361785 4294967295
2.447 -0.90010953 0.70563453 4294967295
2.4442353 2.2573195 0.67840463 4294967295
2.4419999 0.512528 0.67974842 4294967295
2.4448571 -0.915528 0.68358517 4294967295
2.4408569 2.2557251 0.65392929 4294967295
2.4486365 2.2477129 0.65410554 4294967295
2.4330001 0.51628411 0.65941262 4294967295
2.4467499 -0.9241392 0.65451324 4294967295
2.4510477 2.2616296 0.62740004 4294967295
2.4543333 2.2481318 0.63595772 4294967295
2.447 0.52493232 0.63750505 4294967295
2.4465716 -0.90805352 0.62532675 4294967295
2.4445 2.2826097 0.5891788 4294967295
2.4454281 2.2632024 0.60096741 4294967295
2.4434998 2.2348781 0.5941149 4294967295
2.44225 2.2153208 0.5820238 4294967295
2.4464998 -0.91978735 0.60626137 4294967295
2.4432502 -0.9412449 0.59197199 4294967295
2.4419999 -0.96341723 0.58060634 4294967295
2.4330001 2.2718716 0.57473803 4294967295
2.451 2.2204385 0.55239606 4294967295
2.4448001 2.2136769 0.56422722 4294967295
2.4489999 0.51683015 0.56656671 4294967295
2.4330001 0.50499415 0.55215812 4294967295
2.451 -0.9792996 0.56566507 4294967295
2.4430001 2.2299135 0.53477257 4294967295
2.4440002 0.4902598 0.54096484 4294967295
2.4434285 0.46826899 0.52638 4294967295
2.4483335 0.37469 0.52395803 4294967295
2.4476001 0.34332767 0.52395684 4294967295
2.4560001 0.31887367 0.52397043 4294967295
2.4513333 0.15618066 0.52396291 4294967295
2.4430001 0.13296543 0.52394944 4294967295
2.4514999 0.11351987 0.52396315 4294967295
2.4560001 -0.47604465 0.52397043 4294967295
2.4560001 -0.48744136 0.52397043 4294967295
2.4466667 -0.88956004 0.52490312 4294967295
2.4455454 -0.91298586 0.53273284 4294967295
2.4466667 -0.94160581 0.54193515 4294967295
2.4467502 -0.96528047 0.54666299 4294967295
2.4407585 2.2355413 0.5063737 4294967295
2.4416003 0.48920617 0.49957934 4294967295
2.4450357 0.46392059 0.50692135 4294967295
2.4520476 0.43633905 0.50581014 4294967295
2.453692 0.40418711 0.51082653 4294967295
2.4469998 0.37384841 0.51006204 4294967295
2.4380553 0.34703377 0.50507498 4294967295
2.4373126 0.31396791 0.51016927 4294967295
2.4398074 0.2843298 0.50589585 4294967295
2.4449086 0.25579497 0.50540638 4294967295
2.4508574 0.22492184 0.50474513 4294967295
2.4445002 0.19591607 0.50176156 4294967295
2.4414618 0.17037068 0.51219422 4294967295
2.4330001 0.14936073 0.51828825 4294967295
2.4407694 0.099730901 0.51088703 4294967295
2.4491427 0.077015333 0.50340784 4294967295
2.4413891 0.048852511 0.50697595 4294967295
2.444778 0.012058605 0.51072836 4294967295
2.447875 -0.0080516553 0.50053632 4294967295
2.4525714 -0.08274056 0.4987675 4294967295
2.4409473 -0.10500223 0.50130868 4294967295
2.4445002 -0.13564302 0.50978953 4294967295
2.4438 -0.16477582 0.50628233 4294967295
2.4473045 -0.19539836 0.50225258 4294967295
2.4538751 -0.2233468 0.50226527 4294967295
2.4560001 -0.24583173 0.49889773 4294967295
2.4543335 -0.41497797 0.49929234 4294967295
2.4476843 -0.43645778 0.50244939 4294967295
2.4395428 -0.46475735 0.50456142 4294967295
2.4418209 -0.49556097 0.50413758 4294967295
2.4456539 -0.52532119 0.50193626 4294967295
2.4457498 -0.55406505 0.49957329 4294967295
2.4450476 -0.58385825 0.49830976 4294967295
2.4455626 -0.6130386 0.49701798 4294967295
2.4470668 -0.648036 0.4978556 4294967295
2.443471 -0.6717034 0.50662464 4294967295
2.4383335 -0.70173293 0.5182845 4294967295
2.4425387 -0.7389062 0.50653774 4294967295
2.4436667 -0.76343602 0.49750763 4294967295
2.449923 -0.79580939 0.49947995 4294967295
2.4540668 -0.82451439 0.50233525 4294967295
2.4554005 -0.85534161 0.50459927 4294967295
2.4429998 -0.8798129 0.50669175 4294967295
2.4447141 2.2360616 0.47641984 4294967295
2.4491055 0.49994937 0.47730103 4294967295
2.4557223 0.45969811 0.47807378 4294967295
2.4531429 0.43599901 0.47478402 4294967295
2.4537501 0.41393736 0.46276706 4294967295
2.4512632 0.33966747 0.47815466 4294967295
2.44028 0.31401742 0.47297645 4294967295
2.4333911 0.28586948 0.47311911 4294967295
2.4347997 0.25679567 0.47903249 4294967295
2.4369998 0.22625118 0.48248407 4294967295
2.4330001 0.20581049 0.48441842 4294967295
2.4437585 0.075910777 0.47526395 4294967295
2.4358001 0.056851074 0.47757751 4294967295
2.4478002 -0.0099018393 0.48647714 4294967295
2.4560001 -0.044395439 0.46128869 4294967295
2.4507 -0.076598391 0.4741092 4294967295
2.4372349 -0.10185069 0.47004363 4294967295
2.4330003 -0.13571052 0.464661 4294967295
2.4330001 -0.15829043 0.46183851 4294967295
2.4360001 -0.20276199 0.4787313 4294967295
2.4439666 -0.22422138 0.47576985 4294967295
2.45 -0.25425693 0.47494707 4294967295
2.4493043 -0.28498834 0.47109675 4294967295
2.4451663 -0.31541204 0.47102132 4294967295
2.4487221 -0.34301311 0.46904874 4294967295
2.4552305 -0.37204611 0.46963453 4294967295
2.4523547 -0.40613291 0.47660625 4294967295
2.4468668 -0.43452865 0.4756884 4294967295
2.4424336 -0.46490598 0.47293374 4294967295
2.4341247 -0.49345154 0.47451717 4294967295
2.4336927 -0.52470952 0.48223877 4294967295
2.4347999 -0.55441469 0.48552528 4294967295
2.4419999 -0.6263091 0.48995265 4294967295
2.4419999 -0.63764083 0.48995265 4294967295
2.4330003 -0.71337968 0.46560183 4294967295
2.4345882 -0.73670989 0.46910581 4294967295
2.4330001 -0.76512527 0.48441842 4294967295
2.4379091 -0.79598105 0.48640883 4294967295
2.4446154 -0.827034 0.47727993 4294967295
2.4545715 -0.85754251 0.47454575 4294967295
2.4473999 -0.87866342 0.47625405 4294967295
2.4452665 2.2333822 0.4445219 4294967295
2.4450529 0.49285227 0.44902503 4294967295
2.4436111 0.46530423 0.44837162 4294967295
2.43525 0.43625018 0.45331207 4294967295
2.4426 0.40212196 0.45367962 4294967295
2.4465833 0.37440294 0.44827667 4294967295
2.4444766 0.34398088 0.44726974 4294967295
2.4409997 0.31335726 0.44565719 4294967295
2.435143 0.28644395 0.44672209 4294967295
2.4330001 0.26790518 0.45054859 4294967295
2.4396362 0.074625812 0.44547307 4294967295
2.4405835 0.054984447 0.44514537 4294967295
2.4394002 -0.024571944 0.44585222 4294967295
2.4466662 -0.045653012 0.44449809 4294967295
2.4498398 -0.076966606 0.44439143 4294967295
2.4489601 -0.10534798 0.44440413 4294967295
2.4483995 -0.13372917 0.44441807 4294967295
2.4419997 -0.16452752 0.44460988 4294967295
2.4329996 -0.19498277 0.44490361 4294967295
2.4337199 -0.22327705 0.44488388 4294967295
2.4393005 -0.25491652 0.44471958 4294967295
2.4347999 -0.28550592 0.44485137 4294967295
2.4330001 -0.31465626 0.44264561 4294967295
2.4421248 -0.34352547 0.44438183 4294967295
2.455375 -0.3641226 0.44634694 4294967295
2.4560001 -0.41621211 0.45559037 4294967295
2.4543335 -0.43775392 0.45468435 4294967295
2.4513333 -0.46849573 0.44599384 4294967295
2.4403806 -0.49214572 0.44440389 4294967295
2.43525 -0.68249643 0.43494502 4294967295
2.4403181 -0.70644027 0.44337717 4294967295
2.4418216 -0.73571402 0.44522786 4294967295
2.4363751 -0.75628704 0.43702453 4294967295
2.441 -0.82727391 0.44316444 4294967295
2.4545219 -0.85707253 0.44522548 4294967295
2.4461668 -0.87897831 0.44354928 4294967295
2.446182 2.2248282 0.41817841 4294967295
2.4458001 2.2179728 0.40818763 4294967295
2.4347999 0.069249935 0.42564261 4294967295
2.4330001 0.057159461 0.42608702 4294967295
2.4330001 -0.053858392 0.42796868 4294967295
2.4368572 -0.078987688 0.42620993 4294967295
2.4425716 -0.10589029 0.42235345 4294967295
2.4447999 -0.13494645 0.41903096 4294967295
2.4407368 -0.16398963 0.42142379 4294967295
2.4330003 -0.19014423 0.42474297 4294967295
2.4330001 -0.21474019 0.42796868 4294967295
2.4330003 -0.25425503 0.42796868 4294967295
2.4330003 -0.28404796 0.4254598 4294967295
2.4330003 -0.31691423 0.42401719 4294967295
2.4441578 -0.34392661 0.41949734 4294967295
2.4496427 -0.37331238 0.41476065 4294967295
2.4492142 -0.40735224 0.41559476 4294967295
2.4445629 -0.43518355 0.41585159 4294967295
2.4451499 -0.46485385 0.42071283 4294967295
2.4347999 -0.48774976 0.42564261 4294967295
2.4330001 -0.59389436 0.41856039 4294967295
2.4341249 -0.61688042 0.41804349 4294967295
2.4408262 -0.6449635 0.41732711 4294967295
2.4474001 -0.67397064 0.41663334 4294967295
2.4532001 -0.70394027 0.41847581 4294967295
2.4518275 -0.73454726 0.41627082 4294967295
2.4418335 -0.76505828 0.41629803 4294967295
2.4397726 -0.79633123 0.41483825 4294967295
2.4477272 -0.82500386 0.41528428 4294967295
2.4490001 -0.85323817 0.41175449 4294967295
2.4464002 -0.87944096 0.41952279 4294967295
2.4461541 2.2610152 0.37638503 4294967295
2.4429617 2.2303491 0.38005924 4294967295
2.446727 2.2175765 0.39080021 4294967295
2.4330001 -0.84697741 0.3997438 4294967295
2.4454999 2.2835383 0.35799688 4294967295
2.4400001 2.2631586 0.35934329 4294967295
2.4452083 2.2350211 0.35540497 4294967295
2.4467692 2.2270741 0.32482487 4294967295
2.4389999 2.2567203 0.28438067 4294967295
2.4453046 2.2362223 0.29503635 4294967295
2.4465625 2.2568591 0.26922506 4294967295
2.4518888 2.2439959 0.26512468 4294967295
2.4419999 2.251946 0.24632081 4294967295
2.4446874 2.234194 0.23486251 4294967295
2.4512501 2.214256 0.22538263 4294967295
2.4414287 2.2627499 0.20026517 4294967295
2.4329996 2.2350745 0.20488757 4294967295
2.4434285 2.2125387 0.2068865 4294967295
2.4405715 2.2627547 0.17124259 4294967295
2.4426663 2.234345 0.17469421 4294967295
2.4489999 2.2186105 0.18871531 4294967295
2.4560001 2.2677057 0.15357837 4294967295
2.4560001 2.2477615 0.15927669 4294967295
2.4513333 2.2832923 0.086046129 4294967295
2.4488823 2.2699761 0.079783469 4294967295
2.4499445 2.2652657 0.05753094 4294967295
2.455375 2.2628541 0.026914001 4294967295
2.4535 2.2540095 0.0059453845 4294967295
2.4502223 2.2430902 -0.0078856945 4294967295
2.4445 2.2514126 -0.043210924 4294967295
2.4428499 2.2450452 -0.034043133 4294967295
2.4461331 2.2561283 -0.068189085 4294967295
2.4471252 2.2481275 -0.056590676 4294967295
2.4525001 2.2687304 -0.083464086 4294967295
2.4560001 2.2876499 -0.16267949 4294967295
