# .PCD v0.7 - Point Cloud Data file format
VERSION 0.7
FIELDS x y z rgb
SIZE 4 4 4 4
TYPE F F F U
COUNT 1 1 1 1
WIDTH 1092
HEIGHT 1
VIEWPOINT 0 0 0 1 0 0 0
POINTS 1092
DATA ascii
1.4758238 0.73389006 0.25470719 4278190080
1.487236 0.73310065 0.25626981 4278190080
1.494223 0.73007327 0.25705111 4278190080
1.5056521 0.72915775 0.25861374 4278190080
1.5170925 0.72817206 0.26017636 4278190080
1.5285445 0.72711456 0.26173896 4278190080
1.5401341 0.72571766 0.26330158 4278190080
1.5516076 0.7245158 0.26486421 4278190080
1.5632174 0.72297037 0.26642683 4278190080
1.5792005 0.72368115 0.26877075 4278190080
1.5905846 0.72252536 0.27033338 4278190080
1.6021037 0.7210229 0.271896 4278190080
1.6181427 0.72145891 0.27423993 4278190080
1.634204 0.72179174 0.27658388 4278190080
1.6457623 0.72004247 0.27814648 4278190080
1.66186 0.72018409 0.28049043 4278190080
1.6779782 0.72022295 0.28283435 4278190080
1.689572 0.718225 0.28439698 4278190080
1.7058491 0.71777397 0.2867409 4278190080
1.7174617 0.7156136 0.28830352 4278190080
1.7290795 0.71338183 0.28986612 4278190080
1.7452749 0.71294433 0.29221007 4278190080
1.761488 0.71240228 0.294554 4278190080
1.7777181 0.71175665 0.29689795 4278190080
1.7985564 0.712825 0.30002317 4278190080
1.8148258 0.71195382 0.30236709 4278190080
1.8357151 0.71276426 0.30549234 4278190080
1.8520218 0.71166599 0.30783626 4278190080
1.868467 0.71013713 0.31018022 4278190080
1.8894244 0.71056378 0.31330544 4278190080
1.9057788 0.70913154 0.31564939 4278190080
1.9267807 0.70929879 0.31877464 4278190080
1.9478065 0.70932895 0.32189986 4278190080
1.9642098 0.70754623 0.32424381 4278190080
1.9852763 0.70731497 0.32736906 4278190080
2.0063646 0.70694625 0.33049428 4278190080
2.0274744 0.70643777 0.33361953 4278190080
2.0439355 0.70418286 0.33596343 4278190080
2.0650804 0.70341283 0.33908868 4278190080
2.0862451 0.7025038 0.34221396 4278190080
2.1074276 0.70145655 0.34533918 4278190080
2.1333194 0.70181203 0.34924573 4278190080
2.1545424 0.70046943 0.35237095 4278190080
2.1804841 0.70049661 0.35627753 4278190080
2.2017448 0.69885695 0.35940278 4278190080
2.2230198 0.69707847 0.362528 4278190080
2.2444305 0.69476789 0.36565325 4278190080
2.2657335 0.6927042 0.36877847 4278190080
2.2917769 0.69192767 0.37268505 4278190080
2.3178415 0.69097883 0.37659156 4278190080
2.3439279 0.68985522 0.38049814 4278190080
2.370034 0.68855906 0.38440472 4278190080
2.3961594 0.68708766 0.38831124 4278190080
2.4223034 0.68544221 0.39221781 4278190080
2.4532208 0.68495184 0.39690566 4278190080
2.4794035 0.6829412 0.40081224 4278190080
2.5103669 0.68205214 0.40550008 4278190080
2.5413542 0.6809538 0.41018796 4278190080
2.5724826 0.67919934 0.41487581 4278190080
2.6033955 0.67813402 0.41956365 4278190080
2.6345651 0.67595196 0.42425153 4278190080
2.6656361 0.67401475 0.42893937 4278190080
2.6967251 0.67186874 0.43362725 4278190080
2.7326274 0.67069244 0.43909642 4278190080
2.7685544 0.66927212 0.44456559 4278190080
2.8045037 0.66761053 0.45003477 4278190080
2.8404753 0.66570455 0.45550394 4278190080
2.8764672 0.6635555 0.46097311 4278190080
2.9076619 0.66007137 0.46566099 4278190080
2.9195881 0.65207005 0.46722361 4278190080
2.9411404 0.64611435 0.47034883 4278190080
2.8516607 0.61603004 0.45550394 4278190080
2.6653912 0.56605971 0.42503285 4278190080
2.6286755 0.54868054 0.41878232 4278190080
2.6161549 0.53606725 0.41643843 4278190080
2.5792782 0.51913708 0.41018796 4278190080
2.5859196 0.51108754 0.41096923 4278190080
2.5828395 0.50111806 0.41018796 4278190080
2.5797217 0.49117497 0.40940663 4278190080
2.576566 0.48125976 0.40862533 4278190080
2.5830877 0.47315356 0.40940663 4278190080
2.5895846 0.46500635 0.41018796 4278190080
2.5960557 0.45682085 0.41096923 4278190080
2.6025014 0.44859451 0.41175056 4278190080
2.6089211 0.44032866 0.41253185 4278190080
2.6153147 0.4320249 0.41331318 4278190080
2.616807 0.42289257 0.41331318 4278190080
2.6475353 0.41838163 0.41800106 4278190080
2.6636219 0.41139838 0.42034498 4278190080
2.669925 0.40283433 0.42112628 4278190080
2.7934611 0.41150638 0.44065905 4278190080
2.9513073 0.42423797 0.46566099 4278190080
2.9185348 0.40913504 0.46019179 4278190080
2.9052656 0.39693871 0.45784786 4278190080
2.9115291 0.38744587 0.45862919 4278190080
2.9128637 0.37728131 0.45862919 4278190080
2.9190629 0.36772785 0.45941046 4278190080
2.9203284 0.35753709 0.45941046 4278190080
2.9215589 0.34734046 0.45941046 4278190080
2.9227536 0.33713958 0.45941046 4278190080
2.9239695 0.32642531 0.45941046 4278190080
2.925091 0.31621772 0.45941046 4278190080
2.9212654 0.30549106 0.45862919 4278190080
2.9223139 0.29529145 0.45862919 4278190080
2.923327 0.28508979 0.45862919 4278190080
2.9243042 0.27488312 0.45862919 4278190080
2.9203274 0.26422963 0.45784786 4278190080
2.921232 0.25403354 0.45784786 4278190080
2.922101 0.24383438 0.45784786 4278190080
2.9229341 0.23363379 0.45784786 4278190080
2.9188077 0.2230525 0.45706657 4278190080
2.9195685 0.21286353 0.45706657 4278190080
2.9202938 0.20267043 0.45706657 4278190080
2.9160557 0.19215012 0.45628524 4278190080
2.9167085 0.18197094 0.45628524 4278190080
2.917326 0.17178799 0.45628524 4278190080
2.9179077 0.16160451 0.45628524 4278190080
2.9135222 0.15116163 0.45550394 4278190080
2.9140322 0.14099 0.45550394 4278190080
2.9145067 0.1308182 0.45550394 4278190080
2.9149456 0.12064326 0.45550394 4278190080
2.9104137 0.11028139 0.45472261 4278190080
2.9107983 0.099612333 0.45472261 4278190080
2.9111283 0.089452073 0.45472261 4278190080
2.911423 0.079289176 0.45472261 4278190080
2.9067328 0.069515921 0.45394132 4278190080
2.9069576 0.059370033 0.45394132 4278190080
2.9071472 0.049221877 0.45394132 4278190080
2.9073014 0.039073121 0.45394132 4278190080
2.9074199 0.028925436 0.45394132 4278190080
2.9075065 0.0182679 0.45394132 4278190080
2.9075525 0.008119625 0.45394132 4278190080
2.9075632 -0.0020298623 0.45394132 4278190080
2.9075384 -0.012179139 0.45394132 4278190080
2.9025395 -0.022290342 0.45315999 4278190080
2.9024441 -0.032421958 0.45315999 4278190080
2.9023132 -0.042553183 0.45315999 4278190080
2.9021471 -0.052683886 0.45315999 4278190080
2.9019454 -0.062813953 0.45315999 4278190080
2.9017086 -0.072943248 0.45315999 4278190080
2.9014361 -0.083071657 0.45315999 4278190080
2.9060647 -0.09335763 0.45394132 4278190080
2.9057212 -0.10350111 0.45394132 4278190080
2.9053421 -0.11364335 0.45394132 4278190080
2.9049277 -0.12378419 0.45394132 4278190080
2.9044778 -0.13392353 0.45394132 4278190080
2.9039929 -0.14406122 0.45394132 4278190080
2.9034722 -0.15419717 0.45394132 4278190080
2.9029162 -0.16433124 0.45394132 4278190080
2.9023249 -0.17446332 0.45394132 4278190080
2.9016984 -0.18459326 0.45394132 4278190080
2.9010363 -0.19472095 0.45394132 4278190080
2.9003389 -0.20484626 0.45394132 4278190080
2.8996062 -0.21496908 0.45394132 4278190080
2.898838 -0.2250893 0.45394132 4278190080
2.8980348 -0.23520675 0.45394132 4278190080
2.8971531 -0.245827 0.45394132 4278190080
2.8962774 -0.25593847 0.45394132 4278190080
2.8953664 -0.26604679 0.45394132 4278190080
2.8944201 -0.2761519 0.45394132 4278190080
2.8934386 -0.28625363 0.45394132 4278190080
2.8973343 -0.29685521 0.45472261 4278190080
2.8962805 -0.30696699 0.45472261 4278190080
2.8951914 -0.31707501 0.45472261 4278190080
2.8989744 -0.32773399 0.45550394 4278190080
2.8978128 -0.33785132 0.45550394 4278190080
2.8966157 -0.3479645 0.45550394 4278190080
2.8953836 -0.35807347 0.45550394 4278190080
2.8990149 -0.36880127 0.45628524 4278190080
2.8977098 -0.37891847 0.45628524 4278190080
2.8963695 -0.38903108 0.45628524 4278190080
2.8998864 -0.39981344 0.45706657 4278190080
2.898473 -0.40993351 0.45706657 4278190080
2.8970244 -0.42004856 0.45706657 4278190080
2.8955405 -0.4301585 0.45706657 4278190080
2.8940215 -0.44026318 0.45706657 4278190080
2.8973467 -0.45112234 0.45784786 4278190080
2.8957543 -0.4612332 0.45784786 4278190080
2.8538094 -0.4673292 0.35037437 4278190080
2.8521607 -0.47728801 0.35037437 4278190080
2.8504772 -0.48724097 0.35037437 4278190080
2.8487589 -0.49718803 0.35037437 4278190080
2.8470061 -0.50712907 0.35037437 4278190080
2.8452187 -0.51706386 0.35037437 4278190080
2.8482759 -0.52789676 0.35098368 4278190080
2.8464158 -0.53783584 0.35098368 4278190080
2.8493943 -0.54870683 0.35159305 4278190080
2.8474617 -0.55864978 0.35159305 4278190080
2.8503606 -0.56955826 0.35220239 4278190080
2.8483553 -0.57950443 0.35220239 4278190080
2.8463149 -0.5894435 0.35220239 4278190080
2.8490963 -0.60039872 0.35281175 4278190080
2.8469832 -0.61034036 0.35281175 4278190080
2.849684 -0.62133163 0.35342109 4278190080
2.8474979 -0.63127506 0.35342109 4278190080
2.8501184 -0.64230192 0.35403043 4278190080
2.8478589 -0.65224677 0.35403043 4278190080
2.8503983 -0.6633085 0.35463977 4278190080
2.8480656 -0.67325419 0.35463977 4278190080
2.8456981 -0.68319166 0.35463977 4278190080
2.8481176 -0.69429624 0.35524914 4278190080
2.8456767 -0.70423377 0.35524914 4278190080
2.8478894 -0.71586877 0.35585847 4278190080
2.8453732 -0.72580546 0.35585847 4278190080
2.8428223 -0.73573321 0.35585847 4278190080
2.845037 -0.74691224 0.35646781 4278190080
2.8424125 -0.75683868 0.35646781 4278190080
2.8445442 -0.76804954 0.35707715 4278190080
2.841846 -0.77797425 0.35707715 4278190080
2.8438952 -0.78921646 0.35768652 4278190080
2.8459001 -0.80048245 0.35829586 4278190080
2.8478613 -0.81177205 0.3589052 4278190080
2.8450103 -0.82170802 0.3589052 4278190080
2.8468878 -0.8330276 0.35951456 4278190080
2.8439627 -0.84296006 0.35951456 4278190080
2.8457561 -0.85430908 0.3601239 4278190080
2.8427565 -0.86423743 0.3601239 4278190080
2.8444657 -0.87561536 0.36073327 4278190080
2.8461297 -0.88701564 0.36134258 4278190080
2.8430161 -0.89694512 0.36134258 4278190080
2.8445954 -0.90837324 0.36195195 4278190080
2.8414073 -0.91829723 0.36195195 4278190080
2.8381846 -0.92821002 0.36195195 4278190080
2.8396385 -0.9396705 0.36256129 4278190080
2.8363411 -0.94957697 0.36256129 4278190080
2.8377099 -0.9610638 0.36317065 4278190080
2.8390326 -0.97257173 0.36377999 4278190080
2.8403099 -0.9841007 0.36438933 4278190080
2.8415408 -0.99565017 0.36499867 4278190080
2.838048 -1.005563 0.36499867 4278190080
2.8391926 -1.0171372 0.36560804 4278190080
2.8356249 -1.0270417 0.36560804 4278190080
2.8366826 -1.0386399 0.36621737 4278190080
2.8376942 -1.0502579 0.36682671 4278190080
2.8386588 -1.0618957 0.36743605 4278190080
2.8349347 -1.071798 0.36743605 4278190080
2.8360014 -1.0829636 0.36804542 4278190080
2.8368337 -1.094643 0.36865476 4278190080
2.8329954 -1.1045387 0.36865476 4278190080
2.83374 -1.1162399 0.3692641 4278190080
2.8344374 -1.1279596 0.36987343 4278190080
2.8350875 -1.1396978 0.3704828 4278190080
2.8310919 -1.1495872 0.3704828 4278190080
2.8316534 -1.1613456 0.37109214 4278190080
2.8321671 -1.173122 0.37170148 4278190080
2.8326333 -1.1849161 0.37231082 4278190080
2.8330514 -1.1967278 0.37292019 4278190080
2.8334217 -1.2085568 0.37352952 4278190080
2.8337438 -1.2204028 0.37413886 4278190080
2.8340178 -1.2322659 0.37474823 4278190080
2.8342431 -1.2441458 0.37535757 4278190080
2.8344204 -1.2560421 0.37596694 4278190080
2.8345487 -1.2679549 0.37657627 4278190080
2.8346286 -1.2798839 0.37718561 4278190080
2.8346596 -1.2918288 0.37779495 4278190080
2.8346417 -1.3037895 0.37840432 4278190080
2.8345747 -1.3157657 0.37901366 4278190080
2.8344586 -1.3277575 0.379623 4278190080
2.8342934 -1.3397642 0.38023233 4278190080
2.8340788 -1.3517863 0.3808417 4278190080
2.8340526 -1.3633282 0.38145104 4278190080
2.8337412 -1.3753796 0.38206038 4278190080
2.8333797 -1.3874453 0.38266972 4278190080
2.832969 -1.3995254 0.38327909 4278190080
2.8369498 -1.4138328 0.38449776 4278190080
2.8364313 -1.4259561 0.3851071 4278190080
2.8356116 -1.4385879 0.38571647 4278190080
2.8349905 -1.450738 0.38632581 4278190080
2.8343194 -1.4629012 0.38693514 4278190080
2.8335974 -1.4750775 0.38754448 4278190080
2.8330848 -1.4867721 0.38815385 4278190080
2.8322639 -1.4989737 0.38876319 4278190080
2.8357706 -1.5135245 0.38998187 4278190080
2.8348403 -1.525766 0.39059123 4278190080
2.8379517 -1.540882 0.39180994 4278190080
2.8369088 -1.5531622 0.39241928 4278190080
2.8358145 -1.5654538 0.39302862 4278190080
2.8346691 -1.5777566 0.39363798 4278190080
2.8337498 -1.589576 0.39424732 4278190080
2.8325038 -1.6019009 0.39485666 4278190080
2.8355172 -1.6166947 0.39607537 4278190080
2.8341591 -1.6290556 0.39668471 4278190080
2.8370433 -1.6439149 0.39790338 4278190080
2.835573 -1.6563113 0.39851275 4278190080
2.8383269 -1.6712352 0.39973146 4278190080
2.8367436 -1.6836655 0.40034077 4278190080
2.835108 -1.6961051 0.40095013 4278190080
2.83342 -1.7085539 0.40155947 4278190080
2.8316798 -1.7210115 0.40216884 4278190080
2.8298869 -1.7334776 0.40277815 4278190080
2.8322642 -1.7485594 0.40399686 4278190080
2.8303573 -1.7610569 0.40460622 4278190080
2.8326018 -1.7761989 0.4058249 4278190080
2.8305798 -1.7887269 0.40643427 4278190080
2.8326905 -1.803928 0.40765294 4278190080
2.8305531 -1.8164852 0.40826228 4278190080
2.8325295 -1.8317444 0.40948099 4278190080
2.8302763 -1.8443301 0.41009033 4278190080
2.8321178 -1.8596463 0.41130903 4278190080
2.8297479 -1.8722593 0.41191837 4278190080
2.8317833 -1.8871368 0.41313705 4278190080
2.8292987 -1.8997767 0.41374642 4278190080
2.8308709 -1.915203 0.41496512 4278190080
2.828269 -1.9278679 0.41557443 4278190080
2.829704 -1.9433477 0.41679314 4278190080
2.8310654 -1.9588609 0.41801181 4278190080
2.8323526 -1.9744072 0.41923052 4278190080
2.833566 -1.9899864 0.4204492 4278190080
2.8347051 -2.0055978 0.42166793 4278190080
2.8317282 -2.0183611 0.42227727 4278190080
2.8327279 -2.0340226 0.42349595 4278190080
2.8296316 -2.0468068 0.42410532 4278190080
2.8304913 -2.0625169 0.42532402 4278190080
2.8272753 -2.075321 0.42593333 4278190080
2.8240042 -2.0881281 0.4265427 4278190080
2.8246582 -2.1039019 0.42776141 4278190080
2.8212664 -2.1167274 0.42837071 4278190080
2.7906253 -2.1243477 0.42593333 4278190080
2.3387787 -2.4100635 0.40765294 4278190080
2.316577 -2.4039185 0.40521553 4278190080
2.3013096 -2.4048193 0.40399686 4278190080
2.2899029 -2.4088407 0.40338752 4278190080
2.2712603 -2.405993 0.40155947 4278190080
2.2560601 -2.4066651 0.40034077 4278190080
2.2408826 -2.4072607 0.39912209 4278190080
2.2257285 -2.4077797 0.39790338 4278190080
2.2072425 -2.4045665 0.39607537 4278190080
2.1954923 -2.4085886 0.395466 4278190080
2.1737502 -2.4015205 0.39302862 4278190080
2.1587188 -2.4017117 0.39180994 4278190080
2.1470177 -2.40553 0.3912006 4278190080
0.77006346 -0.88710672 0.13954039 4278190080
0.80908376 -0.93865669 0.14746189 4278190080
0.77675951 -0.90754235 0.14197779 4278190080
0.74787647 -0.87999582 0.13710301 4278190080
1.9839908 -2.4016445 0.37779495 4278190080
1.953564 -2.3816957 0.37352952 4278190080
1.9483724 -2.3923488 0.37413886 4278190080
1.8154621 -2.3771045 0.36256129 4278190080
1.804155 -2.3794727 0.36195195 4278190080
1.8018074 -2.3936856 0.36317065 4278190080
1.7874994 -2.39201 0.36195195 4278190080
1.7732252 -2.3902636 0.36073327 4278190080
1.7619278 -2.3924425 0.3601239 4278190080
1.7477081 -2.3905656 0.3589052 4278190080
1.7335231 -2.3886187 0.35768652 4278190080
1.7222737 -2.3906286 0.35707715 4278190080
1.7081447 -2.3885527 0.35585847 4278190080
1.6940513 -2.3864071 0.35463977 4278190080
1.6799937 -2.3841925 0.35342109 4278190080
1.6688169 -2.3859754 0.35281175 4278190080
1.6548178 -2.3836329 0.35159305 4278190080
1.6436713 -2.3853083 0.35098368 4278190080
1.6297317 -2.3828387 0.349765 4278190080
1.6158295 -2.380301 0.3485463 4278190080
1.604738 -2.3818109 0.34793699 4278190080
1.590897 -2.3791473 0.34671828 4278190080
1.5802537 -2.3802752 0.34610891 4278190080
1.569205 -2.3816328 0.3454996 4278190080
1.5554501 -2.3787887 0.3442809 4278190080
1.5444355 -2.3800406 0.34367153 4278190080
1.5334313 -2.3812447 0.34306219 4278190080
1.5197653 -2.3782191 0.34184349 4278190080
1.506139 -2.3751276 0.34062481 4278190080
0.55281079 -0.8992843 0.12491608 4278190080
0.57550985 -0.94357687 0.13100953 4278190080
0.52339506 -0.86490911 0.11943195 4278190080
1.3800747 -2.3532214 0.33026594 4278190080
1.3668609 -2.3494453 0.32904723 4278190080
1.3660933 -2.3670969 0.33087525 4278190080
1.3553567 -2.3675442 0.33026594 4278190080
1.3450468 -2.3677106 0.32965657 4278190080
1.3319014 -2.363744 0.32843786 4278190080
1.3212211 -2.3640468 0.32782853 4278190080
1.310555 -2.3643038 0.32721919 4278190080
1.2975124 -2.3601663 0.32600048 4278190080
1.2868903 -2.3603239 0.32539111 4278190080
1.2762831 -2.3604362 0.32478181 4278190080
1.2656907 -2.360503 0.32417244 4278190080
1.2551135 -2.3605251 0.3235631 4278190080
1.2445514 -2.3605018 0.32295373 4278190080
1.234005 -2.3604338 0.32234442 4278190080
1.2234741 -2.3603208 0.32173505 4278190080
1.2129593 -2.3601635 0.32112572 4278190080
1.2024603 -2.359961 0.32051635 4278190080
1.1919775 -2.3597145 0.31990704 4278190080
1.1815112 -2.3594234 0.31929767 4278190080
1.1710616 -2.3590882 0.31868833 4278190080
1.1606286 -2.3587086 0.31807896 4278190080
1.150624 -2.3580844 0.31746966 4278190080
1.1402251 -2.3576188 0.31686029 4278190080
1.1298435 -2.3571095 0.31625095 4278190080
1.1194794 -2.3565562 0.31564158 4278190080
1.1091328 -2.3559597 0.31503224 4278190080
1.0988041 -2.3553193 0.31442291 4278190080
1.0905756 -2.3591406 0.31442291 4278190080
0.42161131 -0.94606572 0.12247869 4278190080
0.40026796 -0.90667164 0.11699457 4278190080
0.98297507 -2.3361223 0.30650139 4278190080
0.97290593 -2.3349583 0.30589205 4278190080
0.96664202 -2.3429279 0.30650139 4278190080
0.96033466 -2.3508821 0.30711076 4278190080
0.95067197 -2.3494532 0.30650139 4278190080
0.94061977 -2.3481505 0.30589205 4278190080
0.93058795 -2.3468063 0.30528268 4278190080
0.92057735 -2.3454208 0.30467334 4278190080
0.91238481 -2.3486199 0.30467334 4278190080
0.9023999 -2.3471582 0.30406401 4278190080
0.89243674 -2.3456557 0.30345467 4278190080
0.88249469 -2.3441119 0.3028453 4278190080
0.87257469 -2.3425276 0.30223596 4278190080
0.86439258 -2.3455591 0.30223596 4278190080
0.85490888 -2.3437505 0.30162662 4278190080
0.845038 -2.3420522 0.30101728 4278190080
0.83518964 -2.3403137 0.30040792 4278190080
0.82536381 -2.3385351 0.29979858 4278190080
0.81556022 -2.3367162 0.29918924 4278190080
0.80577976 -2.3348577 0.2985799 4278190080
0.79602182 -2.3329592 0.29797053 4278190080
0.78787357 -2.3357236 0.29797053 4278190080
0.77855307 -2.333616 0.2973612 4278190080
0.77040261 -2.3363194 0.2973612 4278190080
0.76070499 -2.3342757 0.29675186 4278190080
0.75255203 -2.3369169 0.29675186 4278190080
0.74288547 -2.3348002 0.29614249 4278190080
0.73324263 -2.3326449 0.29553315 4278190080
0.72362417 -2.3304508 0.29492378 4278190080
0.71694022 -2.337707 0.29553315 4278190080
0.26499709 -0.90857345 0.11151045 4278190080
0.26000389 -0.91517514 0.11211979 4278190080
0.61858231 -2.329711 0.29126772 4278190080
0.60667568 -2.3174534 0.28943968 4278190080
0.60106283 -2.3291676 0.29065838 4278190080
0.59170538 -2.3264418 0.29004902 4278190080
0.58398753 -2.3283911 0.29004902 4278190080
0.57585621 -2.3304155 0.29004902 4278190080
0.56771815 -2.3324115 0.29004902 4278190080
0.55841637 -2.3295529 0.28943968 4278190080
0.55028111 -2.3314881 0.28943968 4278190080
0.54101634 -2.3285606 0.28883034 4278190080
0.53288466 -2.330435 0.28883034 4278190080
0.5236575 -2.3274393 0.288221 4278190080
0.51553011 -2.329253 0.288221 4278190080
0.50634068 -2.326189 0.28761163 4278190080
0.49821779 -2.3279424 0.28761163 4278190080
0.49008852 -2.3296673 0.28761163 4278190080
0.48195359 -2.3313637 0.28761163 4278190080
0.47282514 -2.3281686 0.2870023 4278190080
0.46469525 -2.3298049 0.2870023 4278190080
0.45655999 -2.3314128 0.2870023 4278190080
0.44748214 -2.3281186 0.28639296 4278190080
0.43935287 -2.3296664 0.28639296 4278190080
0.43162489 -2.3311105 0.28639296 4278190080
0.42259884 -2.3277202 0.28578362 4278190080
0.41447082 -2.3291812 0.28578362 4278190080
0.40633804 -2.3306139 0.28578362 4278190080
0.39820033 -2.3320179 0.28578362 4278190080
0.38923922 -2.3284988 0.28517425 4278190080
0.381109 -2.3298433 0.28517425 4278190080
0.3729738 -2.3311596 0.28517425 4278190080
0.36406749 -2.3275442 0.28456491 4278190080
0.3551909 -2.323895 0.28395557 4278190080
0.34634399 -2.3202124 0.28334624 4278190080
0.12462483 -0.89812255 0.10663567 4278190080
0.1221539 -0.9034701 0.10724502 4278190080
0.1228861 -0.93341261 0.11090109 4278190080
0.12278012 -0.95844841 0.11394784 4278190080
0.11452648 -0.91947371 0.10907306 4278190080
0.10729738 -0.88536161 0.10480763 4278190080
0.10072698 -0.85615838 0.10115156 4278190080
0.093799248 -0.82198966 0.096886121 4278190080
0.0969292 -0.87657136 0.10358894 4278190080
0.092284188 -0.86210078 0.1017609 4278190080
0.085424729 -0.85283291 0.10054221 4278190080
0.20891173 -2.3316164 0.28273687 4278190080
0.19992016 -2.3224428 0.28151819 4278190080
0.1909955 -2.3132346 0.28029948 4278190080
0.18252835 -2.3089397 0.27969012 4278190080
0.17484149 -2.3145115 0.28029948 4278190080
0.1667614 -2.3151078 0.28029948 4278190080
0.15867896 -2.3156757 0.28029948 4278190080
0.15099925 -2.3161893 0.28029948 4278190080
0.14291313 -2.3167024 0.28029948 4278190080
0.13453731 -2.3122325 0.27969012 4278190080
0.12646511 -2.3126881 0.27969012 4278190080
0.11879547 -2.3130946 0.27969012 4278190080
0.11072035 -2.3134954 0.27969012 4278190080
0.1026442 -2.3138678 0.27969012 4278190080
0.094566479 -2.3142118 0.27969012 4278190080
0.086487919 -2.314528 0.27969012 4278190080
0.078408308 -2.3148158 0.27969012 4278190080
0.070327431 -2.3150754 0.27969012 4278190080
0.062246002 -2.3153067 0.27969012 4278190080
0.054163512 -2.3155098 0.27969012 4278190080
0.046080668 -2.3156848 0.27969012 4278190080
0.037915848 -2.3108697 0.27908078 4278190080
0.029848991 -2.3109879 0.27908078 4278190080
0.022185523 -2.3110743 0.27908078 4278190080
0.01411805 -2.3111374 0.27908078 4278190080
0.0060507115 -2.3111727 0.27908078 4278190080
-0.0020170084 -2.3111799 0.27908078 4278190080
-0.010062741 -2.3061957 0.27847144 4278190080
-0.018112684 -2.3061466 0.27847144 4278190080
-0.026162712 -2.3060694 0.27847144 4278190080
-0.034212112 -2.305964 0.27847144 4278190080
-0.042352349 -2.3107924 0.27908078 4278190080
-0.050309878 -2.3056691 0.27847144 4278190080
-0.057955571 -2.3054895 0.27847144 4278190080
-0.065860726 -2.3003125 0.2778621 4278190080
-0.074611738 -2.3099761 0.27908078 4278190080
-0.081609644 -2.2799442 0.27542472 4278190080
-0.089762345 -2.2846043 0.27603406 4278190080
-0.097312145 -2.2743607 0.27481535 4278190080
-0.057880726 -0.90985143 0.10724502 4278190080
-0.064580888 -0.91437554 0.10785437 4278190080
-0.069443017 -0.93890238 0.11090109 4278190080
-0.072336599 -0.9337064 0.11029175 4278190080
-0.072791182 -0.89882249 0.10602633 4278190080
-0.073838986 -0.87383735 0.10297959 4278190080
-0.074713156 -0.84885621 0.099932864 4278190080
-0.079937696 -0.87330055 0.10297959 4278190080
-0.083924793 -0.88289708 0.10419828 4278190080
-0.087006122 -0.88259876 0.10419828 4278190080
-0.20547324 -1.8232168 0.2205835 4278190080
-0.2105242 -1.7576803 0.21266201 4278190080
-0.21149936 -1.7175682 0.20778722 4278190080
-0.21437508 -1.6922026 0.20474049 4278190080
-0.21387163 -1.6422323 0.19864702 4278190080
-0.21631256 -1.6168813 0.1956003 4278190080
-0.21695234 -1.581738 0.19133486 4278190080
-0.21832323 -1.5514852 0.18767878 4278190080
-0.2194854 -1.5212425 0.18402271 4278190080
-0.22043934 -1.4910109 0.18036664 4278190080
-0.22118475 -1.4607915 0.17671055 4278190080
-0.22248203 -1.4354897 0.17366381 4278190080
-0.2228284 -1.4052954 0.17000774 4278190080
-0.22376086 -1.3800153 0.166961 4278190080
-0.22451977 -1.354746 0.16391426 4278190080
-0.22593333 -1.3343816 0.16147687 4278190080
-0.22636196 -1.309134 0.15843014 4278190080
-0.22747993 -1.2887871 0.15599276 4278190080
-0.22911586 -1.2733728 0.15416472 4278190080
-0.229976 -1.2530406 0.15172733 4278190080
-0.23160976 -1.237596 0.14989929 4278190080
-0.22755915 -1.1929065 0.14441517 4278190080
-0.21846466 -1.1239032 0.13588431 4278190080
-0.1298489 -0.65578502 0.077387035 4278190080
-0.12810259 -0.63589084 0.074949645 4278190080
-0.13032144 -0.63543981 0.074949645 4278190080
-0.13152479 -0.63012302 0.074340299 4278190080
-0.13269252 -0.62480557 0.073730946 4278190080
-0.13382484 -0.6194877 0.0731216 4278190080
-0.13492158 -0.61416966 0.072512254 4278190080
-0.13598284 -0.60885155 0.071902908 4278190080
-0.13810734 -0.60837317 0.071902908 4278190080
-0.13911457 -0.60305166 0.071293563 4278190080
-0.14121881 -0.60256237 0.071293563 4278190080
-0.14321615 -0.60209078 0.071293563 4278190080
-0.14648227 -0.60641116 0.071902908 4278190080
-0.14859812 -0.60589617 0.071902908 4278190080
-0.15071224 -0.60537374 0.071902908 4278190080
-0.15160872 -0.60003251 0.071293563 4278190080
-0.15739977 -0.61392134 0.0731216 4278190080
-0.1569379 -0.60378975 0.071902908 4278190080
-0.16030973 -0.60803699 0.072512254 4278190080
-0.17277989 -0.62008137 0.074340299 4278190080
-0.17629205 -0.62425041 0.074949645 4278190080
-0.18802796 -0.65702957 0.079215072 4278190080
-0.21105117 -0.72786528 0.088355273 4278190080
-0.24855797 -0.84616286 0.10358894 4278190080
-0.25575599 -0.85956007 0.10541698 4278190080
-0.25875482 -0.85866207 0.10541698 4278190080
-0.2630485 -0.86254615 0.10602633 4278190080
-0.26605782 -0.86162269 0.10602633 4278190080
-0.27054453 -0.86542541 0.10663567 4278190080
-0.27356371 -0.86447579 0.10663567 4278190080
-0.27657971 -0.86351556 0.10663567 4278190080
-0.27959222 -0.86254489 0.10663567 4278190080
-0.282451 -0.86161298 0.10663567 4278190080
-0.28701919 -0.86533219 0.10724502 4278190080
-0.29003811 -0.86432499 0.10724502 4278190080
-0.29305333 -0.8633073 0.10724502 4278190080
-0.29752538 -0.86702478 0.10785437 4278190080
-0.30055001 -0.86598098 0.10785437 4278190080
-0.30357099 -0.86492658 0.10785437 4278190080
-0.30658835 -0.86386162 0.10785437 4278190080
-0.30960187 -0.86278617 0.10785437 4278190080
-0.31261173 -0.86170018 0.10785437 4278190080
-0.31561768 -0.86060375 0.10785437 4278190080
-0.31861979 -0.85949683 0.10785437 4278190080
-0.32161811 -0.85837936 0.10785437 4278190080
-0.32285497 -0.85261035 0.10724502 4278190080
-0.32568058 -0.85153502 0.10724502 4278190080
-0.32865098 -0.850393 0.10724502 4278190080
-0.33161747 -0.8492406 0.10724502 4278190080
-0.33640108 -0.85269433 0.10785437 4278190080
-0.33937556 -0.85151488 0.10785437 4278190080
-0.34234577 -0.85032505 0.10785437 4278190080
-0.34718135 -0.85372204 0.10846371 4278190080
-0.35015935 -0.85250491 0.10846371 4278190080
-0.35313296 -0.85127741 0.10846371 4278190080
-0.35610238 -0.85003954 0.10846371 4278190080
-0.35891917 -0.84885406 0.10846371 4278190080
-0.36188012 -0.84759599 0.10846371 4278190080
-0.36483654 -0.84632766 0.10846371 4278190080
-0.36976898 -0.84959942 0.10907306 4278190080
-0.37273243 -0.8483035 0.10907306 4278190080
-0.37770346 -0.85153371 0.1096824 4278190080
-0.38067362 -0.85021007 0.1096824 4278190080
-0.38363904 -0.84887612 0.1096824 4278190080
-0.38659978 -0.8475318 0.1096824 4278190080
-0.39163128 -0.85068512 0.11029175 4278190080
-0.39459828 -0.8493129 0.11029175 4278190080
-0.39966735 -0.85242361 0.11090109 4278190080
-0.40249184 -0.85109365 0.11090109 4278190080
-0.4075976 -0.8541624 0.11151045 4278190080
-0.41272956 -0.85720581 0.11211979 4278190080
-0.41571933 -0.85575986 0.11211979 4278190080
-0.41870391 -0.85430354 0.11211979 4278190080
-0.4216834 -0.85283685 0.11211979 4278190080
-0.42450923 -0.85143375 0.11211979 4278190080
-0.42747864 -0.8499468 0.11211979 4278190080
-0.43044296 -0.84844941 0.11211979 4278190080
-0.43340194 -0.84694171 0.11211979 4278190080
-0.43863189 -0.84983361 0.11272914 4278190080
-0.44159567 -0.84829736 0.11272914 4278190080
-0.44455403 -0.8467508 0.11272914 4278190080
-0.44750711 -0.8451938 0.11272914 4278190080
-0.45045462 -0.84362656 0.11272914 4278190080
-0.45339674 -0.842049 0.11272914 4278190080
-0.45633322 -0.84046125 0.11272914 4278190080
-0.46164742 -0.84321636 0.11333849 4278190080
-0.45964581 -0.83299053 0.11211979 4278190080
-0.45772505 -0.82270759 0.11090109 4278190080
-1.2799383 -2.2448809 0.31259486 4278190080
-1.2927128 -2.2490046 0.31381357 4278190080
-1.3030434 -2.2487726 0.31442291 4278190080
-1.3108852 -2.2442102 0.31442291 4278190080
-1.3237469 -2.2481737 0.31564158 4278190080
-1.3341197 -2.247807 0.31625095 4278190080
-1.3466603 -2.251889 0.31746966 4278190080
-1.3570746 -2.2514248 0.31807896 4278190080
-1.3675021 -2.2509155 0.31868833 4278190080
-1.3805342 -2.2545929 0.31990704 4278190080
-1.3910018 -2.2539833 0.32051635 4278190080
-1.4014822 -2.2533283 0.32112572 4278190080
-1.411975 -2.2526274 0.32173505 4278190080
-1.42248 -2.2518809 0.32234442 4278190080
-1.435662 -2.2552745 0.3235631 4278190080
-1.446205 -2.2544265 0.32417244 4278190080
-1.4567598 -2.2535324 0.32478181 4278190080
-1.467326 -2.2525918 0.32539111 4278190080
-1.4775101 -2.251863 0.32600048 4278190080
-1.4880986 -2.2508314 0.32660982 4278190080
-1.4986978 -2.2497537 0.32721919 4278190080
-1.5093077 -2.2486291 0.32782853 4278190080
-1.5227079 -2.2515688 0.32904723 4278190080
-1.5333524 -2.2503409 0.32965657 4278190080
-1.5440073 -2.2490664 0.33026594 4278190080
-1.5574945 -2.251826 0.33148462 4278190080
-1.5681827 -2.2504473 0.33209395 4278190080
-1.5788802 -2.2490215 0.33270332 4278190080
-1.5891944 -2.2478254 0.33331263 4278190080
-1.5999101 -2.2463069 0.333922 4278190080
-1.6106347 -2.2447405 0.33453134 4278190080
-1.6242747 -2.2471488 0.33575001 4278190080
-1.63503 -2.2454772 0.33635938 4278190080
-1.6487288 -2.2477596 0.33757809 4278190080
-1.659514 -2.2459819 0.3381874 4278190080
-1.6732701 -2.2481375 0.3394061 4278190080
-1.6840843 -2.246254 0.34001547 4278190080
-1.6978964 -2.2482824 0.34123415 4278190080
-1.7087387 -2.2462914 0.34184349 4278190080
-1.7195876 -2.2442527 0.34245285 4278190080
-1.7334754 -2.2460938 0.34367153 4278190080
-1.7443509 -2.2439475 0.3442809 4278190080
-1.7579001 -2.2459667 0.3454996 4278190080
-1.7688016 -2.2437141 0.34610891 4278190080
-1.7827946 -2.2452993 0.34732762 4278190080
-1.7968203 -2.2468143 0.3485463 4278190080
-1.8077657 -2.2443931 0.34915566 4278190080
-1.8218421 -2.2457774 0.35037437 4278190080
-1.8328099 -2.2432473 0.35098368 4278190080
-1.8469357 -2.2445002 0.35220239 4278190080
-1.8579259 -2.2418609 0.35281175 4278190080
-1.8721006 -2.2429814 0.35403043 4278190080
-1.8863051 -2.2440307 0.35524914 4278190080
-1.8973331 -2.2412205 0.35585847 4278190080
-1.9111931 -2.2424703 0.35707715 4278190080
-1.9254735 -2.2433171 0.35829586 4278190080
-1.9365377 -2.2403369 0.3589052 4278190080
-1.950863 -2.2410498 0.3601239 4278190080
-1.9652172 -2.2416894 0.36134258 4278190080
-1.9763148 -2.2385364 0.36195195 4278190080
-1.9907115 -2.239042 0.36317065 4278190080
-2.0051358 -2.2394741 0.36438933 4278190080
-2.0162637 -2.2361469 0.36499867 4278190080
-2.03073 -2.236443 0.36621737 4278190080
-2.0452218 -2.2366657 0.36743605 4278190080
-2.0597401 -2.2368145 0.36865476 4278190080
-2.0705204 -2.2336113 0.3692641 4278190080
-2.0850773 -2.2336259 0.3704828 4278190080
-2.0996594 -2.2335658 0.37170148 4278190080
-2.1142666 -2.2334311 0.37292019 4278190080
-2.1288989 -2.2332211 0.37413886 4278190080
-2.1469917 -2.2365167 0.37596694 4278190080
-2.1612937 -2.236522 0.37718561 4278190080
-2.1760097 -2.2360775 0.37840432 4278190080
-2.1907485 -2.2355573 0.379623 4278190080
-2.2055104 -2.2349615 0.3808417 4278190080
-2.2167969 -2.2307687 0.38145104 4278190080
-2.231591 -2.2300332 0.38266972 4278190080
-2.2460177 -2.2296131 0.38388842 4278190080
-2.2643895 -2.2322116 0.38571647 4278190080
-2.2792602 -2.2312372 0.38693514 4278190080
-2.2977097 -2.2336452 0.38876319 4278190080
-2.3126335 -2.2325048 0.38998187 4278190080
-2.3311603 -2.2347209 0.39180994 4278190080
-2.3461356 -2.2334137 0.39302862 4278190080
-2.36113 -2.2320292 0.39424732 4278190080
-2.3757541 -2.2309813 0.395466 4278190080
-2.3907862 -2.2294443 0.39668471 4278190080
-2.4094777 -2.2312009 0.39851275 4278190080
-2.4245574 -2.2294953 0.39973146 4278190080
-2.4433196 -2.2310569 0.40155947 4278190080
-2.4584453 -2.2291818 0.40277815 4278190080
-2.4625235 -2.2172661 0.40216884 4278190080
-2.4702482 -2.208657 0.40216884 4278190080
-2.5645173 -2.229301 0.41252774 4278190080
-2.5722833 -2.2203355 0.41252774 4278190080
-2.5837858 -2.2145727 0.41313705 4278190080
-2.6213455 -2.2317293 0.41801181 4278190080
-2.6329095 -2.2257695 0.41862118 4278190080
-2.6558678 -2.2293274 0.42105857 4278190080
-2.6712577 -2.226398 0.42227727 4278190080
-2.6866596 -2.2233882 0.42349595 4278190080
-2.7059073 -2.2234485 0.42532402 4278190080
-2.7098064 -2.2108524 0.42471465 4278190080
-2.752214 -2.2294939 0.43019879 4278190080
-2.7445109 -2.207432 0.42776141 4278190080
-2.7521994 -2.1978385 0.42776141 4278190080
-3.0578752 -2.2892487 0.46432218 4278190080
-3.0698309 -2.2815204 0.46493152 4278190080
-3.0697894 -2.2648981 0.46371284 4278190080
-3.0896876 -2.2629662 0.46554089 4278190080
-3.085526 -2.2434123 0.46371284 4278190080
-3.0933383 -2.2326283 0.46371284 4278190080
-3.1007249 -2.222358 0.46371284 4278190080
-3.108464 -2.2115202 0.46371284 4278190080
-3.1161644 -2.2006564 0.46371284 4278190080
-3.144146 -2.2040088 0.46675956 4278190080
-3.1721885 -2.2071927 0.46980631 4278190080
-3.1962078 -2.2073872 0.4722437 4278190080
-3.2202673 -2.2074399 0.47468108 4278190080
-3.2443655 -2.2073524 0.47711846 4278190080
-3.268502 -2.2071233 0.47955585 4278190080
-3.2926762 -2.2067523 0.48199326 4278190080
-3.3127556 -2.203491 0.4838213 4278190080
-3.3369942 -2.2028494 0.48625869 4278190080
-3.3612678 -2.2020659 0.48869604 4278190080
-3.3855765 -2.2011402 0.49113342 4278190080
-3.4140897 -2.2027617 0.49418017 4278190080
-3.4384756 -2.201535 0.49661756 4278190080
-3.4628952 -2.2001636 0.49905494 4278190080
-3.4873462 -2.1986496 0.50149232 4278190080
-3.5160358 -2.1996236 0.50453907 4278190080
-3.5405581 -2.1978066 0.50697643 4278190080
-3.5689523 -2.1990702 0.51002318 4278190080
-3.5935431 -2.1969533 0.51246059 4278190080
-3.6224058 -2.1972654 0.51550734 4278190080
-3.6470625 -2.1948423 0.51794469 4278190080
-3.6760068 -2.1948192 0.52099144 4278190080
-3.7049944 -2.1946204 0.52403814 4278190080
-3.734026 -2.1942458 0.52708489 4278190080
-3.7630997 -2.1936953 0.53013164 4278190080
-3.7922151 -2.1929672 0.53317839 4278190080
-3.8213708 -2.1920636 0.53622514 4278190080
-3.8376255 -2.18362 0.53744376 4278190080
-3.8279369 -2.160454 0.5350064 4278190080
-1.1812042 -0.64000744 0.16025817 4278190080
-1.1353432 -0.61004192 0.15355538 4278190080
-1.1068071 -0.58973938 0.14928995 4278190080
-4.2802987 -2.1668255 0.58436352 4278190080
-4.3011432 -2.1585484 0.58619153 4278190080
-4.3575273 -2.1678369 0.59289432 4278190080
-4.4140282 -2.1767578 0.59959716 4278190080
-4.4483509 -2.1744134 0.60325325 4278190080
-4.4827108 -2.1718559 0.60690933 4278190080
-4.517107 -2.1690834 0.61056536 4278190080
-4.551538 -2.1660984 0.61422151 4278190080
-4.5901132 -2.1658168 0.61848688 4278190080
-4.624619 -2.1623938 0.62214303 4278190080
-4.6186299 -2.1399789 0.6203149 4278190080
-2.6995747 -1.2172036 0.3589052 4278190080
-2.6902132 -1.2017009 0.35707715 4278190080
-2.6943917 -1.1923023 0.35707715 4278190080
-2.7030826 -1.1848825 0.35768652 4278190080
-2.6844411 -1.1655574 0.35463977 4278190080
-2.7204065 -1.1699042 0.3589052 4278190080
-2.6925128 -1.1467885 0.35463977 4278190080
-2.6964996 -1.1373823 0.35463977 4278190080
-1.7791036 -0.57429194 0.22484893 4278190080
-1.7810974 -0.56807828 0.22484893 4278190080
-1.7878028 -0.56334925 0.22545828 4278190080
-1.8181895 -0.56595463 0.22911437 4278190080
-1.8248975 -0.56106305 0.22972371 4278190080
-2.0378902 -0.55712116 0.25470692 4278190080
-2.0925303 -0.56421602 0.26140973 4278190080
-6.0176859 -1.6000577 0.75985533 4278190080
-4.9273224 -1.2376584 0.61909628 4278190080
-4.931613 -1.2204503 0.61909628 4278190080
-4.9165568 -1.1985271 0.61665887 4278190080
-4.915885 -1.1801995 0.61604953 4278190080
-4.9101129 -1.1616062 0.61483085 4278190080
-4.9093041 -1.1433342 0.61422151 4278190080
-4.9037867 -1.1231165 0.61300278 4278190080
-4.897995 -1.1038105 0.6117841 4278190080
-4.8921275 -1.0845586 0.61056536 4278190080
-4.8910351 -1.0664184 0.60995609 4278190080
-4.8850226 -1.0472586 0.60873735 4278190080
-4.8837924 -1.0291759 0.60812801 4278190080
-4.8824954 -1.0111159 0.60751861 4278190080
-4.8811321 -0.99307758 0.60690933 4278190080
-4.8795323 -0.97591221 0.6063 4278190080
-4.8780389 -0.95791745 0.6056906 4278190080
-4.8764801 -0.93994504 0.60508126 4278190080
-4.8699789 -0.92107302 0.60386258 4278190080
-4.8682847 -0.9031617 0.60325325 4278190080
-4.8665252 -0.88527477 0.60264385 4278190080
-4.8647003 -0.8674112 0.60203457 4278190080
-4.8628097 -0.84957105 0.60142523 4278190080
-4.8608537 -0.83175474 0.60081583 4278190080
-4.8588333 -0.81396115 0.60020649 4278190080
-4.8615055 -0.79784524 0.60020649 4278190080
-4.8593612 -0.780083 0.59959716 4278190080
-4.857152 -0.76234663 0.59898782 4278190080
-4.8548779 -0.74463522 0.59837848 4278190080
-4.8525395 -0.72694904 0.59776908 4278190080
-4.8501372 -0.70928824 0.5971598 4278190080
-4.8525834 -0.69235277 0.5971598 4278190080
-4.8500552 -0.67472631 0.59655041 4278190080
-4.8475776 -0.65628034 0.59594107 4278190080
-4.8449187 -0.63870543 0.59533173 4278190080
-4.8421965 -0.62115848 0.59472239 4278190080
-4.8394108 -0.60363829 0.59411305 4278190080
-4.8413858 -0.5875867 0.59411305 4278190080
-4.8384786 -0.57010305 0.59350371 4278190080
-4.8355083 -0.55264688 0.59289432 4278190080
-4.8324752 -0.53521836 0.59228498 4278190080
-4.82938 -0.51781654 0.59167564 4278190080
-4.8262219 -0.50044405 0.5910663 4278190080
-4.8230014 -0.4831 0.59045696 4278190080
-4.8246579 -0.46626189 0.59045696 4278190080
-4.8213148 -0.44895798 0.58984756 4278190080
-4.8228526 -0.43212467 0.58984756 4278190080
-4.8193874 -0.4148618 0.58923829 4278190080
-4.8158603 -0.39762837 0.58862895 4278190080
-4.8172188 -0.38081571 0.58862895 4278190080
-4.81357 -0.36362457 0.58801955 4278190080
-4.8098602 -0.34646228 0.58741021 4278190080
-4.8110404 -0.32967088 0.58741021 4278190080
-4.80721 -0.3125535 0.58680087 4278190080
-4.8082714 -0.29577157 0.58680087 4278190080
-4.8043199 -0.27869859 0.58619153 4278190080
-4.8052635 -0.26192567 0.58619153 4278190080
-4.8011923 -0.24489802 0.5855822 4278190080
-4.8020177 -0.22813749 0.5855822 4278190080
-4.8027849 -0.21137419 0.5855822 4278190080
-4.7985349 -0.1944074 0.5849728 4278190080
-4.7991843 -0.17765519 0.5849728 4278190080
-4.7948155 -0.16073583 0.58436352 4278190080
-4.7953472 -0.14399807 0.58436352 4278190080
-4.7958207 -0.12725857 0.58436352 4278190080
-4.7962356 -0.11051751 0.58436352 4278190080
-4.7965922 -0.093773827 0.58436352 4278190080
-4.7919149 -0.077786483 0.58375412 4278190080
-4.7921572 -0.061059356 0.58375412 4278190080
-4.7923408 -0.044331491 0.58375412 4278190080
-4.7875037 -0.0275745 0.58314478 4278190080
-4.787571 -0.010863081 0.58314478 4278190080
-4.7875795 0.005849747 0.58314478 4278190080
-4.782567 0.022537841 0.58253545 4278190080
-4.7824593 0.039231725 0.58253545 4278190080
-4.7822933 0.055925127 0.58253545 4278190080
-4.7820692 0.072617851 0.58253545 4278190080
-4.7817864 0.089310966 0.58253545 4278190080
-4.7814455 0.10600171 0.58253545 4278190080
-4.7810464 0.12269118 0.58253545 4278190080
-4.7756286 0.13923453 0.58192611 4278190080
-4.7751136 0.15590347 0.58192611 4278190080
-4.7745404 0.17257179 0.58192611 4278190080
-4.7739086 0.18923675 0.58192611 4278190080
-4.7732191 0.20589939 0.58192611 4278190080
-4.7724714 0.22255953 0.58192611 4278190080
-4.7716656 0.23921695 0.58192611 4278190080
-4.7757564 0.2561385 0.58253545 4278190080
-4.7748332 0.27280718 0.58253545 4278190080
-4.7738519 0.28947255 0.58253545 4278190080
-4.7728124 0.30613437 0.58253545 4278190080
-4.7717147 0.3227925 0.58253545 4278190080
-4.7705588 0.33944792 0.58253545 4278190080
-4.7693448 0.35609797 0.58253545 4278190080
-4.7680731 0.37274367 0.58253545 4278190080
-4.7667427 0.38938481 0.58253545 4278190080
-4.7702994 0.40644255 0.58314478 4278190080
-4.7688518 0.42309254 0.58314478 4278190080
-4.7673459 0.4397361 0.58314478 4278190080
-4.7657819 0.45637432 0.58314478 4278190080
-4.7641597 0.47300696 0.58314478 4278190080
-4.7624798 0.48963386 0.58314478 4278190080
-4.7607412 0.50625604 0.58314478 4278190080
-4.758945 0.52287078 0.58314478 4278190080
-4.757091 0.5394792 0.58314478 4278190080
-4.760108 0.55665743 0.58375412 4278190080
-4.7581363 0.57326967 0.58375412 4278190080
-4.7562089 0.58904523 0.58375412 4278190080
-4.7541237 0.60564369 0.58375412 4278190080
-4.7569013 0.62288034 0.58436352 4278190080
-4.7546983 0.63948095 0.58436352 4278190080
-4.7573528 0.65675241 0.5849728 4278190080
-4.7550316 0.67335445 0.5849728 4278190080
-4.7526522 0.68994826 0.5849728 4278190080
-4.7551236 0.70726502 0.5855822 4278190080
-4.7526255 0.72385895 0.5855822 4278190080
-4.7500701 0.74044406 0.5855822 4278190080
-4.7523575 0.75780159 0.58619153 4278190080
-4.7496834 0.77438557 0.58619153 4278190080
-4.7469511 0.79096133 0.58619153 4278190080
-4.7441611 0.80752623 0.58619153 4278190080
-4.7462029 0.82493109 0.58680087 4278190080
-4.7530675 0.84322691 0.58801955 4278190080
-4.7647448 0.86246461 0.58984756 4278190080
-4.7763462 0.88179541 0.59167564 4278190080
-4.7829933 0.90029836 0.59289432 4278190080
-4.7700739 0.91511834 0.59167564 4278190080
-4.6889219 0.91653067 0.58192611 4278190080
-4.4131303 0.87862653 0.54780269 4278190080
-4.3176246 0.87529254 0.53622514 4278190080
-4.2853808 0.88434035 0.53256899 4278190080
-4.2191296 0.88603419 0.52464747 4278190080
-4.1432133 0.88520277 0.51550734 4278190080
-4.0673542 0.88385218 0.50636709 4278190080
-3.9964027 0.88305497 0.49783626 4278190080
-3.9255068 0.88177216 0.48930541 4278190080
-3.8595076 0.88110995 0.48138389 4278190080
-3.7887275 0.87887651 0.47285303 4278190080
-3.722841 0.87729812 0.46493152 4278190080
-3.6570125 0.87527174 0.45701003 4278190080
-3.5912445 0.87279558 0.44908851 4278190080
-3.5303571 0.87105995 0.44177637 4278190080
-3.4695263 0.86891007 0.43446419 4278190080
-3.4087543 0.8663463 0.42715204 4278190080
-3.3528485 0.86460918 0.4204492 4278190080
-3.3017983 0.86374754 0.41435575 4278190080
-3.2507958 0.86254025 0.40826228 4278190080
-3.2046347 0.86227697 0.40277815 4278190080
-3.1537278 0.86039591 0.39668471 4278190080
-3.1076567 0.85949391 0.3912006 4278190080
-3.061631 0.85828 0.38571647 4278190080
-3.0204258 0.85811168 0.3808417 4278190080
-2.9744906 0.85629332 0.37535757 4278190080
-2.9333699 0.85555452 0.3704828 4278190080
-2.887531 0.85313374 0.36499867 4278190080
-2.8465004 0.85182559 0.3601239 4278190080
-2.8055143 0.85024148 0.35524914 4278190080
-2.7645745 0.84838182 0.35037437 4278190080
-2.7236824 0.84624678 0.3454996 4278190080
-2.687573 0.84532648 0.34123415 4278190080
-2.646775 0.84265834 0.33635938 4278190080
-2.6107526 0.84123778 0.33209395 4278190080
-2.5747728 0.83957624 0.32782853 4278190080
-2.5435493 0.83922875 0.32417244 4278190080
-2.5076528 0.83710295 0.31990704 4278190080
-2.4765043 0.8363241 0.31625095 4278190080
-2.4453921 0.83533806 0.31259486 4278190080
-2.4143174 0.83414507 0.30893877 4278190080
-2.3879662 0.83438253 0.30589205 4278190080
-2.3569636 0.83279353 0.30223596 4278190080
-2.3306751 0.83266741 0.29918924 4278190080
-2.3090839 0.83405393 0.29675186 4278190080
-2.2828503 0.83359772 0.29370511 4278190080
-2.2613039 0.83468717 0.29126772 4278190080
-2.2351282 0.83390236 0.288221 4278190080
-2.2136292 0.8346954 0.28578362 4278190080
-2.1921525 0.83534855 0.28334624 4278190080
-2.1660669 0.83407867 0.28029948 4278190080
-2.1400173 0.83263701 0.27725273 4278190080
-2.118623 0.83283997 0.27481535 4278190080
-2.0926416 0.8310715 0.27176863 4278190080
-2.0713043 0.83097976 0.26933125 4278190080
-2.0453939 0.82888532 0.2662845 4278190080
-2.0241165 0.82850015 0.26384711 4278190080
-1.9982805 0.82608122 0.26080039 4278190080
-1.9770663 0.82540357 0.25836301 4278190080
-1.9558814 0.824588 0.2559256 4278190080
-1.9347264 0.82363468 0.25348821 4278190080
-1.9136022 0.8225438 0.25105083 4278190080
-1.8970616 0.82329178 0.24922279 4278190080
-1.8759938 0.82194233 0.2467854 4278190080
-1.854959 0.82045591 0.24434802 4278190080
-1.8384893 0.82085603 0.24251999 4278190080
-1.8175148 0.81911212 0.24008259 4278190080
-1.8010924 0.81928724 0.23825456 4278190080
-1.7800385 0.81759721 0.23581718 4278190080
-1.7636663 0.81754428 0.23398913 4278190080
-1.7471733 0.81769228 0.23216109 4278190080
-1.7308462 0.81742811 0.23033306 4278190080
-1.7102042 0.81462675 0.22789568 4278190080
-1.6939315 0.81414199 0.22606762 4278190080
-1.6776831 0.81355369 0.22423959 4278190080
-1.6614594 0.8128624 0.22241154 4278190080
-1.6452614 0.81206739 0.2205835 4278190080
-1.6335319 0.81338131 0.21936481 4278190080
-1.6173786 0.81239581 0.21753678 4278190080
-1.6012522 0.81130749 0.21570873 4278190080
-1.5851531 0.81011701 0.2138807 4278190080
-1.5690821 0.8088237 0.21205266 4278190080
-1.5574429 0.80971736 0.21083397 4278190080
-1.5414214 0.80823499 0.20900591 4278190080
-1.5254295 0.80665082 0.20717788 4278190080
-1.5138464 0.80730057 0.20595919 4278190080
-1.4979068 0.80552846 0.20413114 4278190080
-1.4863608 0.80602068 0.20291245 4278190080
-1.4704753 0.80406123 0.20108442 4278190080
-1.4589678 0.80439693 0.19986573 4278190080
-1.4431382 0.80225128 0.19803768 4278190080
-1.4316709 0.80243099 0.19681899 4278190080
-1.42022 0.80254048 0.1956003 4278190080
-1.4087857 0.80257982 0.19438159 4278190080
-1.4016722 0.80502081 0.19377224 4278190080
-1.3945587 0.80742234 0.1931629 4278190080
-1.3917317 0.81228524 0.1931629 4278190080
-1.3846105 0.81462175 0.19255355 4278190080
-1.3732215 0.81438702 0.19133486 4278190080
-1.3618511 0.81408274 0.19011617 4278190080
-1.3547502 0.81627065 0.18950683 4278190080
-1.3434091 0.81584251 0.18828814 4278190080
-1.3320875 0.81534529 0.18706943 4278190080
-1.320786 0.81477898 0.18585074 4278190080
-1.3137193 0.81676406 0.1852414 4278190080
-1.3024492 0.81607509 0.18402271 4278190080
-1.2953966 0.81796682 0.18341336 4278190080
-1.2841597 0.817155 0.18219467 4278190080
-1.2729442 0.81627476 0.18097597 4278190080
-1.2617508 0.81532621 0.17975728 4278190080
-1.2505792 0.81430984 0.17853858 4278190080
-1.2435799 0.81594765 0.17792924 4278190080
-1.2324446 0.81480962 0.17671055 4278190080
-1.2213326 0.81360388 0.17549184 4278190080
-1.2102439 0.81233054 0.17427315 4278190080
-1.20329 0.81377023 0.17366381 4278190080
-1.1922398 0.81237656 0.17244512 4278190080
-1.1853055 0.81372446 0.17183577 4278190080
-1.1783763 0.81503385 0.17122643 4278190080
-1.1673808 0.81346762 0.17000774 4278190080
-1.1604723 0.81468636 0.16939838 4278190080
-1.1495179 0.81300086 0.16817969 4278190080
-1.1426313 0.81412864 0.16757035 4278190080
-1.1317192 0.81232446 0.16635166 4278190080
-1.1247132 0.81355852 0.16574231 4278190080
-1.1138448 0.81163424 0.16452362 4278190080
-1.1070043 0.81258065 0.16391426 4278190080
-1.0961803 0.81053865 0.16269556 4278190080
-1.0893644 0.81139559 0.16208622 4278190080
-1.078586 0.80923676 0.16086753 4278190080
-1.0717955 0.81000459 0.16025817 4278190080
-1.0650127 0.81073487 0.15964884 4278190080
-1.058238 0.81142777 0.15903948 4278190080
-1.0514716 0.81208324 0.15843014 4278190080
-1.0447131 0.81270164 0.15782079 4278190080
-1.0340571 0.81022173 0.1566021 4278190080
-1.0273271 0.81075186 0.15599276 4278190080
-1.0167209 0.80815685 0.15477407 4278190080
-1.0100195 0.80859935 0.15416472 4278190080
-0.99946409 0.80589014 0.15294603 4278190080
-0.99279261 0.80624545 0.15233667 4278190080
-0.98228937 0.80342203 0.15111798 4278190080
-0.97564846 0.80369061 0.15050864 4278190080
-0.96901774 0.80392259 0.14989929 4278190080
-0.95858878 0.8009364 0.1486806 4278190080
-0.95198989 0.80108219 0.14807124 4278190080
-0.94161576 0.79798329 0.14685255 4278190080
-0.93127495 0.7948218 0.14563386 4278190080
-0.92473137 0.79483283 0.14502451 4278190080
-0.91153938 0.79490626 0.14380582 4278190080
-0.79327899 0.85966831 0.13893105 4278190080
-0.78356785 0.85511428 0.13771236 4278190080
-0.76721829 0.84316182 0.13527498 4278190080
-0.75428909 0.83478808 0.13344693 4278190080
-0.74142748 0.8263346 0.13161889 4278190080
-0.73193586 0.82150686 0.1304002 4278190080
-0.72248703 0.81662303 0.1291815 4278190080
