# .PCD v0.7 - Point Cloud Data file format
VERSION 0.7
FIELDS x y z rgb
SIZE 4 4 4 4
TYPE F F F U
COUNT 1 1 1 1
WIDTH 1147
HEIGHT 1
VIEWPOINT 0 0 0 1 0 0 0
POINTS 1147
DATA ascii
2.4748333 -0.90842587 1.0130248 4294967295
2.4675603 2.22856 0.98589313 4294967295
2.4788105 2.2041042 0.98364562 4294967295
2.4890001 2.1855652 0.97446632 4294967295
2.4758096 -0.91588271 0.98436528 4294967295
2.4642856 2.2245688 0.9549765 4294967295
2.4722962 2.2040315 0.95356858 4294967295
2.4823332 2.1873777 0.95692748 4294967295
2.4751668 -0.918109 0.95567328 4294967295
2.4653332 2.221976 0.92438352 4294967295
2.4781282 2.2020826 0.92515016 4294967295
2.4860001 2.1858046 0.92603564 4294967295
2.4769411 -0.91144043 0.92595077 4294967295
2.4683335 2.221822 0.90197134 4294967295
2.4743893 2.2062008 0.89525729 4294967295
2.4846818 2.1833344 0.89270794 4294967295
2.4745002 0.5002023 0.89430267 4294967295
2.4758329 -0.9092654 0.89355737 4294967295
2.4672222 2.2217731 0.85854554 4294967295
2.4784884 2.206964 0.8667227 4294967295
2.4890001 2.1836402 0.87436801 4294967295
2.474 0.50202388 0.87127566 4294967295
2.4754348 -0.90979713 0.86360812 4294967295
2.4625001 2.2508509 0.82107878 4294967295
2.4755125 2.2327359 0.8325218 4294967295
2.4849091 2.2144549 0.84215856 4294967295
2.4777501 0.5013411 0.83875471 4294967295
2.4747691 -0.91073722 0.83472461 4294967295
2.4661112 2.2875242 0.79799247 4294967295
2.4737139 2.2635188 0.80521655 4294967295
2.4865003 2.2439389 0.81631911 4294967295
2.4753332 -0.91511047 0.80542064 4294967295
2.4722502 2.2877257 0.77889144 4294967295
2.4786286 2.2638485 0.77705276 4294967295
2.485667 2.2345343 0.76854956 4294967295
2.4890001 2.2144396 0.76079488 4294967295
2.4767501 0.49826238 0.77110565 4294967295
2.4792502 -0.92633915 0.78357708 4294967295
2.4783335 -0.93175423 0.76838005 4294967295
2.47 2.2834978 0.75895679 4294967295
2.4684117 2.2634981 0.75274611 4294967295
2.4699996 2.2342796 0.74810231 4294967295
2.4773438 2.2054822 0.74315464 4294967295
2.4850001 2.1808829 0.73581243 4294967295
2.4791667 0.50019264 0.74546313 4294967295
2.4772668 -0.9208073 0.74280453 4294967295
2.4720001 -0.9322474 0.75628483 4294967295
2.46 2.2228844 0.72945124 4294967295
2.4668801 2.2013829 0.71583968 4294967295
2.4822755 2.1824193 0.71566063 4294967295
2.4743335 0.50783241 0.72491604 4294967295
2.4748335 -0.91416037 0.71588051 4294967295
2.47 2.2204587 0.67299443 4294967295
2.4754996 2.2040808 0.68515825 4294967295
2.4771428 -0.92432588 0.68657565 4294967295
2.4755754 2.2327402 0.65419215 4294967295
2.4815001 2.2163885 0.66794926 4294967295
2.46 0.51059824 0.6666674 4294967295
2.4802001 -0.93648362 0.65636927 4294967295
2.4636664 2.2578168 0.62230086 4294967295
2.4807076 2.2411449 0.62508321 4294967295
2.4650002 0.52307451 0.62690777 4294967295
2.4784002 -0.95075506 0.6321094 4294967295
2.4826667 -0.96507108 0.61808717 4294967295
2.4628568 2.2605567 0.60561424 4294967295
2.4758062 2.2415805 0.59330863 4294967295
2.4744 0.52161354 0.5951584 4294967295
2.4776669 -0.98226118 0.59494311 4294967295
2.4754138 2.2332115 0.56361312 4294967295
2.473 0.51519907 0.57372767 4294967295
2.473 0.50181806 0.5569948 4294967295
2.4785714 -0.98153406 0.55522418 4294967295
2.4777501 -0.9904601 0.56855232 4294967295
2.4758177 2.2309909 0.53483909 4294967295
2.4890001 2.2144396 0.52691126 4294967295
2.4715714 0.48677051 0.542844 4294967295
2.4744616 0.46500465 0.52930671 4294967295
2.4781668 0.43579519 0.52496874 4294967295
2.4771111 0.40367958 0.5265699 4294967295
2.4771819 0.37463939 0.52715147 4294967295
2.4766667 0.34453046 0.52400386 4294967295
2.4804287 0.31094283 0.52565992 4294967295
2.4764166 0.28370056 0.52928376 4294967295
2.473 0.25509983 0.53261155 4294967295
2.4760833 0.22524314 0.52975792 4294967295
2.4823334 0.19556379 0.52401298 4294967295
2.4860003 0.16416188 0.52401894 4294967295
2.4790001 0.13492952 0.52400762 4294967295
2.4810002 0.10624971 0.52401084 4294967295
2.4815001 0.074620508 0.52401167 4294967295
2.4820004 0.04295652 0.52689993 4294967295
2.4811428 0.016622666 0.52566105 4294967295
2.4880002 -0.014672449 0.52402216 4294967295
2.4890001 -0.04354823 0.52402377 4294967295
2.4890001 -0.14460906 0.52402377 4294967295
2.4890001 -0.16482124 0.52402377 4294967295
2.4790001 -0.19578372 0.52400762 4294967295
2.474 -0.22696905 0.52399951 4294967295
2.4810002 -0.2563999 0.52401084 4294967295
2.4890001 -0.28609422 0.52402377 4294967295
2.4890001 -0.30630639 0.52402377 4294967295
2.4890001 -0.47377867 0.52402377 4294967295
2.4880002 -0.49379006 0.52402216 4294967295
2.4850001 -0.52202964 0.52401733 4294967295
2.4890001 -0.55289483 0.52402377 4294967295
2.487 -0.58591574 0.52402055 4294967295
2.4890001 -0.60948896 0.52402377 4294967295
2.4890001 -0.82316041 0.52402377 4294967295
2.4890001 -0.84337252 0.52402377 4294967295
2.4830003 -0.89375424 0.52516907 4294967295
2.4759231 -0.91339171 0.53196812 4294967295
2.475143 -0.94449866 0.54165161 4294967295
2.4695001 -0.96853405 0.54691088 4294967295
2.4625001 2.2508509 0.50398397 4294967295
2.4768336 2.2341013 0.50688255 4294967295
2.4890001 2.2127895 0.50422412 4294967295
2.4641666 0.43427488 0.51826632 4294967295
2.46 0.41356874 0.5182693 4294967295
2.4662499 0.34308282 0.51826489 4294967295
2.4649999 0.31562278 0.51567137 4294967295
2.4625001 0.2911534 0.51826751 4294967295
2.46 0.21380207 0.5182693 4294967295
2.4701998 0.19232443 0.51597327 4294967295
2.4684372 0.1640615 0.51218885 4294967295
2.4653568 0.13459465 0.51296145 4294967295
2.4672997 0.1056683 0.51540685 4294967295
2.4673748 0.07919506 0.51612228 4294967295
2.4625001 0.045486007 0.51826751 4294967295
2.4662857 0.011610851 0.51663244 4294967295
2.4707503 -0.015049189 0.50728655 4294967295
2.4732401 -0.043272112 0.5067935 4294967295
2.4721999 -0.074796014 0.50680989 4294967295
2.4724665 -0.10483088 0.51215816 4294967295
2.4704998 -0.1349258 0.51540226 4294967295
2.4673333 -0.16211604 0.5157274 4294967295
2.4683335 -0.1949432 0.5182634 4294967295
2.4630001 -0.22596221 0.51826715 4294967295
2.4679999 -0.25505647 0.51826364 4294967295
2.467875 -0.2858128 0.51612192 4294967295
2.4711249 -0.31664631 0.51146585 4294967295
2.4751997 -0.34480801 0.50449556 4294967295
2.4794281 -0.37456945 0.5005973 4294967295
2.4751432 -0.40755403 0.49981344 4294967295
2.4729373 -0.4359293 0.50715816 4294967295
2.4712856 -0.4638468 0.51417553 4294967295
2.4675999 -0.49547204 0.5154078 4294967295
2.466562 -0.52673066 0.5118385 4294967295
2.4679999 -0.55566651 0.50969297 4294967295
2.4707692 -0.58297503 0.51386052 4294967295
2.4713633 -0.61506784 0.51461864 4294967295
2.4708667 -0.64326525 0.5125435 4294967295
2.4741664 -0.67345786 0.50967109 4294967295
2.4719472 -0.70431209 0.50288767 4294967295
2.4745002 -0.73511147 0.50391114 4294967295
2.4747856 -0.76431382 0.50760865 4294967295
2.4744167 -0.7939294 0.51396525 4294967295
2.4688885 -0.82795161 0.51508957 4294967295
2.47212 -0.85658735 0.50680137 4294967295
2.4702001 -0.88478279 0.50841087 4294967295
2.4761696 2.2313817 0.47587281 4294967295
2.4890001 2.2125144 0.47782454 4294967295
2.4657142 -0.018621581 0.4872131 4294967295
2.4654999 -0.043130103 0.48680621 4294967295
2.4625001 -0.068789162 0.48970041 4294967295
2.4614284 -0.35390407 0.48400599 4294967295
2.465333 -0.37337178 0.48357201 4294967295
2.4637499 -0.39608562 0.48825812 4294967295
2.461875 -0.83204192 0.46614388 4294967295
2.4678333 -0.85624892 0.47531664 4294967295
2.4661765 -0.87854904 0.47754458 4294967295
2.476325 2.2289779 0.44356605 4294967295
2.4890001 2.2144396 0.44317511 4294967295
2.4652088 -0.82721907 0.44343287 4294967295
2.4668183 -0.85458034 0.4451654 4294967295
2.46 -0.87064576 0.45263165 4294967295
2.476227 2.2320163 0.41458213 4294967295
2.4890001 2.2134769 0.41237563 4294967295
2.4608333 -0.83002448 0.4250133 4294967295
2.4616668 -0.84458071 0.42498177 4294967295
2.473526 2.2344737 0.3870213 4294967295
2.4863803 2.2120998 0.38392103 4294967295
2.474 2.3158963 0.34031627 4294967295
2.4655554 2.2971871 0.34664363 4294967295
2.4633334 2.2658999 0.34299353 4294967295
2.4732664 2.2336879 0.35464776 4294967295
2.4861875 2.2130091 0.36033902 4294967295
2.4773333 2.3132687 0.32282293 4294967295
2.4743476 2.2932615 0.32231563 4294967295
2.4705718 2.2646477 0.32391462 4294967295
2.4745133 2.2347412 0.3253921 4294967295
2.4841664 2.2103145 0.321908 4294967295
2.4691429 2.2917085 0.30138889 4294967295
2.4638889 2.270221 0.30231023 4294967295
2.46668 2.2298205 0.29689229 4294967295
2.4817269 2.208818 0.29438585 4294967295
2.4776666 2.2343395 0.2668134 4294967295
2.4749599 2.2372947 0.23436323 4294967295
2.4717309 2.2252917 0.20705393 4294967295
2.4789999 2.2130508 0.196165 4294967295
2.4677894 2.2268991 0.17321569 4294967295
2.4808836 2.2037096 0.17409545 4294967295
2.4890001 2.1855652 0.1717546 4294967295
2.4671426 2.262861 0.14087111 4294967295
2.4726288 2.2354245 0.14518952 4294967295
2.4839997 2.2108979 0.14524621 4294967295
2.463125 2.2892766 0.11252141 4294967295
2.4672904 2.2643628 0.1168198 4294967295
2.4787314 2.2351456 0.1148366 4294967295
2.4860001 2.2152238 0.12256581 4294967295
2.4757836 2.2369511 0.085272312 4294967295
2.4722273 2.2250438 0.0580962 4294967295
2.4798481 2.20523 0.051696807 4294967295
2.4840002 2.1869266 0.042785585 4294967295
2.4668822 2.2253897 0.023340374 4294967295
2.4764512 2.2049239 0.022810072 4294967295
2.4824615 2.1869001 0.030891806 4294967295
2.4649999 2.2502792 -0.0050429106 4294967295
2.4768858 2.2377737 -0.0046986341 4294967295
2.4873333 2.2129531 0.0046277046 4294967295
2.4749997 2.24458 -0.034116864 4294967295
2.4625001 2.2508509 -0.075928152 4294967295
2.4765172 2.2413456 -0.065839767 4294967295
2.4741428 2.2848644 -0.1041705 4294967295
2.4744711 2.2624447 -0.09639883 4294967295
2.4855385 2.2455082 -0.09437263 4294967295
2.4787223 2.2918813 -0.12681991 4294967295
2.4757996 2.2635815 -0.12509459 4294967295
2.4816561 2.2370365 -0.12625521 4294967295
2.484 2.3194938 -0.15461332 4294967295
2.4779584 2.2963696 -0.15488911 4294967295
2.4735193 2.2637951 -0.15320259 4294967295
2.4797893 2.2333205 -0.15491045 4294967295
2.484 2.3194938 -0.17334408 4294967295
2.4744999 2.2908511 -0.18152612 4294967295
2.4733331 2.263617 -0.18518603 4294967295
2.4812224 2.2334075 -0.18407845 4294967295
2.4881177 2.2075386 -0.19045186 4294967295
2.47 2.2834978 -0.2038213 4294967295
2.4679682 2.2646153 -0.21503884 4294967295
2.4759743 2.2356441 -0.21523988 4294967295
2.4851108 2.2064791 -0.21465522 4294967295
2.4649999 2.2531388 -0.23095214 4294967295
2.4671361 2.22984 -0.23992538 4294967295
2.4817057 2.2101231 -0.24500442 4294967295
2.4770269 2.2104232 -0.27436721 4294967295
2.4847693 2.2040069 -0.29506725 4294967295
2.4955001 0.75438625 1.9039751 4294967295
2.5063336 0.74408412 1.9128859 4294967295
2.5009999 -0.91648394 1.9120588 4294967295
2.5036871 0.75745547 1.8873295 4294967295
2.5120001 0.74869388 1.8995324 4294967295
2.5034287 -0.91338933 1.8831769 4294967295
2.5023572 0.75865859 1.8552375 4294967295
2.5050001 -0.91271245 1.8549762 4294967295
2.5064445 1.8047682 1.8157015 4294967295
2.5033126 1.784644 1.8250555 4294967295
2.5038753 1.7545443 1.8289622 4294967295
2.4982667 1.7284441 1.8212584 4294967295
2.4942503 1.5781928 1.8131034 4294967295
2.493 1.1735396 1.8213404 4294967295
2.4992187 1.153132 1.8232752 4294967295
2.5029328 1.1271319 1.823284 4294967295
2.4998097 1.0966419 1.8152105 4294967295
2.5024443 1.0690386 1.8110518 4294967295
2.5027778 0.96658659 1.8131566 4294967295
2.5052102 0.94550306 1.8183851 4294967295
2.5014548 0.91965663 1.814581 4294967295
2.5079999 0.78241557 1.8100507 4294967295
2.5033474 0.76504183 1.8230468 4294967295
2.502111 -0.91327852 1.8250654 4294967295
2.5049312 2.2079439 1.7964356 4294967295
2.5049233 2.1731446 1.8026366 4294967295
2.5072505 2.1448534 1.7961925 4294967295
2.5016193 2.1145489 1.7898848 4294967295
2.4999413 2.0859787 1.7843945 4294967295
2.4997649 2.0544434 1.7832854 4294967295
2.5013003 2.0260136 1.7851148 4294967295
2.5004289 1.9970886 1.7841769 4294967295
2.4980001 1.9790237 1.7817239 4294967295
2.4930003 1.9316812 1.7849827 4294967295
2.4943333 1.9008795 1.7891283 4294967295
2.4945004 1.8764119 1.7895005 4294967295
2.4948754 1.8450997 1.7897878 4294967295
2.5033429 1.8174489 1.7946924 4294967295
2.5095835 1.7203516 1.7987114 4294967295
2.5029998 1.6951741 1.7880958 4294967295
2.5045002 1.6653908 1.7858214 4294967295
2.5044286 1.6325417 1.7899418 4294967295
2.5024998 1.6042938 1.8005306 4294967295
2.5056667 1.574252 1.805598 4294967295
2.5046999 1.5452613 1.7943696 4294967295
2.5038331 1.515332 1.7888494 4294967295
2.5016429 1.4835591 1.798062 4294967295
2.5027225 1.4553019 1.7960193 4294967295
2.5009999 1.4247687 1.7881379 4294967295
2.5031817 1.3944211 1.7880273 4294967295
2.5021427 1.3694125 1.7846299 4294967295
2.493 1.2715609 1.7878748 4294967295
2.493 1.2459149 1.7921278 4294967295
2.4952726 1.215271 1.7856017 4294967295
2.5001667 1.1829218 1.7903335 4294967295
2.5084517 1.1555742 1.7986232 4294967295
2.517 1.1224757 1.8088403 4294967295
2.517 1.0947363 1.8088403 4294967295
2.517 1.065537 1.8088403 4294967295
2.5014999 1.0350214 1.8045125 4294967295
2.5022502 1.0041325 1.7977793 4294967295
2.5072796 0.97903037 1.7998809 4294967295
2.5037501 0.90307045 1.8063967 4294967295
2.5053077 0.88306814 1.8023878 4294967295
2.5031538 0.85550606 1.8030764 4294967295
2.5031817 0.82366759 1.803333 4294967295
2.5046666 0.79686368 1.8052206 4294967295
2.502625 -0.9220168 1.7927493 4294967295
2.5034094 2.2000339 1.765702 4294967295
2.5145004 2.1875341 1.7521336 4294967295
2.5170002 2.1108737 1.7796409 4294967295
2.5170002 2.0875142 1.7796409 4294967295
2.5170002 2.0602615 1.7796409 4294967295
2.5050004 1.9816217 1.7794197 4294967295
2.5052671 1.9615064 1.7768453 4294967295
2.5061431 1.9343678 1.7696004 4294967295
2.5045881 1.9059408 1.7694665 4294967295
2.5073075 1.8742909 1.7693998 4294967295
2.5097418 1.8442465 1.7673486 4294967295
2.5140386 1.8167284 1.7662586 4294967295
2.5170002 1.7889509 1.7599313 4294967295
2.5046 1.3566426 1.7792242 4294967295
2.5027997 1.334752 1.7760006 4294967295
2.5009046 1.3035178 1.7726634 4294967295
2.4986994 1.274408 1.766199 4294967295
2.4996181 1.2458198 1.7626214 4294967295
2.5020368 1.2185023 1.7717005 4294967295
2.517 1.199854 1.7796409 4294967295
2.5018337 -0.92219931 1.7642946 4294967295
2.4998004 2.2564917 1.7211361 4294967295
2.502125 2.2344356 1.7246524 4294967295
2.5038333 2.2024295 1.7317318 4294967295
2.5000002 2.1881158 1.7414834 4294967295
2.5031817 -0.91653717 1.7341734 4294967295
2.504621 2.2671914 1.7072976 4294967295
2.5040002 -0.91235262 1.7063177 4294967295
2.5019999 2.2611065 1.6770997 4294967295
2.5104003 2.2416046 1.6621698 4294967295
2.5033638 -0.91185522 1.6751163 4294967295
2.4992731 2.2330437 1.6511034 4294967295
2.5052176 2.2055826 1.6415749 4294967295
2.5014284 -0.91016936 1.6474601 4294967295
2.5085001 2.2249842 1.6027166 4294967295
2.5025773 2.205503 1.6174245 4294967295
2.5046 -0.89687842 1.6095482 4294967295
2.5018001 -0.90399909 1.6257486 4294967295
2.5068891 2.2587688 1.5807036 4294967295
2.4996364 2.2375932 1.5927417 4294967295
2.5022855 -0.89306986 1.5864739 4294967295
2.5170002 2.28023 1.554806 4294967295
2.504889 2.2711661 1.5527154 4294967295
2.5074999 0.54664856 1.5479913 4294967295
2.493 0.53480029 1.5420469 4294967295
2.5037777 -0.89645529 1.5567868 4294967295
2.517 -0.90249896 1.5460461 4294967295
2.4995835 2.2625008 1.530249 4294967295
2.5082595 2.2334819 1.5235211 4294967295
2.5147502 2.2169201 1.5217955 4294967295
2.5139999 0.52763945 1.5312039 4294967295
2.5049999 -0.91246301 1.5247598 4294967295
2.4942503 2.2292356 1.5063908 4294967295
2.5042632 2.2148442 1.4958942 4294967295
2.5074999 0.51751536 1.4984848 4294967295
2.5075002 -0.92744476 1.4955976 4294967295
2.5039999 -0.93123597 1.4942691 4294967295
2.5122004 2.2222486 1.4589968 4294967295
2.4997272 2.2134297 1.4688743 4294967295
2.5053842 -0.92380208 1.4666219 4294967295
2.5030313 2.2301557 1.4312725 4294967295
2.4930003 2.2179983 1.4494998 4294967295
2.5028181 -0.92538476 1.436259 4294967295
2.4930003 2.2527034 1.4061186 4294967295
2.504389 2.2397161 1.4043444 4294967295
2.5023332 -0.92819113 1.403936 4294967295
2.4979999 -0.93046099 1.3992021 4294967295
2.5021925 2.23329 1.3767862 4294967295
2.5086 2.2155759 1.3645196 4294967295
2.5022223 -0.92428255 1.3787547 4294967295
2.5025001 2.2045162 1.3461473 4294967295
2.5124998 0.50400686 1.3372723 4294967295
2.5019999 -0.9174298 1.3483546 4294967295
2.5032637 2.1962345 1.3163748 4294967295
2.4979999 0.50109816 1.3180687 4294967295
2.5027778 -0.91158515 1.3176489 4294967295
2.5049233 2.1932576 1.2871675 4294967295
2.4941113 2.1881225 1.2820967 4294967295
2.5059998 0.50270295 1.2973409 4294967295
2.5035 -0.89764172 1.2762403 4294967295
2.5036001 -0.90465105 1.2919631 4294967295
2.5021765 2.1814017 1.2545006 4294967295
2.493 0.66783661 1.2412692 4294967295
2.5003335 -0.89071238 1.25402 4294967295
2.5008669 2.1669602 1.2241993 4294967295
2.5014544 -0.89427727 1.2225988 4294967295
2.5059092 2.1988065 1.1889734 4294967295
2.5016155 2.1801045 1.2031267 4294967295
2.5045624 -0.89802194 1.1952102 4294967295
2.5027695 2.2016459 1.1656923 4294967295
2.5024703 -0.90581036 1.1661314 4294967295
2.5008001 2.1947222 1.1472008 4294967295
2.5022223 2.1845703 1.1329772 4294967295
2.5016468 -0.91166234 1.1362143 4294967295
2.4930003 2.1948617 1.0908804 4294967295
2.5015359 2.1816192 1.1050576 4294967295
2.5053332 -0.92504066 1.1064715 4294967295
2.4950001 -0.93281406 1.095968 4294967295
2.4962144 2.1968427 1.0729946 4294967295
2.5018339 2.1881053 1.0754857 4294967295
2.5032001 -0.92134976 1.074626 4294967295
2.4955001 -0.93242186 1.0856628 4294967295
2.4930003 2.1977537 1.0561752 4294967295
2.5016842 2.1862957 1.0455089 4294967295
2.5015001 -0.90708762 1.0420308 4294967295
2.502733 2.194895 1.0137485 4294967295
2.4967501 2.1880176 1.0265713 4294967295
2.4980001 0.50109822 1.025368 4294967295
2.5021999 -0.90588975 1.0145967 4294967295
2.5046921 2.1944022 0.98804164 4294967295
2.4990001 2.1885259 0.9791733 4294967295
2.5053077 -0.90857583 0.9841466 4294967295
2.5039997 2.1850624 0.954252 4294967295
2.5023334 -0.90883553 0.95561028 4294967295
2.5019166 2.1789846 0.92507052 4294967295
2.5075002 -0.90781063 0.92547917 4294967295
2.5010998 2.1735358 0.89601421 4294967295
2.493 0.50009519 0.8855418 4294967295
2.5035999 -0.90639615 0.89581692 4294967295
2.493 2.1967897 0.85565686 4294967295
2.5023701 2.1820123 0.86486751 4294967295
2.493 0.50009519 0.87686557 4294967295
2.5005 -0.8994748 0.85763359 4294967295
2.5051668 -0.90308774 0.87279129 4294967295
2.5024722 2.203167 0.8359592 4294967295
2.4992499 -0.89902663 0.84006584 4294967295
2.5062501 -0.90154517 0.82351899 4294967295
2.493 2.2527034 0.79877901 4294967295
2.5001795 2.2335742 0.80201912 4294967295
2.5046153 2.2162395 0.81280446 4294967295
2.502357 -0.91050434 0.80479908 4294967295
2.493 2.2527034 0.78431857 4294967295
2.5011425 2.2293489 0.78076351 4294967295
2.5042999 2.2053611 0.7672205 4294967295
2.5138333 2.1791728 0.76417065 4294967295
2.5145001 0.49857405 0.77201295 4294967295
2.504267 -0.92464226 0.77273053 4294967295
2.4942501 2.1959593 0.75406969 4294967295
2.5029263 2.1732419 0.74730265 4294967295
2.493 0.50009519 0.74382931 4294967295
2.5023844 -0.91376913 0.74601597 4294967295
2.5016153 2.1769838 0.71334869 4294967295
2.5059998 0.51238501 0.71787834 4294967295
2.5035002 -0.91410691 0.716703 4294967295
2.5041764 2.1995528 0.68468082 4294967295
2.5010002 2.1883419 0.6981256 4294967295
2.5079999 0.51474214 0.69862413 4294967295
2.5050001 -0.92434222 0.69551259 4294967295
2.5090001 -0.9326117 0.68123531 4294967295
2.4965713 2.2236481 0.64732724 4294967295
2.5055997 2.2156968 0.65611917 4294967295
2.4980001 0.52428132 0.64284617 4294967295
2.50525 -0.94187492 0.6548363 4294967295
2.4937146 2.2260706 0.62528366 4294967295
2.5057096 2.2127705 0.62231714 4294967295
2.5123332 0.52728963 0.6289773 4294967295
2.5073335 -0.95333266 0.63457012 4294967295
2.5073335 -0.96882749 0.61907524 4294967295
2.5003667 2.2281957 0.59268153 4294967295
2.5120001 2.2123089 0.5983659 4294967295
2.4979999 0.52234554 0.5955081 4294967295
2.4979999 -0.98841888 0.59358776 4294967295
2.5050001 -0.99116081 0.59092975 4294967295
2.5021598 2.2251873 0.56747663 4294967295
2.5095713 2.2177467 0.55566835 4294967295
2.493 0.51166356 0.57030374 4294967295
2.5010002 0.49588642 0.55498886 4294967295
2.51 -0.95531118 0.55317587 4294967295
2.5041428 -0.97258514 0.55642462 4294967295
2.5076666 -0.9922291 0.56671339 4294967295
2.5034444 2.2122014 0.53588164 4294967295
2.51 0.48311457 0.54735225 4294967295
2.5043333 0.46457893 0.53760338 4294967295
2.4978001 0.43616384 0.53100133 4294967295
2.5091667 0.40727195 0.53473574 4294967295
2.5145001 0.37896982 0.53573316 4294967295
2.4960001 0.34432909 0.52982622 4294967295
2.5035002 0.31631291 0.53277028 4294967295
2.5018001 0.28708088 0.53914231 4294967295
2.4946668 0.2544373 0.54139709 4294967295
2.5028 0.22333065 0.53798705 4294967295
2.5032501 0.19650745 0.53204185 4294967295
2.4995 0.16407414 0.53081334 4294967295
2.5020001 0.13399145 0.53203982 4294967295
2.4978335 0.10794705 0.53080678 4294967295
2.4971428 0.073000625 0.53066504 4294967295
2.5087998 0.043421723 0.53569746 4294967295
2.5044999 0.012113804 0.53350151 4294967295
2.5051248 -0.012578816 0.5320521 4294967295
2.5009999 -0.043765143 0.52984595 4294967295
2.5004547 -0.07433819 0.52668875 4294967295
2.5042222 -0.10643184 0.52664262 4294967295
2.5055003 -0.13467595 0.52769458 4294967295
2.5112 -0.1662876 0.52988607 4294967295
2.4979999 -0.19438684 0.52983409 4294967295
2.493 -0.22292797 0.52981442 4294967295
2.4960001 -0.25216356 0.52982622 4294967295
2.5104001 -0.28274432 0.52988291 4294967295
2.5074286 -0.31477743 0.52739066 4294967295
2.5106668 -0.34102207 0.52405882 4294967295
2.517 -0.44698912 0.52406907 4294967295
2.5050001 -0.4632636 0.52599436 4294967295
2.507 -0.49464339 0.52986956 4294967295
2.5040002 -0.52602094 0.52985775 4294967295
2.5068333 -0.55761945 0.52890486 4294967295
2.5040002 -0.58410412 0.52985775 4294967295
2.5047145 -0.61747575 0.5282079 4294967295
2.5036669 -0.64469606 0.52664173 4294967295
2.5042498 -0.67424136 0.52404845 4294967295
2.5145001 -0.69449598 0.52406502 4294967295
2.5060003 -0.79677427 0.52405125 4294967295
2.51 -0.82718903 0.52988136 4294967295
2.5038753 -0.85565913 0.52768821 4294967295
2.5015554 -0.88147026 0.52792007 4294967295
2.5034287 -0.91171753 0.53898203 4294967295
2.5039999 -0.93557698 0.54728687 4294967295
2.5008261 2.2065215 0.50739187 4294967295
2.4979999 -0.34799898 0.51824254 4294967295
2.5044999 -0.37431177 0.51316261 4294967295
2.5021112 -0.40370211 0.51050627 4294967295
2.5007999 -0.43365335 0.51708376 4294967295
2.493 -0.68566281 0.51824605 4294967295
2.5005 -0.70707393 0.51727676 4294967295
2.5021 -0.7351777 0.51476914 4294967295
2.5044999 -0.76361233 0.51751494 4294967295
2.493 -0.78399396 0.51824605 4294967295
2.5015485 2.204793 0.47386932 4294967295
2.502964 2.2075467 0.4439941 4294967295
2.502125 2.2034037 0.41356239 4294967295
2.5018888 2.1981423 0.38537276 4294967295
2.5014231 2.2018032 0.35529199 4294967295
2.5022411 2.1969604 0.32645518 4294967295
2.5025263 2.1943495 0.29425567 4294967295
2.497375 2.1878419 0.29733229 4294967295
2.5014665 2.2328596 0.25977606 4294967295
2.506263 2.207119 0.27094185 4294967295
2.5041111 2.2404499 0.23516607 4294967295
2.5027142 2.2266126 0.21213412 4294967295
2.5030768 2.2099578 0.19792709 4294967295
2.5046 2.1934233 0.18700525 4294967295
2.5023332 2.1806562 0.17320517 4294967295
2.5012107 2.1974773 0.1407215 4294967295
2.5051668 2.1861696 0.15447593 4294967295
2.4980001 2.2224352 0.10094592 4294967295
2.5035517 2.2081234 0.11604095 4294967295
2.5008259 2.2261882 0.086346775 4294967295
2.5087497 2.2159789 0.080970109 4294967295
2.5044708 2.2015104 0.060209721 4294967295
2.4992859 2.1871262 0.046879113 4294967295
2.5093334 2.1917644 0.011713505 4294967295
2.5033526 2.1844759 0.026594788 4294967295
2.5023634 2.2310474 -0.013790667 4294967295
2.5023334 2.2074137 0.00055086613 4294967295
2.5029585 2.2420774 -0.034660339 4294967295
2.5032353 2.2400677 -0.06493026 4294967295
2.5029233 2.2384157 -0.096200228 4294967295
2.5039997 2.2264657 -0.12362307 4294967295
2.5040665 2.224333 -0.15066123 4294967295
2.504889 2.2175739 -0.16367233 4294967295
2.5032222 2.2031834 -0.18214673 4294967295
2.4978001 2.1874793 -0.19689566 4294967295
2.493 2.1948617 -0.22791386 4294967295
2.5022902 2.1818438 -0.21571225 4294967295
2.5018826 2.1971931 -0.24833345 4294967295
2.5064445 2.185349 -0.23517567 4294967295
2.5027826 2.1991589 -0.27552569 4294967295
2.5036998 2.1937985 -0.29617542 4294967295
2.4986668 2.187273 -0.30207783 4294967295
2.5369999 0.73259997 1.9338636 4294967295
2.5320001 -0.91962677 1.9340146 4294967295
2.5419998 0.75173742 1.901257 4294967295
2.5314443 0.74143177 1.9180347 4294967295
2.5303335 -0.91705161 1.9164369 4294967295
2.5332499 0.75649023 1.8847461 4294967295
2.5220001 -0.91599476 1.8933213 4294967295
2.5303333 0.75513327 1.8547934 4294967295
2.5365002 1.8111901 1.8194035 4294967295
2.5314445 1.7868824 1.8299364 4294967295
2.5314999 1.7606225 1.8221142 4294967295
2.5220001 1.1320199 1.8114007 4294967295
2.5369999 1.0968117 1.8117106 4294967295
2.5378332 1.0655175 1.8126349 4294967295
2.5369999 0.9621461 1.8131835 4294967295
2.5349166 0.94419366 1.8170198 4294967295
2.5336666 0.91582263 1.8124654 4294967295
2.5469999 0.85663182 1.8123829 4294967295
2.5386667 0.79198653 1.81305 4294967295
2.5347776 0.76527381 1.8264356 4294967295
2.5305712 -0.92078304 1.8191252 4294967295
2.5340695 2.2044389 1.7960759 4294967295
2.5363185 2.1765499 1.7898208 4294967295
2.5313337 2.1483297 1.7840515 4294967295
2.533875 2.1161764 1.7821999 4294967295
2.5395002 2.0855346 1.785009 4294967295
2.5345001 2.0542152 1.785447 4294967295
2.5327146 2.027487 1.784976 4294967295
2.5301251 2.0022557 1.7825261 4294967295
2.5325558 1.8105118 1.7932972 4294967295
2.5450001 1.7895023 1.786567 4294967295
2.539917 1.7529448 1.7935661 4294967295
2.5295005 1.7251953 1.7858816 4294967295
2.5336671 1.6947124 1.7860178 4294967295
2.5345001 1.6609811 1.7920634 4294967295
2.5375559 1.6315773 1.7977712 4294967295
2.5377502 1.6024498 1.7994208 4294967295
2.5364742 1.5780244 1.7933861 4294967295
2.5329378 1.5464401 1.7839249 4294967295
2.5324168 1.5171211 1.7922518 4294967295
2.5315001 1.4857424 1.7998055 4294967295
2.5332503 1.455917 1.7921692 4294967295
2.5345001 1.4257478 1.7913284 4294967295
2.5320003 1.3930217 1.7890918 4294967295
2.5377142 1.3627915 1.7832671 4294967295
2.5469999 1.3441634 1.7828356 4294967295
2.54075 1.2067493 1.7841544 4294967295
2.5357502 1.1837677 1.7870499 4294967295
2.5346189 1.1525074 1.7870371 4294967295
2.5323575 1.1265838 1.79842 4294967295
2.5270002 1.1068994 1.8061357 4294967295
2.534857 1.034427 1.8036839 4294967295
2.5366426 1.0044811 1.7915568 4294967295
2.5352607 0.97582126 1.7925971 4294967295
2.5369999 0.90330189 1.8073088 4294967295
2.5369999 0.88564301 1.8073088 4294967295
2.5257499 0.85535806 1.805989 4294967295
2.5336666 0.82764351 1.8051144 4294967295
2.5350001 0.80495423 1.8051052 4294967295
2.5370002 -0.92614716 1.7955294 4294967295
2.5339446 2.1949596 1.7652388 4294967295
2.5420001 2.1868789 1.7734737 4294967295
2.5403337 1.9879982 1.7691915 4294967295
2.5279377 1.963147 1.7612705 4294967295
2.5277696 1.9335688 1.7534441 4294967295
2.5335791 1.9041593 1.7560496 4294967295
2.5333891 1.8760908 1.7554889 4294967295
2.5288186 1.8460737 1.7530116 4294967295
2.5308461 1.8157676 1.7585437 4294967295
2.5298951 1.7840104 1.7626154 4294967295
2.5284817 1.7548153 1.761712 4294967295
2.5350773 1.727635 1.765839 4294967295
2.5370002 1.553735 1.7778774 4294967295
2.5320001 1.3326855 1.7765571 4294967295
2.5364444 1.303261 1.7658126 4294967295
2.5312858 1.2746077 1.7548993 4294967295
2.5342219 1.2420295 1.7582003 4294967295
2.5332501 1.2200826 1.7723378 4294967295
2.5311668 -0.92127454 1.77008 4294967295
2.5470002 2.2837701 1.7237408 4294967295
2.5340002 2.2638776 1.7258215 4294967295
2.5350006 2.2353323 1.7310032 4294967295
2.5320001 2.2046127 1.739611 4294967295
2.5470002 1.9853415 1.744424 4294967295
2.5393081 1.9646121 1.743663 4294967295
2.5376253 1.9345951 1.7435925 4294967295
2.543 1.9120029 1.7478056 4294967295
2.5470002 1.7105509 1.7237408 4294967295
2.5470002 1.7016867 1.7266955 4294967295
2.5353334 -0.91690546 1.7387923 4294967295
2.5470002 2.2837701 1.7119219 4294967295
2.5334289 2.27495 1.7055428 4294967295
2.5470002 1.7105509 1.7119219 4294967295
2.5417061 1.6913745 1.7056247 4294967295
2.5339999 -0.91447377 1.7058454 4294967295
2.534143 2.2621427 1.6832175 4294967295
2.5355003 2.2351933 1.6735992 4294967295
2.5411668 2.2107275 1.6669394 4294967295
2.5470002 1.698732 1.6853293 4294967295
2.5349998 -0.91483468 1.6768981 4294967295
2.5320001 2.2033234 1.6465303 4294967295
2.5339999 -0.90975785 1.6470265 4294967295
2.5420001 2.2527406 1.6034203 4294967295
2.5370004 2.2335742 1.6095313 4294967295
2.5298574 2.2113655 1.6217238 4294967295
2.52825 -0.89626366 1.6122265 4294967295
2.5320001 -0.90200275 1.6285317 4294967295
2.5411668 2.28246 1.5755455 4294967295
2.5392504 2.2682512 1.5848478 4294967295
2.5428336 2.2436113 1.5771828 4294967295
2.5311668 -0.89583313 1.584097 4294967295
2.5345001 2.2828512 1.5649409 4294967295
2.5298126 2.2668686 1.5553043 4294967295
2.5314739 2.2339659 1.5519583 4294967295
2.5398574 2.2175822 1.5452582 4294967295
2.5220001 0.54102141 1.5597874 4294967295
2.5345001 -0.90582782 1.5502427 4294967295
2.5290003 2.2218521 1.5192404 4294967295
2.5327146 2.2163754 1.5268445 4294967295
2.5220001 0.52931845 1.53053 4294967295
2.5353334 -0.92082775 1.5270507 4294967295
2.5469999 -0.9309842 1.5139545 4294967295
2.5375559 2.2275407 1.4948857 4294967295
2.5345001 -0.9256649 1.4950922 4294967295
2.5320001 -0.9313761 1.5051636 4294967295
2.5320001 2.2298415 1.4633675 4294967295
2.5327144 -0.92155796 1.4659708 4294967295
2.5335388 2.2328022 1.4356546 4294967295
2.5250001 -0.92645365 1.4380043 4294967295
2.5469999 -0.9309842 1.4371314 4294967295
2.5320003 2.2358372 1.4056764 4294967295
2.5295002 -0.92751336 1.4080728 4294967295
2.5469999 -0.9309842 1.4164481 4294967295
2.5358891 2.2299809 1.3818018 4294967295
2.5320003 2.2150774 1.3653347 4294967295
2.5320001 0.5079186 1.3641715 4294967295
2.529 -0.9244048 1.3749251 4294967295
2.5325 2.2084713 1.3437674 4294967295
2.527 0.50691563 1.3537157 4294967295
2.54075 -0.92132735 1.3449802 4294967295
2.5375001 2.2075353 1.3159533 4294967295
2.5436666 0.50435716 1.320847 4294967295
2.53075 -0.91182941 1.3138431 4294967295
2.535125 2.2040007 1.2872709 4294967295
2.5320001 -0.89612806 1.2701766 4294967295
2.5369999 -0.90376943 1.2907653 4294967295
2.5357502 2.1942356 1.2624409 4294967295
2.5307503 2.1855173 1.2492449 4294967295
2.5220001 -0.89258885 1.2516099 4294967295
2.5470002 2.195128 1.2155261 4294967295
2.5345004 2.1814058 1.2268138 4294967295
2.5303335 -0.89553821 1.2256286 4294967295
2.5373847 2.2076592 1.1943278 4294967295
2.5220003 2.1794333 1.2086992 4294967295
2.5357499 -0.89745522 1.1977413 4294967295
2.5469999 -0.90143681 1.1859787 4294967295
2.5364447 2.2075994 1.1642556 4294967295
2.5220001 -0.8984403 1.1794418 4294967295
2.5353332 -0.90514064 1.162003 4294967295
2.538429 2.1936088 1.1357467 4294967295
2.5270002 2.1866796 1.1309016 4294967295
2.534143 -0.91367954 1.1347339 4294967295
2.5382502 2.1964161 1.1012423 4294967295
2.528667 2.1871448 1.1107895 4294967295
2.5320001 -0.92402983 1.1130233 4294967295
2.5469999 -0.9309842 1.1002913 4294967295
2.5355003 2.1999128 1.0770745 4294967295
2.533 -0.92115563 1.0765228 4294967295
2.5339999 2.1986141 1.0455778 4294967295
2.5353334 -0.91102695 1.04468 4294967295
2.5320001 2.2063427 1.0143007 4294967295
2.5389998 -0.91038728 1.0130504 4294967295
2.5369999 2.2056224 0.98541629 4294967295
2.5379999 -0.9100287 0.98342717 4294967295
2.5386667 2.1964393 0.95799816 4294967295
2.527 2.1866796 0.94328904 4294967295
2.5364444 -0.90684462 0.95239371 4294967295
2.5469999 2.195128 0.93482602 4294967295
2.5301251 2.1842473 0.92107344 4294967295
2.5379996 -0.9100287 0.92451805 4294967295
2.5469999 2.195128 0.88755023 4294967295
2.5311668 2.1844118 0.8940841 4294967295
2.5386665 0.50336576 0.89517128 4294967295
2.5320001 -0.90787739 0.89421386 4294967295
2.5359998 2.1927066 0.86066461 4294967295
2.5253334 2.1862147 0.86588234 4294967295
2.5469999 0.50501812 0.85504812 4294967295
2.5220001 -0.8984403 0.85175943 4294967295
2.539 -0.90331453 0.86577988 4294967295
2.5469999 2.2246752 0.82550073 4294967295
2.5351818 2.2068539 0.83745056 4294967295
2.5409999 0.50382847 0.83655822 4294967295
2.5220001 -0.89844024 0.84005654 4294967295
2.5395 -0.90171981 0.83641136 4294967295
2.5385385 2.2272379 0.80318677 4294967295
2.5220001 2.2145422 0.81665063 4294967295
2.5419998 0.50402671 0.80723059 4294967295
2.5377142 -0.91327828 0.80504966 4294967295
2.529 2.2218521 0.78579021 4294967295
2.5336666 2.2041903 0.77981919 4294967295
2.5355 2.1816609 0.76999551 4294967295
2.5320001 0.5020439 0.78845352 4294967295
2.535125 -0.92296189 0.77702105 4294967295
2.5344999 2.1799386 0.74535084 4294967295
2.5270002 0.503003 0.75079453 4294967295
2.5345001 -0.9139083 0.74755532 4294967295
2.5420001 2.2002437 0.71285534 4294967295
2.5253334 2.1842642 0.72329545 4294967295
2.5369999 -0.92438585 0.71246213 4294967295
2.5419998 2.2232511 0.67451108 4294967295
2.534143 2.2117467 0.68453723 4294967295
2.5419998 -0.9409408 0.68337524 4294967295
2.5386667 2.2239316 0.65630198 4294967295
2.5320001 2.2162478 0.64275706 4294967295
2.5369999 0.52658039 0.65359938 4294967295
2.5345001 -0.95287448 0.64759308 4294967295
2.5323126 2.2092619 0.62471277 4294967295
2.5345001 -0.97635573 0.61821389 4294967295
2.5317059 2.2106078 0.59354329 4294967295
2.5345001 0.52606148 0.59173727 4294967295
2.5220001 -0.98621237 0.60599774 4294967295
2.5345001 -1.0028613 0.58582783 4294967295
2.5364447 2.222615 0.56528378 4294967295
2.527 2.2156661 0.56708491 4294967295
2.5395 0.51825249 0.57417935 4294967295
2.5319998 0.50008184 0.55934131 4294967295
2.5353334 -0.95023012 0.55351073 4294967295
2.5386665 -0.97701365 0.56140703 4294967295
2.5386665 -1.0005858 0.57123291 4294967295
2.5469999 2.2246752 0.53593647 4294967295
2.5303333 2.2169638 0.53778273 4294967295
2.5469999 0.48138022 0.54775542 4294967295
2.5345001 0.47019413 0.54173875 4294967295
2.5220001 0.43276924 0.53578007 4294967295
2.5220001 0.36547732 0.53578007 4294967295
2.5286667 0.34590912 0.5358218 4294967295
2.5345001 0.31288132 0.54027587 4294967295
2.5320001 0.28468803 0.54642171 4294967295
2.5220001 0.25429937 0.54748303 4294967295
2.5357499 0.2247858 0.54322106 4294967295
2.5320001 0.187749 0.53584266 4294967295
2.5220001 0.16799021 0.53578007 4294967295
2.5220001 0.14604719 0.53578007 4294967295
2.526 0.10348885 0.53580511 4294967295
2.5220001 0.075829536 0.53578007 4294967295
2.5469999 0.020441208 0.54184598 4294967295
2.5220001 -0.023645457 0.53578007 4294967295
2.5280001 -0.044239864 0.53581762 4294967295
2.5419998 -0.065123886 0.53590518 4294967295
2.5220001 -0.10556605 0.52992862 4294967295
2.5369999 -0.19447254 0.53587395 4294967295
2.5240002 -0.22570932 0.53579259 4294967295
2.5357499 -0.25471634 0.53586608 4294967295
2.5220001 -0.3249962 0.52992862 4294967295
2.5370002 -0.3431164 0.52851897 4294967295
2.5369999 -0.36224678 0.52410138 4294967295
2.5345001 -0.44126171 0.52409732 4294967295
2.5395 -0.46570635 0.52999747 4294967295
2.5419998 -0.50154918 0.53590518 4294967295
2.5369999 -0.52706236 0.53587395 4294967295
2.5444999 -0.55519575 0.53592086 4294967295
2.5386665 -0.58334178 0.53588438 4294967295
2.5403333 -0.61027873 0.53589475 4294967295
2.5220001 -0.65267855 0.52992862 4294967295
2.5319998 -0.67584234 0.52996796 4294967295
2.5340002 -0.70630854 0.52646035 4294967295
2.5419998 -0.7315836 0.52410948 4294967295
2.5420001 -0.76989543 0.52410948 4294967295
2.5353334 -0.79929996 0.52803057 4294967295
2.5336668 -0.82227832 0.53194433 4294967295
2.5449998 -0.85349029 0.53592396 4294967295
2.5398571 -0.88708496 0.53589183 4294967295
2.5336666 -0.91823518 0.5436821 4294967295
2.5469999 -0.9309842 0.54775542 4294967295
2.5469999 2.2246752 0.50934386 4294967295
2.5313749 2.2146935 0.50574553 4294967295
2.5345001 -0.38247439 0.51821685 4294967295
2.5469999 -0.41390517 0.51820809 4294967295
2.5295 -0.42279038 0.51822037 4294967295
2.5369999 2.2141621 0.47699961 4294967295
2.5329089 2.212889 0.44451123 4294967295
2.5355 2.2081451 0.41231197 4294967295
2.5365002 2.2066641 0.38285089 4294967295
2.5329092 2.2075438 0.35260212 4294967295
2.533875 2.2036505 0.32641548 4294967295
2.5336666 2.2022476 0.29288054 4294967295
2.5240002 2.2280011 0.25469923 4294967295
2.534143 2.2088139 0.2637057 4294967295
2.5409999 2.2583396 0.23404384 4294967295
2.5332499 2.2434783 0.24346083 4294967295
2.5469999 2.2542226 0.21682486 4294967295
2.5332499 2.2376299 0.2081722 4294967295
2.5345001 2.2166946 0.19479087 4294967295
2.5353334 2.2027164 0.18586421 4294967295
2.5320001 2.1843903 0.16941434 4294967295
2.5342226 2.1958623 0.14125922 4294967295
2.5353334 2.1870313 0.15546918 4294967295
2.5328333 2.2088599 0.11518291 4294967295
2.5405715 2.2232497 0.082862765 4294967295
2.5262856 2.2157874 0.086989045 4294967295
2.5469999 2.2246752 0.069088012 4294967295
2.5342727 2.2060637 0.05316937 4294967295
2.5355 2.1940289 0.026413739 4294967295
2.5220001 2.1852846 0.026702106 4294967295
2.536 2.2291689 -0.014867008 4294967295
2.5363748 2.2072737 0.0018343329 4294967295
2.539 2.2542012 -0.042598009 4294967295
2.531286 2.2419765 -0.027969599 4294967295
2.5405002 2.2573037 -0.065328777 4294967295
2.5220001 2.2437994 -0.078624308 4294967295
2.5395 2.2519994 -0.090147555 4294967295
2.5320005 2.2428806 -0.10058916 4294967295
2.5365653 2.2291014 -0.1250577 4294967295
2.5469999 2.2187657 -0.13183409 4294967295
2.536762 2.2272007 -0.15387082 4294967295
2.5469999 2.2167959 -0.14562291 4294967295
2.5419998 2.2232511 -0.17183965 4294967295
2.5355716 2.2113185 -0.18437195 4294967295
2.5345001 2.1931524 -0.20655864 4294967295
2.5340831 2.1820154 -0.21867931 4294967295
2.5320001 2.1974556 -0.25371099 4294967295
2.5335 2.1840594 -0.23888218 4294967295
2.5341876 2.2064848 -0.2748065 4294967295
2.5364447 2.2017121 -0.3024044 4294967295
2.5611668 0.73561382 1.9394013 4294967295
2.5641427 -0.92194343 1.9443173 4294967295
2.5669999 0.75317466 1.9118617 4294967295
2.5595 0.74502695 1.9226491 4294967295
2.5610001 -0.92183298 1.9181292 4294967295
2.5632501 0.75578386 1.8852811 4294967295
2.5603335 -0.92397696 1.8874537 4294967295
2.5620003 0.7558617 1.855639 4294967295
2.552 -0.92096972 1.8534071 4294967295
2.5643916 1.8104262 1.8245591 4294967295
2.5629377 1.7896338 1.8237947 4294967295
2.5520003 1.7671987 1.8149201 4294967295
2.5695 1.1145868 1.8118764 4294967295
2.5632501 1.0940313 1.8169044 4294967295
2.5627141 1.0670451 1.8161007 4294967295
2.5669999 0.9616304 1.8106195 4294967295
2.5643337 0.9471339 1.8175992 4294967295
2.5665455 0.91490138 1.8141716 4294967295
2.5657499 0.8845194 1.8122202 4294967295
2.5653334 0.85982394 1.8127537 4294967295
2.5636666 0.79515851 1.8175259 4294967295
2.5632501 0.77140212 1.832517 4294967295
2.56075 -0.92486745 1.8245379 4294967295
2.566375 2.1731174 1.7835068 4294967295
2.5620003 2.1448863 1.786549 4294967295
2.562 2.1164837 1.7866969 4294967295
2.5635004 2.088588 1.7892264 4294967295
2.5642731 2.0536911 1.7897648 4294967295
2.5607502 2.0279939 1.7844417 4294967295
2.5545003 1.8089319 1.8043349 4294967295
2.5557504 1.7868416 1.7982963 4294967295
2.5520003 1.7671987 1.8060385 4294967295
2.5648575 1.7174355 1.7840285 4294967295
2.5636668 1.6974399 1.7925795 4294967295
2.5626252 1.6645566 1.7980086 4294967295
2.5631115 1.6354589 1.7924548 4294967295
2.5549169 1.612129 1.7902071 4294967295
2.5520003 1.5895663 1.7853147 4294967295
2.5620003 1.5341812 1.787019 4294967295
2.5645003 1.5143735 1.7994301 4294967295
2.5624547 1.4820223 1.7985914 4294967295
2.5640004 1.4542599 1.7972134 4294967295
2.5669999 1.4261889 1.7987077 4294967295
2.5628333 1.3951337 1.7926636 4294967295
2.5644999 1.3662879 1.7875398 4294967295
2.5669999 1.3428028 1.7828215 4294967295
2.5654998 1.2128491 1.7866445 4294967295
2.5653334 1.1842065 1.7859658 4294967295
2.5644999 1.1534601 1.7831753 4294967295
2.562 1.1288928 1.7951258 4294967295
2.552 1.1099592 1.8089991 4294967295
2.552 1.0507485 1.8089991 4294967295
2.5645001 1.0337882 1.7995688 4294967295
2.5624168 1.0059777 1.7850161 4294967295
2.5631766 0.97243774 1.7950376 4294967295
2.5586667 0.87936002 1.808388 4294967295
2.5640004 0.84509486 1.8079084 4294967295
2.5630717 0.82423574 1.8031114 4294967295
2.572 0.80834907 1.8071659 4294967295
2.5591428 -0.92608511 1.7981724 4294967295
2.5659289 2.2033551 1.7645732 4294967295
2.5540004 2.1821949 1.7768233 4294967295
2.5720003 2.079422 1.7534586 4294967295
2.5720005 2.0509107 1.759426 4294967295
2.5667226 2.025867 1.7634964 4294967295
2.5520003 2.0030546 1.7665646 4294967295
2.5655715 1.9024495 1.7520741 4294967295
2.5653336 1.8696759 1.7535599 4294967295
2.5610001 1.8447099 1.7570857 4294967295
2.5629094 1.8152798 1.7582792 4294967295
2.5658891 1.7867351 1.7591206 4294967295
2.5581112 1.7562536 1.7553607 4294967295
2.563905 1.724151 1.7640201 4294967295
2.5703335 1.7063415 1.7546484 4294967295
2.566 1.6026473 1.7751741 4294967295
2.5627146 1.574703 1.7758852 4294967295
2.5636671 1.5484337 1.7764081 4294967295
2.5630002 1.3276113 1.7752881 4294967295
2.5670002 1.3070637 1.7659428 4294967295
2.5601816 1.2749642 1.7564224 4294967295
2.5629091 1.2444268 1.7663966 4294967295
2.5570002 1.2278153 1.7759285 4294967295
2.5639999 1.1580052 1.7781546 4294967295
2.552 0.98561668 1.7793937 4294967295
2.5632501 -0.92204583 1.7641144 4294967295
2.5648575 2.2878718 1.7279228 4294967295
2.5651822 2.2654247 1.7350316 4294967295
2.5650003 2.234437 1.7399813 4294967295
2.5520003 2.2083189 1.7468277 4294967295
2.5695004 2.0827692 1.7409296 4294967295
2.5688183 2.0589609 1.7427208 4294967295
2.5691433 2.0217643 1.7452717 4294967295
2.562417 1.995366 1.7424116 4294967295
2.559 1.9620239 1.7383103 4294967295
2.5608463 1.933278 1.7430736 4294967295
2.5570004 1.9100847 1.7492256 4294967295
2.5520003 1.8767385 1.7497883 4294967295
2.5670002 1.7461046 1.7399932 4294967295
2.5582504 1.7273059 1.7391357 4294967295
2.5615003 1.6926349 1.7335694 4294967295
2.5670002 -0.91843784 1.7321966 4294967295
2.5641432 2.2872312 1.7114458 4294967295
2.5645003 2.2672129 1.6997852 4294967295
2.5684288 2.2340231 1.6955588 4294967295
2.5655003 1.7283403 1.7068844 4294967295
2.5609286 1.6914445 1.7014614 4294967295
2.5520003 1.6783825 1.7142618 4294967295
2.5686665 1.5135235 1.6952423 4294967295
2.57075 0.82286614 1.6932132 4294967295
2.5640001 -0.91636759 1.7049958 4294967295
2.5570004 2.2363646 1.6869383 4294967295
2.5628335 2.2142122 1.6752282 4294967295
2.5657501 1.7186763 1.6834866 4294967295
2.559778 1.698663 1.6822603 4294967295
2.572 1.5363815 1.6818489 4294967295
2.5635002 1.5107822 1.6800842 4294967295
2.572 0.84415394 1.6848326 4294967295
2.5666156 0.82589346 1.68033 4294967295
2.572 0.80834907 1.6878164 4294967295
2.5634999 -0.91618943 1.6750358 4294967295
2.5703335 2.2251759 1.6373614 4294967295
2.5620003 2.2153096 1.6476152 4294967295
2.5630002 -0.90709037 1.6420945 4294967295
2.5580003 2.2592075 1.600738 4294967295
2.5627146 2.2400887 1.6139398 4294967295
2.5630002 -0.90115303 1.6123753 4294967295
2.5520003 2.2823322 1.5780771 4294967295
2.5549417 2.2671709 1.5873183 4294967295
2.5634289 2.236455 1.5822493 4294967295
2.5649998 -0.90423149 1.5834738 4294967295
2.5545003 2.2267737 1.5628133 4294967295
2.5631912 2.2150095 1.5529826 4294967295
2.5695 0.53332609 1.5644639 4294967295
2.5619998 -0.91387182 1.5525062 4294967295
2.563539 2.2299562 1.5247569 4294967295
2.5520003 2.2172005 1.5366296 4294967295
2.5669999 0.53280717 1.5306932 4294967295
2.566 -0.92720628 1.5255301 4294967295
2.562 -0.9305228 1.5198083 4294967295
2.5655 2.2438049 1.4943779 4294967295
2.5636666 -0.92318571 1.4956656 4294967295
2.5633335 2.2436843 1.4662 4294967295
2.562 -0.92382812 1.4685302 4294967295
2.562 -0.9305228 1.451449 4294967295
2.5720003 2.2524791 1.428231 4294967295
2.5620003 2.2454929 1.437184 4294967295
2.566 -0.9319756 1.435045 4294967295
2.5720003 2.2524791 1.416296 4294967295
2.5638752 2.2468421 1.4030513 4294967295
2.562 -0.9305228 1.4038949 4294967295
2.5655003 2.2324879 1.3765199 4294967295
2.552 -0.92689079 1.3649184 4294967295
2.562 -0.9305228 1.3801177 4294967295
2.5670004 2.2252672 1.3480463 4294967295
2.5520003 2.2172005 1.3441947 4294967295
2.5644999 0.508488 1.3422844 4294967295
2.5636666 -0.92319083 1.3429954 4294967295
2.5670002 2.2242765 1.3192596 4294967295
2.5620003 2.2199442 1.3028421 4294967295
2.562 0.50799233 1.3147306 4294967295
2.5630002 -0.91422814 1.3150363 4294967295
2.5720003 2.2226417 1.2909789 4294967295
2.561167 2.2152498 1.2827654 4294967295
2.5639999 -0.90388 1.2856042 4294967295
2.5655718 2.2017694 1.2529047 4294967295
2.5520003 2.1875951 1.2405758 4294967295
2.552 0.67772073 1.2642601 4294967295
2.552 -0.89728534 1.2543916 4294967295
2.562 -0.90080142 1.2523158 4294967295
2.5663755 2.2028894 1.2208169 4294967295
2.5520003 2.1875951 1.2316942 4294967295
2.552 -0.8972854 1.2316942 4294967295
2.562 -0.90080142 1.2196221 4294967295
2.5678339 2.2259855 1.1924226 4294967295
2.5603337 2.2184885 1.2013574 4294967295
2.5650001 -0.90304506 1.1966319 4294967295
2.5703335 2.2231865 1.174185 4294967295
2.5598574 2.2129793 1.1613241 4294967295
2.5669999 -0.90851521 1.1673753 4294967295
2.5656366 2.2036052 1.135103 4294967295
2.5645001 -0.91952491 1.136013 4294967295
2.5620003 2.2080493 1.1066744 4294967295
2.552 -0.92689079 1.1162331 4294967295
2.5657499 -0.93188477 1.1045588 4294967295
2.5648575 2.2147641 1.0733182 4294967295
2.5630002 -0.9237389 1.077163 4294967295
2.5695002 2.223459 1.0338802 4294967295
2.5645003 2.2161565 1.0487453 4294967295
2.5650001 -0.91494292 1.0478439 4294967295
2.5678332 2.22698 1.0136864 4294967295
2.552 2.2172005 1.0126144 4294967295
2.5661666 -0.91417432 1.0153441 4294967295
2.572 2.2226417 0.99558878 4294967295
2.5625556 2.2144632 0.9839198 4294967295
2.5645001 -0.91159141 0.98130727 4294967295
2.5636666 2.2040315 0.95389694 4294967295
2.5653334 -0.90891224 0.95564866 4294967295
2.5655 2.2021372 0.92295468 4294967295
2.5628333 -0.91298681 0.92549402 4294967295
2.5661666 2.2046983 0.89527643 4294967295
2.5644999 0.508488 0.88412261 4294967295
2.5611668 -0.91040587 0.89157116 4294967295
2.5597272 2.2033896 0.864272 4294967295
2.562 0.50799227 0.86892146 4294967295
2.5650001 -0.90542048 0.8633579 4294967295
2.5634286 2.2279589 0.82577789 4294967295
2.560889 2.2130229 0.84103018 4294967295
2.5669999 0.5030278 0.84576726 4294967295
2.5628335 -0.90505147 0.83434069 4294967295
2.5643334 2.2318692 0.80457902 4294967295
2.5634286 2.2118094 0.79263824 4294967295
2.5634286 -0.91744316 0.80197591 4294967295
2.5638182 2.1944656 0.77722073 4294967295
2.572 0.50400764 0.78075957 4294967295
2.5630002 -0.92017591 0.77212179 4294967295
2.5639999 2.19787 0.74426889 4294967295
2.552 2.1875951 0.74912649 4294967295
2.5669999 0.51493955 0.73856151 4294967295
2.5682499 -0.91789442 0.74760461 4294967295
2.5650001 2.2142076 0.71459091 4294967295
2.552 0.51785165 0.72544223 4294967295
2.562 -0.92457849 0.72624719 4294967295
2.5669999 -0.93829465 0.7028262 4294967295
2.5648572 2.2300577 0.68228328 4294967295
2.552 2.2172005 0.68991578 4294967295
2.5653334 -0.94760036 0.68485153 4294967295
2.5633638 2.2303028 0.65443885 4294967295
2.572 0.53384501 0.64947498 4294967295
2.562 -0.95429993 0.66680443 4294967295
2.562 -0.96024418 0.64897162 4294967295
2.5695 2.223459 0.63444209 4294967295
2.5606363 2.2160451 0.62242711 4294967295
2.5586667 -0.97284937 0.62901276 4294967295
2.572 -0.99382961 0.61367017 4294967295
2.5680001 2.2239449 0.58850515 4294967295
2.5591431 2.2174585 0.59963655 4294967295
2.5653331 0.53047591 0.59755272 4294967295
2.5636666 -1.0024904 0.60148585 4294967295
2.5639229 2.2284629 0.5671578 4294967295
2.5669999 0.50104642 0.55988902 4294967295
2.5686667 0.27688798 0.55395132 4294967295
