# .PCD v0.7 - Point Cloud Data file format
VERSION 0.7
FIELDS x y z rgb
SIZE 4 4 4 4
TYPE F F F U
COUNT 1 1 1 1
WIDTH 1155
HEIGHT 1
VIEWPOINT 0 0 0 1 0 0 0
POINTS 1155
DATA ascii
2.8685558 1.3001307 1.6220382 4294967295
2.8656664 1.274236 1.6172259 4294967295
2.8620627 1.2464726 1.6115692 4294967295
2.8614001 1.2179685 1.6047697 4294967295
2.8631334 1.18327 1.606531 4294967295
2.8622003 1.155874 1.6203294 4294967295
2.8679287 1.1285301 1.6234959 4294967295
2.8763337 1.0953032 1.6213412 4294967295
2.8736665 1.0631808 1.6185338 4294967295
2.8638096 1.0358043 1.6168401 4294967295
2.8537142 1.0113418 1.6095272 4294967295
2.855 0.9337216 1.6043416 4294967295
2.8651156 0.91630304 1.614819 4294967295
2.875 0.89468288 1.6097174 4294967295
2.8740001 0.85492164 1.6198949 4294967295
2.855 0.83436728 1.6208985 4294967295
2.8649092 -0.87978584 1.6165464 4294967295
2.8620002 2.1013741 1.5737898 4294967295
2.8670869 2.0865929 1.5883852 4294967295
2.8714449 2.0528114 1.5935527 4294967295
2.8644445 2.0271041 1.5872264 4294967295
2.8656003 1.9982946 1.5804276 4294967295
2.8631113 1.9649075 1.5778902 4294967295
2.8645003 1.9342908 1.57858 4294967295
2.8608098 1.9032775 1.5844027 4294967295
2.8703334 1.8766298 1.5910674 4294967295
2.8770006 1.8462349 1.596844 4294967295
2.8738 1.8126756 1.5870271 4294967295
2.8716953 1.7843431 1.586056 4294967295
2.8770003 1.6546825 1.5888577 4294967295
2.8734734 1.6336572 1.5839795 4294967295
2.8712502 1.6090933 1.5932937 4294967295
2.8770001 1.5750576 1.5993471 4294967295
2.876143 1.542654 1.5923505 4294967295
2.8702099 1.5154356 1.5873411 4294967295
2.8683121 1.4850247 1.5836182 4294967295
2.8770001 1.2346261 1.5993471 4294967295
2.8770001 1.2179382 1.5993471 4294967295
2.8770001 1.0911106 1.5743154 4294967295
2.8770001 1.0777603 1.5726466 4294967295
2.8755002 1.0321674 1.5896113 4294967295
2.8576472 1.0081168 1.5850645 4294967295
2.8524613 0.97540206 1.5774137 4294967295
2.8585715 0.9419893 1.5905232 4294967295
2.8694446 0.91662419 1.5935538 4294967295
2.8663001 -0.88741624 1.584682 4294967295
2.865118 2.1157849 1.5553877 4294967295
2.8770001 1.5316693 1.5559587 4294967295
2.8647859 1.5137813 1.5558238 4294967295
2.8541815 1.4839953 1.5576806 4294967295
2.8663001 1.4661095 1.5521021 4294967295
2.8740001 1.0732989 1.5648808 4294967295
2.858 -0.8987785 1.5656948 4294967295
2.8670001 -0.90692848 1.5543374 4294967295
2.8643639 2.1429894 1.5214995 4294967295
2.8612504 2.1273847 1.537003 4294967295
2.8770001 1.5316693 1.5359334 4294967295
2.8642859 1.5106685 1.5328636 4294967295
2.8593681 1.4828138 1.5284698 4294967295
2.8686666 1.4673159 1.5352011 4294967295
2.8643334 0.55020738 1.5170712 4294967295
2.8655002 -0.91443402 1.5251909 4294967295
2.8638337 2.1686118 1.4914112 4294967295
2.8580003 2.1559193 1.503805 4294967295
2.8640001 0.54129291 1.5080855 4294967295
2.8663332 0.52288288 1.4922645 4294967295
2.8633335 -0.91816097 1.4934367 4294967295
2.8660004 2.194911 1.4580672 4294967295
2.8625717 2.1843429 1.4724854 4294967295
2.852 0.51586491 1.4741683 4294967295
2.8680003 0.5021171 1.4628857 4294967295
2.8625715 -0.90874004 1.466783 4294967295
2.8626819 2.2042115 1.4342622 4294967295
2.8616002 0.49568695 1.4342129 4294967295
2.8621666 -0.89233553 1.4344051 4294967295
2.8620002 2.252764 1.3931658 4294967295
2.8649545 2.2355764 1.4071839 4294967295
2.8700004 2.2137914 1.4154377 4294967295
2.8770001 0.77070433 1.3924181 4294967295
2.8668001 0.49658808 1.4039538 4294967295
2.8675001 -0.8984285 1.4161496 4294967295
2.8656001 -0.90515316 1.3995941 4294967295
2.8635628 2.2557442 1.3758824 4294967295
2.8640003 2.2490497 1.361896 4294967295
2.852 0.79047573 1.37822 4294967295
2.852 0.75739008 1.3848372 4294967295
2.8623333 0.50333697 1.379133 4294967295
2.8692501 -0.9073047 1.3734236 4294967295
2.8520002 2.2528605 1.3583686 4294967295
2.8643889 2.2349324 1.34799 4294967295
2.8700004 2.2131255 1.3390253 4294967295
2.863625 -0.88725919 1.3451855 4294967295
2.852 -0.90350872 1.3583686 4294967295
2.8616114 2.2051036 1.3147081 4294967295
2.8667998 -0.86029601 1.3161409 4294967295
2.852 -0.87042308 1.3252829 4294967295
2.8645003 2.2261689 1.2767508 4294967295
2.8613753 2.2129412 1.29142 4294967295
2.8582501 -0.85906726 1.2839239 4294967295
2.8631115 2.2365298 1.2560815 4294967295
2.8640001 -0.86744052 1.2688665 4294967295
2.8623333 -0.88022256 1.2562394 4294967295
2.8663003 2.2315531 1.2268972 4294967295
2.8520002 2.219775 1.2127918 4294967295
2.8633335 -0.89381224 1.2254771 4294967295
2.8630002 2.2113426 1.1962644 4294967295
2.855 -0.89783508 1.1969569 4294967295
2.8705001 -0.90270942 1.187308 4294967295
2.8633337 2.1997864 1.1651473 4294967295
2.8645 -0.90746874 1.1659672 4294967295
2.8644378 2.2007763 1.1356411 4294967295
2.858 0.52026576 1.1214147 4294967295
2.8675001 -0.8984285 1.1234138 4294967295
2.8633335 -0.90487647 1.1369309 4294967295
2.8658462 2.208539 1.1051619 4294967295
2.8642502 0.51475793 1.1061273 4294967295
2.8678889 -0.89300287 1.1050024 4294967295
2.8647144 2.2101901 1.0753446 4294967295
2.8656001 0.51632398 1.0764782 4294967295
2.8656001 -0.89517277 1.0751464 4294967295
2.8621433 2.2025092 1.0449659 4294967295
2.8710001 0.51597106 1.0442157 4294967295
2.8710001 0.50930983 1.0375545 4294967295
2.8665557 -0.89776373 1.044884 4294967295
2.8631999 2.193934 1.0142182 4294967295
2.852 2.1866894 1.0208951 4294967295
2.858 0.50257826 1.017519 4294967295
2.8623333 -0.89570582 1.0171652 4294967295
2.8710001 2.2212408 0.97094238 4294967295
2.8631818 2.2103415 0.98723364 4294967295
2.8653998 -0.89312238 0.98334998 4294967295
2.8628333 2.2254243 0.95527077 4294967295
2.852 2.219775 0.96795809 4294967295
2.858 0.50037259 0.94899815 4294967295
2.8608572 -0.88734263 0.95512432 4294967295
2.8707502 2.2243738 0.93093938 4294967295
2.8594003 2.2135749 0.92001075 4294967295
2.8770001 0.50369906 0.93850917 4294967295
2.8565001 -0.87842405 0.92559791 4294967295
2.8630002 2.2032249 0.89512873 4294967295
2.8645 0.51146531 0.89019692 4294967295
2.8610001 0.50753587 0.90630722 4294967295
2.8666668 -0.88599133 0.90373552 4294967295
2.8740001 -0.90714073 0.88806498 4294967295
2.8710001 2.2212408 0.8510406 4294967295
2.8651114 2.2092886 0.86364847 4294967295
2.8645 0.51480287 0.87354505 4294967295
2.858 -0.91204059 0.87606585 4294967295
2.8731999 2.2242718 0.83528888 4294967295
2.8564999 2.2166498 0.83610666 4294967295
2.8643334 0.52141863 0.83697045 4294967295
2.8710001 2.2212408 0.8177346 4294967295
2.8644001 2.2127934 0.8037523 4294967295
2.8686666 0.5310837 0.80195057 4294967295
2.8710001 -0.95615637 0.80441213 4294967295
2.8631871 2.2064552 0.77498806 4294967295
2.8770001 0.54374987 0.77830601 4294967295
2.858 -0.95845789 0.78986222 4294967295
2.8686666 -0.96868622 0.77534205 4294967295
2.8639998 2.2333682 0.74201214 4294967295
2.8645 2.2128632 0.75724536 4294967295
2.8610001 0.55732435 0.75031048 4294967295
2.8675001 -0.95830625 0.73088145 4294967295
2.8656001 -0.97696483 0.74537641 4294967295
2.8632355 2.2402184 0.71415061 4294967295
2.8643334 0.55465662 0.71736634 4294967295
2.8660002 0.53167272 0.71082234 4294967295
2.8604002 0.49414229 0.70381284 4294967295
2.8710001 0.466012 0.704494 4294967295
2.8656001 0.43523172 0.70414698 4294967295
2.8627501 0.40488181 0.70729387 4294967295
2.8604 0.37470546 0.71044946 4294967295
2.8610001 0.34489769 0.71048939 4294967295
2.8710001 0.31613475 0.71115524 4294967295
2.8610001 0.28516954 0.71048939 4294967295
2.8707502 0.25446376 0.71614492 4294967295
2.8755 0.22656472 0.71812648 4294967295
2.8633335 0.19682923 0.71286982 4294967295
2.8630002 0.16581805 0.70731401 4294967295
2.8628001 0.13588727 0.70396709 4294967295
2.8710001 0.10630663 0.704494 4294967295
2.8656001 0.076176018 0.70814323 4294967295
2.8660002 0.046266306 0.71581763 4294967295
2.858 0.016306125 0.71692073 4294967295
2.8644001 -0.014222825 0.71471202 4294967295
2.8655002 -0.042379249 0.70636332 4294967295
2.8770001 -0.067024603 0.70487958 4294967295
2.8659999 -0.19973674 0.70417273 4294967295
2.8707502 -0.22672282 0.71113861 4294967295
2.8682001 -0.25646916 0.71096879 4294967295
2.8564999 -0.28525501 0.71018982 4294967295
2.87075 -0.31334406 0.71614492 4294967295
2.8564999 -0.34491009 0.71018982 4294967295
2.8675001 -0.37285352 0.71092218 4294967295
2.8681431 -0.40571249 0.70907438 4294967295
2.8594 -0.43483561 0.70374858 4294967295
2.8770001 -0.45751977 0.70487958 4294967295
2.8667998 -0.61551195 0.70422411 4294967295
2.858 -0.6434831 0.70365858 4294967295
2.8642001 -0.67479557 0.70405704 4294967295
2.8755 -0.70747334 0.7047832 4294967295
2.8660002 -0.87799686 0.70417273 4294967295
2.8665001 -0.91805393 0.71417844 4294967295
2.8675001 -0.94500011 0.72422838 4294967295
2.8602223 2.2305775 0.69495642 4294967295
2.8621178 2.2092686 0.68126917 4294967295
2.855 -0.07976722 0.69684172 4294967295
2.8625 -0.10653052 0.69730628 4294967295
2.8616002 -0.13638788 0.69725055 4294967295
2.8625002 -0.16630389 0.69730633 4294967295
2.8599999 -0.46809232 0.69715142 4294967295
2.8708 -0.49650759 0.69782043 4294967295
2.8675001 -0.52585834 0.69761598 4294967295
2.8604 -0.55442083 0.69717622 4294967295
2.8540001 -0.57967103 0.69677979 4294967295
2.8540001 -0.73860276 0.69677979 4294967295
2.8657501 -0.76490855 0.69750762 4294967295
2.8640001 -0.79434586 0.6973992 4294967295
2.8555999 -0.82514066 0.69687891 4294967295
2.852 -0.85057169 0.69665593 4294967295
2.859818 2.228853 0.64887559 4294967295
2.8635001 2.2125616 0.65892231 4294967295
2.8646798 2.2296145 0.62432802 4294967295
2.8666365 2.237803 0.59658784 4294967295
2.8694 2.2546105 0.55659723 4294967295
2.8633335 2.2451885 0.57114023 4294967295
2.8644001 2.262641 0.53459948 4294967295
2.8660002 2.2594669 0.50634468 4294967295
2.8659999 2.2472718 0.49138522 4294967295
2.8612502 2.2335947 0.48147476 4294967295
2.8636668 2.2081604 0.46852389 4294967295
2.8770001 2.192507 0.44454947 4294967295
2.8663337 2.1854784 0.44815207 4294967295
2.8627501 2.1999011 0.41005507 4294967295
2.8640001 2.189245 0.42495549 4294967295
2.8645713 2.2285974 0.38031569 4294967295
2.858 2.2111781 0.39642006 4294967295
2.8645 2.2328196 0.35515457 4294967295
2.863929 2.228569 0.32623908 4294967295
2.8635995 2.2318754 0.29253495 4294967295
2.8653078 2.2556887 0.26126584 4294967295
2.870357 2.2435606 0.26917857 4294967295
2.8656001 2.2542789 0.2440618 4294967295
2.8665879 2.2346323 0.23278442 4294967295
2.852 2.219775 0.2202228 4294967295
2.8706667 2.2231977 0.20050061 4294967295
2.8628333 2.2160113 0.20691323 4294967295
2.8631999 2.2351222 0.17520222 4294967295
2.8770001 2.2525833 0.13749343 4294967295
2.8633335 2.2463059 0.14707184 4294967295
2.8770001 2.2525833 0.12414318 4294967295
2.8615382 2.2465889 0.11349767 4294967295
2.8657696 2.2371228 0.086817354 4294967295
2.8623333 2.2189319 0.073032409 4294967295
2.865 2.2087219 0.058109224 4294967295
2.8663001 2.2062831 0.025870562 4294967295
2.8657777 2.2142351 -0.0058189631 4294967295
2.8639166 2.2035666 -0.036294222 4294967295
2.8643847 2.2074113 -0.064802647 4294967295
2.8652146 2.2162731 -0.094558358 4294967295
2.8651114 2.2137208 -0.12533665 4294967295
2.8611999 2.2089994 -0.15515387 4294967295
2.8612859 2.2075453 -0.18476057 4294967295
2.8647857 2.2097664 -0.21647614 4294967295
2.8617647 2.2047048 -0.24636257 4294967295
2.8622351 2.2050614 -0.27500582 4294967295
2.8643332 2.209975 -0.3060776 4294967295
2.865 2.2066123 -0.33618224 4294967295
2.8629999 2.1980655 -0.36179429 4294967295
2.858 2.1879673 -0.37720221 4294967295
2.8770001 2.192507 -0.38316679 4294967295
2.8634999 2.184427 -0.39332157 4294967295
2.8675001 2.1819298 -0.41344994 4294967295
2.8977499 -0.88942176 2.1214528 4294967295
2.8900001 0.76748157 2.0870054 4294967295
2.8987999 -0.87797171 2.0917683 4294967295
2.8900001 0.76748157 2.0568316 4294967295
2.9089999 -0.87432057 2.0736847 4294967295
2.901 0.77040279 2.0424683 4294967295
2.8940001 -0.87652683 2.0421677 4294967295
2.9089999 0.77252728 2.0028162 4294967295
2.8947999 -0.88348556 2.0090053 4294967295
2.8930001 0.76827824 1.9845955 4294967295
2.8973999 -0.88292921 1.9767265 4294967295
2.9046667 0.76463711 1.9467027 4294967295
2.895 -0.88354659 1.9419245 4294967295
2.8900001 0.76077628 1.9260783 4294967295
2.9089999 -0.88781929 1.928573 4294967295
2.8973331 -0.89098102 1.8859208 4294967295
2.8900001 0.76077628 1.8489676 4294967295
2.8940001 -0.89667058 1.8474449 4294967295
2.8977499 0.76281637 1.8323449 4294967295
2.901 -0.89546466 1.8270856 4294967295
2.8900001 0.76748157 1.7852672 4294967295
2.8993332 -0.88710648 1.7972028 4294967295
2.8984442 0.76672441 1.7642899 4294967295
2.896143 -0.88581109 1.7601118 4294967295
2.8946249 0.76534641 1.733564 4294967295
2.8977499 -0.89278895 1.7382267 4294967295
2.9089999 -0.90131807 1.7260917 4294967295
2.8962221 0.76016134 1.7088447 4294967295
2.9024999 0.74385637 1.6981469 4294967295
2.9089999 0.69828409 1.6923448 4294967295
2.9089999 0.67128658 1.7193424 4294967295
2.89625 0.52050543 1.707377 4294967295
2.8959999 -0.89729017 1.693825 4294967295
2.9089997 -0.90131807 1.712593 4294967295
2.8946247 0.7367987 1.6806738 4294967295
2.8959999 0.54062164 1.6602288 4294967295
2.9089999 0.53292435 1.6788461 4294967295
2.8962002 -0.89062965 1.6737503 4294967295
2.9015002 1.7500269 1.6354614 4294967295
2.8990002 1.7241291 1.6437348 4294967295
2.8933637 1.6996626 1.6408712 4294967295
2.9089999 1.4744624 1.6316005 4294967295
2.8987999 1.4517885 1.6398132 4294967295
2.8951666 1.4237655 1.6520661 4294967295
2.8977501 1.391433 1.6525074 4294967295
2.8983335 1.3659418 1.6443287 4294967295
2.8986249 1.3380554 1.6326685 4294967295
2.8930001 0.90252334 1.6355515 4294967295
2.8965333 0.88615406 1.6429585 4294967295
2.8924003 0.86341476 1.6359968 4294967295
2.8959999 0.54734081 1.6535097 4294967295
2.8988001 -0.88066268 1.6451834 4294967295
2.9000003 1.7726741 1.6079698 4294967295
2.8980002 1.7628063 1.620667 4294967295
2.9032223 1.6953242 1.615164 4294967295
2.8900003 1.6760489 1.6109296 4294967295
2.8969998 1.4834994 1.616079 4294967295
2.9064002 1.3288405 1.6157613 4294967295
2.8936999 1.3062536 1.6103059 4294967295
2.8900001 1.2757429 1.6055654 4294967295
2.8900001 1.2536154 1.6042243 4294967295
2.8963335 1.205948 1.6043504 4294967295
2.9007001 1.1842115 1.6048638 4294967295
2.8975713 1.1546057 1.6084901 4294967295
2.8918459 1.1261637 1.6126549 4294967295
2.8899996 1.0964879 1.6118237 4294967295
2.8900001 1.0681022 1.6064595 4294967295
2.8900001 0.90158743 1.6243402 4294967295
2.8915 0.88528872 1.6249133 4294967295
2.9057498 -0.88008559 1.6202345 4294967295
2.8976004 2.1046534 1.573452 4294967295
2.8954377 2.0860465 1.581898 4294967295
2.8977697 2.0567784 1.5848877 4294967295
2.8963337 2.0302713 1.5841905 4294967295
2.9025004 1.9913883 1.5802892 4294967295
2.8983338 1.9614323 1.5759592 4294967295
2.8983338 1.9345404 1.5744627 4294967295
2.899091 1.9041978 1.5825552 4294967295
2.8971429 1.87368 1.5896121 4294967295
2.8970668 1.8475114 1.585346 4294967295
2.8900001 1.816381 1.5726137 4294967295
2.8967505 1.7830073 1.5821103 4294967295
2.9046671 1.6907365 1.5850041 4294967295
2.8925834 1.66804 1.5800151 4294967295
2.9001 1.6314142 1.5730156 4294967295
2.8974285 1.607515 1.5874697 4294967295
2.9018421 1.5760721 1.5898672 4294967295
2.8913333 1.5512269 1.5838512 4294967295
2.89625 1.4772286 1.5855643 4294967295
2.9090002 1.3327254 1.5944788 4294967295
2.9009168 1.3032209 1.5937248 4294967295
2.8996668 1.2761146 1.5973802 4294967295
2.9024999 1.2455612 1.5988047 4294967295
2.8986001 1.2176691 1.5993755 4294967295
2.9089997 1.1459926 1.5888544 4294967295
2.8989375 1.1255028 1.5882379 4294967295
2.8917141 1.0966899 1.5904921 4294967295
2.8939998 1.0671169 1.5900588 4294967295
2.8900001 1.0440749 1.5908136 4294967295
2.8983333 -0.88904881 1.5938913 4294967295
2.9024999 -0.90266377 1.5786169 4294967295
2.8983335 2.1347792 1.5490788 4294967295
2.8970003 2.1203597 1.5623176 4294967295
2.9073753 1.8362142 1.5567703 4294967295
2.9002941 1.8144197 1.5562117 4294967295
2.9000003 1.7955533 1.5622115 4294967295
2.9089999 1.6926922 1.5641067 4294967295
2.904273 1.6638043 1.5587229 4294967295
2.9008751 1.6436467 1.5628664 4294967295
2.9089999 1.564904 1.5533078 4294967295
2.8924003 1.5452378 1.5541282 4294967295
2.8973331 1.4662992 1.5565616 4294967295
2.9024999 1.1310859 1.5651333 4294967295
2.8963335 -0.91306853 1.5573252 4294967295
2.9005003 2.1677806 1.5150658 4294967295
2.896889 2.1501508 1.5306315 4294967295
2.9090002 1.8321793 1.5371091 4294967295
2.9090002 1.8254299 1.5371091 4294967295
2.9089999 1.5689536 1.5371091 4294967295
2.8930001 1.5502594 1.5382272 4294967295
2.9024999 1.4745274 1.5348365 4294967295
2.8959999 1.4678731 1.539283 4294967295
2.8983333 0.55002159 1.5333843 4294967295
2.8963335 0.53169942 1.5125058 4294967295
2.901 -0.92070812 1.5292755 4294967295
2.9090002 2.1966455 1.4898636 4294967295
2.8983338 2.1829741 1.4963989 4294967295
2.8994999 0.51436567 1.4967983 4294967295
2.9024999 0.50478882 1.4843218 4294967295
2.8963335 -0.9197886 1.4945956 4294967295
2.8988001 2.2030594 1.4662812 4294967295
2.8994999 0.49753633 1.4631176 4294967295
2.8930001 -0.8963607 1.4543276 4294967295
2.8930001 -0.90643257 1.4711118 4294967295
2.8983335 2.2102499 1.4332502 4294967295
2.9089999 0.7252816 1.4223698 4294967295
2.9024999 0.49469498 1.4371742 4294967295
2.8930001 -0.8963607 1.4341838 4294967295
2.9089999 -0.90131807 1.4291192 4294967295
2.8930004 2.2550387 1.3939103 4294967295
2.8972106 2.2354841 1.4013731 4294967295
2.8930004 2.2147653 1.4174066 4294967295
2.9089999 0.81302351 1.3953724 4294967295
2.8900001 0.78089213 1.3963602 4294967295
2.9024999 0.50142926 1.396776 4294967295
2.9025002 -0.91109294 1.4051826 4294967295
2.8915002 2.2572241 1.3800431 4294967295
2.8979447 2.2372127 1.3741155 4294967295
2.8983333 0.50743401 1.3786986 4294967295
2.9089999 -0.89456868 1.3616254 4294967295
2.9042501 -0.90826106 1.3770916 4294967295
2.8983335 2.2221992 1.3518001 4294967295
2.8930004 2.2147653 1.3402123 4294967295
2.8994999 -0.86809057 1.3353202 4294967295
2.8900001 -0.87866795 1.3460705 4294967295
2.9025002 2.222034 1.3092451 4294967295
2.8940003 2.212177 1.3237081 4294967295
2.8900001 -0.86190474 1.3125441 4294967295
2.9090002 2.2506404 1.280633 4294967295
2.896286 2.2369549 1.2849885 4294967295
2.8994999 -0.86473793 1.2949562 4294967295
2.8959999 -0.8704133 1.2772337 4294967295
2.9089999 2.2573898 1.2536354 4294967295
2.8915005 2.2488389 1.2576106 4294967295
2.895 -0.88757855 1.2568157 4294967295
2.8983335 2.239011 1.2240322 4294967295
2.8959999 -0.89729017 1.2369184 4294967295
2.9089999 -0.90131807 1.2333872 4294967295
2.9010003 2.2225602 1.1943855 4294967295
2.8900003 2.2158248 1.1851435 4294967295
2.89625 -0.9057638 1.1983414 4294967295
2.9017501 2.2105157 1.1642745 4294967295
2.901 -0.912301 1.1674774 4294967295
2.896143 2.2090089 1.1371208 4294967295
2.8983333 0.5208686 1.1298873 4294967295
2.8959999 -0.89729017 1.1226919 4294967295
2.901 -0.90555912 1.1405466 4294967295
2.9003336 2.2214978 1.1056657 4294967295
2.8900003 2.2158248 1.1113852 4294967295
2.8974001 0.51399314 1.1028037 4294967295
2.89925 -0.89157039 1.1065626 4294967295
2.8960001 2.2204249 1.0790169 4294967295
2.8900003 2.2158248 1.0610955 4294967295
2.8900001 0.5193857 1.0678008 4294967295
2.8973999 -0.89503026 1.075932 4294967295
2.9000003 2.2140636 1.045464 4294967295
2.9089999 0.51605093 1.0511541 4294967295
2.8959999 -0.89729017 1.0387015 4294967295
2.9089999 -0.90131807 1.0545287 4294967295
2.8947999 2.2074158 1.0149792 4294967295
2.8983333 0.50294453 1.0133243 4294967295
2.8947999 -0.89691848 1.014982 4294967295
2.8973999 2.2295618 0.98449916 4294967295
2.895 0.50013357 0.98140854 4294967295
2.89625 -0.89568037 0.98328942 4294967295
2.8976665 2.2381291 0.9534716 4294967295
2.8930001 -0.88964844 0.95762074 4294967295
2.8961666 2.2283847 0.92337322 4294967295
2.8994999 0.50763834 0.9316802 4294967295
2.9024999 -0.88583553 0.93210959 4294967295
2.9064 2.2229993 0.8955704 4294967295
2.8900001 2.2158248 0.89011049 4294967295
2.8959999 0.51374477 0.89423853 4294967295
2.8983333 2.2266889 0.86092699 4294967295
2.8900001 2.2158248 0.87334728 4294967295
2.8930001 0.51992482 0.86364222 4294967295
2.8959999 2.2338634 0.83712518 4294967295
2.8959999 0.52718318 0.82704639 4294967295
2.8930001 -0.95341831 0.82672131 4294967295
2.9005001 2.2272279 0.80732489 4294967295
2.8900001 2.2158248 0.79288375 4294967295
2.8994999 -0.965648 0.79713345 4294967295
2.9089999 2.2236431 0.76768029 4294967295
2.8945 2.2142355 0.77652454 4294967295
2.8994999 0.54798031 0.77699554 4294967295
2.8994999 -0.97572798 0.77697349 4294967295
2.9089999 2.2506404 0.73393345 4294967295
2.8961818 2.2370477 0.74459732 4294967295
2.8963335 0.56531399 0.74198639 4294967295
2.901 -0.97959059 0.74847901 4294967295
2.9089999 2.2506404 0.72380936 4294967295
2.8961999 2.2427371 0.71416807 4294967295
2.9003334 0.54814976 0.71983755 4294967295
2.8930001 0.51656526 0.71262002 4294967295
2.9089997 0.50255215 0.71368527 4294967295
2.9089997 0.46205592 0.71368527 4294967295
2.9025002 0.43746856 0.71325254 4294967295
2.89625 0.40625444 0.71620357 4294967295
2.8959999 0.37600091 0.71953899 4294967295
2.9003334 0.353001 0.71983755 4294967295
2.9089999 0.30007091 0.72043467 4294967295
2.9024999 0.28257975 0.7199868 4294967295
2.8900001 0.26458454 0.71912557 4294967295
2.8983333 0.19136187 0.71969974 4294967295
2.8940001 0.15751293 0.7126866 4294967295
2.9089997 0.13808586 0.71368527 4294967295
2.8959999 0.090434283 0.71281976 4294967295
2.8994999 0.073692188 0.71642745 4294967295
2.8994999 0.046782847 0.72315478 4294967295
2.8959999 0.016522931 0.72625816 4294967295
2.9024999 -0.01372169 0.72336149 4294967295
2.8983333 -0.041725561 0.71522486 4294967295
2.8900001 -0.080738053 0.705715 4294967295
2.9037998 -0.10470416 0.70660174 4294967295
2.9024999 -0.13497671 0.70651823 4294967295
2.9064 -0.16547595 0.70676887 4294967295
2.8994999 -0.19540122 0.70970011 4294967295
2.8900001 -0.21149127 0.71242028 4294967295
2.8962002 -0.28584102 0.71955276 4294967295
2.8900001 -0.30536538 0.71912557 4294967295
2.8924003 -0.34589246 0.71929091 4294967295
2.9024999 -0.37066948 0.7199868 4294967295
2.8915002 -0.43635017 0.71252012 4294967295
2.8983333 -0.46537715 0.70850027 4294967295
2.9089999 -0.48623142 0.70693594 4294967295
2.9089999 -0.5368517 0.70693594 4294967295
2.9038002 -0.556104 0.70660174 4294967295
2.8930001 -0.58423394 0.70590776 4294967295
2.8900001 -0.6003983 0.705715 4294967295
2.8986001 -0.6425243 0.71299285 4294967295
2.9025002 -0.6737203 0.71325254 4294967295
2.9089999 -0.69208741 0.71368527 4294967295
2.8920002 -0.73501706 0.70584351 4294967295
2.9089999 -0.75620645 0.70693594 4294967295
2.9003334 -0.83133006 0.706379 4294967295
2.8962002 -0.85701364 0.7061134 4294967295
2.9024999 -0.8959294 0.71325254 4294967295
2.8930001 -0.9131518 0.71597964 4294967295
2.8959999 -0.94432467 0.72625816 4294967295
2.8977499 2.2217557 0.6893993 4294967295
2.8930001 2.2114127 0.67570609 4294967295
2.9000001 2.2261677 0.64849484 4294967295
2.89625 2.2138858 0.66244173 4294967295
2.8999169 2.2318275 0.62728894 4294967295
2.9089999 2.254015 0.58882183 4294967295
2.8925717 2.2427194 0.59658426 4294967295
2.8986249 2.2610948 0.56672865 4294967295
2.9089999 2.2843874 0.52470279 4294967295
2.8983333 2.2748787 0.53589737 4294967295
2.9089999 2.2843874 0.5179534 4294967295
2.899857 2.2695045 0.50642127 4294967295
2.8930001 2.2483265 0.49111563 4294967295
2.9089999 2.2506404 0.4842065 4294967295
2.8975999 2.2337213 0.47761503 4294967295
2.8994999 2.2163591 0.46749404 4294967295
2.9025002 2.2052059 0.44388074 4294967295
2.8959999 2.2204249 0.40373591 4294967295
2.8930001 2.2080531 0.42064047 4294967295
2.9089999 2.2506404 0.37621647 4294967295
2.8951666 2.2376931 0.38361752 4294967295
2.9089999 2.2506404 0.3458443 4294967295
2.8900001 2.242646 0.35368711 4294967295
2.9089999 2.2506404 0.33572024 4294967295
2.8945 2.2394221 0.31985468 4294967295
2.90025 2.2396562 0.29422373 4294967295
2.8998125 2.2418294 0.26565915 4294967295
2.8974285 2.234628 0.23722076 4294967295
2.8946252 2.2227235 0.20566276 4294967295
2.9089997 2.2573898 0.16698581 4294967295
2.8983335 2.2412505 0.180617 4294967295
2.8977499 2.2621064 0.14480308 4294967295
2.8973999 2.2604835 0.1159544 4294967295
2.9057498 2.2565475 0.089845359 4294967295
2.8947501 2.2429571 0.079715669 4294967295
2.89925 2.2229092 0.058853626 4294967295
2.8940001 2.2144122 0.045704037 4294967295
2.9003334 2.2214978 0.020003706 4294967295
2.8959999 2.2137058 0.034179121 4294967295
2.8971665 2.2269166 -0.0041029453 4294967295
2.9026668 2.2255218 -0.02980113 4294967295
2.89625 2.2138858 -0.041467905 4294967295
2.9089999 2.2236431 -0.07599169 4294967295
2.895 2.2129326 -0.061024666 4294967295
2.8977499 2.2242792 -0.091331184 4294967295
2.9024999 2.2321429 -0.12515211 4294967295
2.8924003 2.2243757 -0.15311277 4294967295
2.9012001 2.224412 -0.18207604 4294967295
2.8959999 2.2204249 -0.21443182 4294967295
2.9089999 2.2236431 -0.24472612 4294967295
2.8941669 2.2134147 -0.24866658 4294967295
2.90025 2.2135799 -0.27606368 4294967295
2.9000001 2.2234831 -0.30829257 4294967295
2.8994999 2.2163591 -0.29267275 4294967295
2.9025002 2.2237213 -0.33393037 4294967295
2.8900001 2.2158248 -0.34366345 4294967295
2.9089999 2.2236431 -0.35609084 4294967295
2.8950002 2.2102478 -0.37001061 4294967295
2.89925 2.2044163 -0.3985582 4294967295
2.8900001 2.195709 -0.41406906 4294967295
2.925 0.76998979 2.1432972 4294967295
2.9315 -0.89468628 2.1469202 4294967295
2.9349999 0.77262223 2.1386437 4294967295
2.9282498 -0.88688874 2.1247149 4294967295
2.9295998 -0.87642616 2.094867 4294967295
2.9232497 -0.87860352 2.0609269 4294967295
2.915 0.77412063 2.0295463 4294967295
2.9295998 -0.88730925 2.0336864 4294967295
2.915 0.77412063 2.0160196 4294967295
2.9315 -0.88788468 2.004091 4294967295
2.9315 0.77170092 1.9768806 4294967295
2.9269996 -0.88243598 1.9739498 4294967295
2.9232497 -0.88538599 1.952408 4294967295
2.93325 0.76535589 1.9165015 4294967295
2.9281664 -0.89366895 1.9140519 4294967295
2.915 0.76059407 1.8807535 4294967295
2.915 -0.8964138 1.8706087 4294967295
2.9308 0.76471663 1.8575196 4294967295
2.915 -0.8964138 1.8638453 4294967295
2.9280002 -0.90041149 1.8562515 4294967295
2.915 0.76735735 1.8198838 4294967295
2.925 -0.89269084 1.8260224 4294967295
2.915 0.76735735 1.7962123 4294967295
2.9272859 -0.88368988 1.7938262 4294967295
2.9314997 0.76262933 1.7614918 4294967295
2.9241998 -0.8856737 1.7662923 4294967295
2.9237776 0.75608712 1.7344782 4294967295
2.928 0.74360567 1.7203823 4294967295
2.9315 0.69347864 1.7252221 4294967295
2.928 0.68246454 1.7271758 4294967295
2.9349999 0.64323789 1.7368715 4294967295
2.9265001 0.52592218 1.7282442 4294967295
2.9232497 -0.89385921 1.7438624 4294967295
2.9350002 -0.90256417 1.7300618 4294967295
2.915 0.75383073 1.7150528 4294967295
2.9263635 0.73267937 1.7061266 4294967295
2.9281998 0.70426744 1.7055081 4294967295
2.925 0.52229416 1.7055563 4294967295
2.925 -0.89608413 1.6953881 4294967295
2.9315 -0.90148789 1.7116189 4294967295
2.915 0.72677755 1.6879996 4294967295
2.9349999 0.5513069 1.6687745 4294967295
2.9349999 0.53428268 1.6892036 4294967295
2.9259999 -0.88734329 1.6731702 4294967295
2.924 1.7508829 1.634779 4294967295
2.9193335 1.7303089 1.6344118 4294967295
2.9264998 1.4765426 1.6348869 4294967295
2.9259999 1.4547837 1.6471448 4294967295
2.9269998 1.4258419 1.6577171 4294967295
2.9234283 1.3935876 1.6506687 4294967295
2.9244285 1.3688693 1.6384513 4294967295
2.92975 -0.88055712 1.6429344 4294967295
2.9271669 1.7756907 1.6034421 4294967295
2.9272313 1.7616138 1.62028 4294967295
2.9296925 1.728616 1.6154439 4294967295
2.9150002 1.7074556 1.6034584 4294967295
2.9234543 1.4842398 1.6161562 4294967295
2.9330904 1.3697497 1.6154408 4294967295
2.915 1.3464646 1.6144487 4294967295
2.9216664 1.2131213 1.6002771 4294967295
2.9189999 1.1842428 1.6001968 4294967295
2.915 1.1630101 1.6000767 4294967295
2.9282002 -0.88551718 1.6131263 4294967295
2.9270003 2.1094925 1.5716945 4294967295
2.9246364 2.0850532 1.5764961 4294967295
2.928143 2.0587101 1.5835923 4294967295
2.9244287 2.0260561 1.5861133 4294967295
2.9248335 1.992566 1.5776979 4294967295
2.9215002 1.9688339 1.5719749 4294967295
2.9234285 1.9303969 1.572184 4294967295
2.9258831 1.905089 1.5785388 4294967295
2.9249001 1.8774774 1.5820118 4294967295
2.9150002 1.8562483 1.5730236 4294967295
2.9251337 1.7853193 1.5821009 4294967295
2.9324543 1.730674 1.5842725 4294967295
2.9150002 1.7057648 1.578096 4294967295
2.9215004 1.6032857 1.5758461 4294967295
2.9201999 1.5817697 1.5762486 4294967295
2.924444 1.4747421 1.5847235 4294967295
2.9322 1.3583194 1.5901161 4294967295
2.9235003 1.3340302 1.5838299 4294967295
2.9272308 1.3044941 1.5852655 4294967295
2.9243333 1.274716 1.5910808 4294967295
2.928818 1.2472779 1.5940692 4294967295
2.9322 1.2140902 1.5955607 4294967295
2.9319999 1.1814537 1.5888754 4294967295
2.9220004 1.1566858 1.5838856 4294967295
2.928 -0.89361811 1.5981001 4294967295
2.9264998 -0.90843517 1.5805705 4294967295
2.9261999 2.1430857 1.554662 4294967295
2.9296 2.1224632 1.5660559 4294967295
2.932734 1.96008 1.556284 4294967295
2.9297779 1.9381449 1.5602165 4294967295
2.932667 1.8674982 1.5589873 4294967295
2.9215002 1.853609 1.5538942 4294967295
2.9269001 1.8122041 1.5501511 4294967295
2.9216001 1.7953609 1.5618505 4294967295
2.9298751 1.7272204 1.5605435 4294967295
2.9176004 1.6967887 1.5540997 4294967295
2.916857 1.6630982 1.5475858 4294967295
2.9158671 1.6362525 1.5539385 4294967295
2.9171672 1.607195 1.5553833 4294967295
2.916857 1.5799589 1.5553282 4294967295
2.9281664 1.4739813 1.5539991 4294967295
2.9350002 1.2356819 1.5530096 4294967295
2.9349997 1.2201167 1.5559281 4294967295
2.9349999 1.1743945 1.5666289 4294967295
2.9283333 1.158154 1.566506 4294967295
2.9315 0.55064547 1.5483729 4294967295
2.9259999 -0.92016298 1.5566152 4294967295
2.9298749 2.1750226 1.5240067 4294967295
2.9350002 1.9561483 1.5366664 4294967295
2.9350002 1.940486 1.5359854 4294967295
2.9150002 1.8427217 1.539207 4294967295
2.9150002 1.8224318 1.539207 4294967295
2.915 1.5958612 1.539207 4294967295
2.915 1.5823348 1.539207 4294967295
2.915 0.54416853 1.5324438 4294967295
2.9269996 0.52600741 1.5202962 4294967295
2.915 -0.92346698 1.5189172 4294967295
2.928143 2.2013865 1.4962502 4294967295
2.915 0.51035202 1.4986273 4294967295
2.928 0.50243783 1.4894047 4294967295
2.925 -0.91983688 1.4985797 4294967295
2.9350002 2.2230883 1.4576738 4294967295
2.9247501 2.2170155 1.4645894 4294967295
2.9349999 0.7181446 1.4508641 4294967295
2.9215 0.4979333 1.4703143 4294967295
2.9241998 -0.90330094 1.4677746 4294967295
2.9336002 2.2247486 1.4327246 4294967295
2.9193335 2.2157309 1.439132 4294967295
2.9349999 0.75219315 1.4236252 4294967295
2.9295998 0.73449749 1.4328425 4294967295
2.915 0.71325099 1.4377576 4294967295
2.9215 0.4979333 1.4228506 4294967295
2.9303334 -0.90339357 1.4403206 4294967295
2.9215558 2.232482 1.4044157 4294967295
2.915 0.8214637 1.3904145 4294967295
2.915 0.79441053 1.4039412 4294967295
2.928 0.75719261 1.4146767 4294967295
2.915 0.74368578 1.4140861 4294967295
2.9315 0.50303441 1.405556 4294967295
2.9282498 -0.91407651 1.4079318 4294967295
2.9271669 2.239784 1.3793272 4294967295
2.915 0.51035202 1.3701246 4294967295
2.9349999 0.5070439 1.3861719 4294967295
2.928 -0.89361811 1.3671224 4294967295
2.9326668 -0.90864551 1.3820758 4294967295
2.9265001 2.2319207 1.3497043 4294967295
2.9349999 -0.86851567 1.3350992 4294967295
2.9216664 -0.87811214 1.3517171 4294967295
2.9350002 2.2503271 1.3010507 4294967295
2.9205 2.2301741 1.3152503 4294967295
2.9326668 -0.86782527 1.3208373 4294967295
2.9265001 2.2590768 1.2818236 4294967295
2.915 -0.86936063 1.2889651 4294967295
2.9303334 -0.88072705 1.2794175 4294967295
2.9282501 2.2655339 1.2551126 4294967295
2.9350002 0.51385361 1.2533828 4294967295
2.925 -0.89270252 1.2610521 4294967295
2.928 -0.90041155 1.2516336 4294967295
2.9350002 2.2571368 1.2329537 4294967295
2.9215002 2.2433505 1.2211826 4294967295
2.9283333 -0.90730834 1.2245245 4294967295
2.9226668 2.2295582 1.1937828 4294967295
2.9326668 -0.91545516 1.1915557 4294967295
2.9350002 2.2230883 1.1784761 4294967295
2.9298751 2.2157958 1.1611655 4294967295
2.9349999 0.52747297 1.1512372 4294967295
2.9315 -0.91509098 1.160691 4294967295
2.9242003 2.2257564 1.1299133 4294967295
2.9256001 2.2132351 1.1437805 4294967295
2.9259999 0.51905125 1.1334386 4294967295
2.9303334 -0.90339357 1.1366358 4294967295
2.9242001 2.2339001 1.1068451 4294967295
2.9349999 0.51385361 1.1171887 4294967295
2.9247499 -0.89262623 1.104928 4294967295
2.9248335 2.2334788 1.0732735 4294967295
2.92325 0.51857889 1.0757709 4294967295
2.9259999 -0.89526212 1.0836779 4294967295
2.9303334 -0.90112913 1.0686417 4294967295
2.9260001 2.2253146 1.0429249 4294967295
2.925 0.51210278 1.0439074 4294967295
2.93325 -0.902026 1.0453756 4294967295
2.9259999 2.2275846 1.006731 4294967295
2.915 2.2147028 1.0218148 4294967295
2.9315 0.50643927 1.0246594 4294967295
2.9294 -0.90084213 1.0140922 4294967295
2.9326668 2.2508028 0.98063374 4294967295
2.9199998 2.2371237 0.99049771 4294967295
2.915 -0.8964138 0.98123503 4294967295
2.928 -0.90041155 0.99348223 4294967295
2.9308 2.2525449 0.95313203 4294967295
2.9215 0.50471169 0.96192086 4294967295
2.9216664 -0.89168513 0.95180094 4294967295
2.9244287 2.2383327 0.92310727 4294967295
2.925 0.51210278 0.92172724 4294967295
2.915 -0.88965052 0.92374706 4294967295
2.9349999 2.2367077 0.89587349 4294967295
2.9215 0.51826841 0.88735867 4294967295
2.915 -0.90317708 0.90345716 4294967295
2.9349999 2.2503271 0.85161042 4294967295
2.9259999 2.2377622 0.86869556 4294967295
2.9215 0.52504677 0.85346675 4294967295
2.9303334 2.2512782 0.83748001 4294967295
2.9182498 2.242557 0.83108872 4294967295
2.915 0.53064191 0.82229757 4294967295
2.9298749 2.2361948 0.8059963 4294967295
2.9215 0.53520679 0.80943 4294967295
2.9349999 -0.97066116 0.80394256 4294967295
2.9231107 2.2261288 0.77415425 4294967295
2.9315 0.55745512 0.76958787 4294967295
2.9282501 -0.98030692 0.7795217 4294967295
2.9349999 -0.9910903 0.76308429 4294967295
2.9326668 2.2530725 0.74020827 4294967295
2.9215999 2.2400379 0.74842334 4294967295
2.9349999 0.020150293 0.73584551 4294967295
2.92325 -0.97523344 0.74175632 4294967295
2.9349999 -0.9910903 0.75627464 4294967295
2.9315 2.2561395 0.71857607 4294967295
2.9216664 2.2400887 0.70322555 4294967295
2.928 0.56697571 0.72853726 4294967295
2.9303334 0.53342777 0.72190458 4294967295
2.915 0.48668054 0.7140848 4294967295
2.915 0.47653556 0.7140848 4294967295
2.9349999 0.42873237 0.72222614 4294967295
2.9215 0.41321111 0.72129595 4294967295
2.915 0.33788797 0.72084808 4294967295
2.9215 0.31832135 0.72129595 4294967295
2.9294 0.25460476 0.72863698 4294967295
2.9214997 0.22340895 0.72807431 4294967295
2.9349999 0.20401222 0.72903585 4294967295
2.9259999 0.17282145 0.72160602 4294967295
2.915 0.1248441 0.7140848 4294967295
2.915 0.10793585 0.7140848 4294967295
2.9216664 0.077693723 0.7213074 4294967295
2.9216664 0.050578661 0.72808623 4294967295
2.9259999 -0.017265471 0.72839487 4294967295
2.9232497 -0.047756795 0.71972573 4294967295
2.9232497 -0.074905694 0.71463406 4294967295
2.9349999 -0.092209764 0.71541643 4294967295
2.9259999 -0.19374384 0.71481717 4294967295
2.9259999 -0.22768794 0.72160602 4294967295
2.915 -0.25390056 0.72084808 4294967295
2.9349999 -0.29650077 0.72903585 4294967295
2.9349999 -0.31352502 0.72903585 4294967295
2.9350002 -0.33735895 0.72903585 4294967295
2.9216664 -0.37872252 0.72357732 4294967295
2.9182498 -0.40653878 0.72107202 4294967295
2.9315 -0.4355796 0.72198498 4294967295
2.9215 -0.46799317 0.71451759 4294967295
2.915 -0.50076085 0.70732152 4294967295
2.915 -0.52105075 0.70732152 4294967295
2.9255996 -0.61455417 0.71479058 4294967295
2.9193332 -0.70810258 0.71437329 4294967295
2.9326668 -0.73174483 0.7152611 4294967295
2.915 -0.77129281 0.70732152 4294967295
2.915 -0.79496431 0.70732152 4294967295
2.915 -0.81863588 0.70732152 4294967295
2.9215 -0.88823754 0.71451759 4294967295
2.9259999 -0.92014748 0.72160602 4294967295
2.925 -0.94358963 0.72832358 4294967295
2.9254286 2.2284362 0.68375582 4294967295
2.9252219 2.2269847 0.65216899 4294967295
2.9236157 2.2332351 0.62385905 4294967295
2.9282002 2.2559712 0.59267908 4294967295
2.9241998 2.2420218 0.60479039 4294967295
2.9256246 2.2736764 0.56291533 4294967295
2.9273746 2.2843699 0.53407812 4294967295
2.915 2.2755725 0.54500234 4294967295
2.9259999 2.2841442 0.51794142 4294967295
2.925818 2.2673399 0.50066179 4294967295
2.9315 2.2510405 0.48392966 4294967295
2.9255996 2.2376566 0.47448123 4294967295
2.9349999 2.2230883 0.45664781 4294967295
2.92325 2.212486 0.44334409 4294967295
2.9283333 2.2316117 0.41604176 4294967295
2.9326668 2.255337 0.38412631 4294967295
2.915 2.241756 0.38944653 4294967295
2.9257498 2.2593477 0.35756618 4294967295
2.93325 2.2574894 0.32396948 4294967295
2.915 2.2485192 0.32181352 4294967295
2.9322 2.2508974 0.29750741 4294967295
2.9182498 2.242557 0.28604001 4294967295
2.9266925 2.2387192 0.26304877 4294967295
2.9236 2.2334335 0.23712155 4294967295
2.9229996 2.2305684 0.2044715 4294967295
2.9303334 2.2603524 0.17119041 4294967295
2.9315 2.2442389 0.18466017 4294967295
2.9349999 2.2843757 0.13659188 4294967295
2.9259999 2.2751007 0.15135062 4294967295
2.9349999 2.2843757 0.12978217 4294967295
2.9264998 2.2760575 0.11393499 4294967295
2.9291427 2.2642725 0.084924817 4294967295
2.915 2.241756 0.071571559 4294967295
2.9349999 2.2503271 0.068494856 4294967295
2.9259999 2.2343628 0.055161744 4294967295
2.9215999 2.2278483 0.024449348 4294967295
2.9254284 2.2390995 -0.0056526661 4294967295
2.9267776 2.2326941 -0.033607781 4294967295
2.9252856 2.2254202 -0.066722512 4294967295
2.9248333 2.234606 -0.097326756 4294967295
2.9281666 2.2428181 -0.12181622 4294967295
2.9244285 2.2402761 -0.15669513 4294967295
2.9244287 2.2334909 -0.1886754 4294967295
2.9216664 2.2310555 -0.21528172 4294967295
2.9257498 2.2305 -0.24318051 4294967295
2.915 2.2147028 -0.25983 4294967295
2.9326668 2.2235854 -0.27815944 4294967295
2.9242001 2.2162514 -0.27314913 4294967295
2.9281425 2.2295322 -0.3031317 4294967295
2.9247501 2.2356822 -0.33367926 4294967295
2.9249997 2.2290869 -0.36088634 4294967295
2.9326668 2.2281253 -0.38702798 4294967295
2.915 2.2147028 -0.395096 4294967295
2.9349999 2.2230883 -0.41839874 4294967295
2.9215 2.212863 -0.42763168 4294967295
2.9547501 -0.89663309 2.1598079 4294967295
2.9526665 0.77727294 2.134671 4294967295
2.9586003 -0.88098693 2.1241956 4294967295
2.961 0.77946657 2.1014576 4294967295
2.9521999 -0.87770694 2.0946946 4294967295
2.9589999 -0.88705838 2.0649199 4294967295
2.9609997 -0.88994956 2.0339024 4294967295
2.9484999 0.77617604 1.9990146 4294967295
2.9560001 -0.88569874 2.0020852 4294967295
2.961 0.7725966 1.9640571 4294967295
2.9548001 -0.88534087 1.971314 4294967295
2.9484999 0.76933497 1.9442865 4294967295
2.9514999 -0.89394224 1.938858 4294967295
2.961 -0.89681959 1.922837 4294967295
2.9586003 0.7651059 1.8839426 4294967295
2.9419999 -0.89789081 1.8933575 4294967295
2.9580002 -0.90277404 1.8802303 4294967295
2.9484999 0.76933497 1.841656 4294967295
2.9463332 -0.89692795 1.8441002 4294967295
2.9549999 -0.90185839 1.8617175 4294967295
2.9549999 0.77103102 1.8240088 4294967295
2.9532499 -0.88760918 1.8232201 4294967295
2.9499998 0.76800889 1.7944192 4294967295
2.9516666 -0.88257128 1.7962786 4294967295
2.9529998 0.7568 1.7648889 4294967295
2.961 0.74511647 1.7545214 4294967295
2.961 0.71076632 1.7545214 4294967295
2.9548001 -0.89083135 1.76563 4294967295
2.9526665 0.73558247 1.7350638 4294967295
2.9575715 0.71190226 1.7393717 4294967295
2.9509997 0.51938242 1.740766 4294967295
2.9594998 -0.9032318 1.7367244 4294967295
2.9419999 0.72668332 1.719296 4294967295
2.9419999 0.71439666 1.7124699 4294967295
2.9514999 0.52703643 1.7077219 4294967295
2.9526665 -0.89657092 1.703082 4294967295
2.9549999 -0.90185839 1.7177392 4294967295
2.9419999 0.54920882 1.6715143 4294967295
2.9532499 -0.88418865 1.6724861 4294967295
2.9526665 1.477176 1.6368632 4294967295
2.9540002 1.4569021 1.6525965 4294967295
2.9537687 1.4228029 1.6497389 4294967295
2.9505835 1.3979884 1.6417736 4294967295
2.9562001 -0.88164794 1.6427723 4294967295
2.9463334 1.7713758 1.6048404 4294967295
2.9429286 1.7564926 1.6118833 4294967295
2.949111 1.4803367 1.6142243 4294967295
2.961 1.4115089 1.6205559 4294967295
2.953727 1.3943423 1.6125551 4294967295
2.957 -0.8910327 1.6156387 4294967295
2.9549999 -0.90185839 1.6011854 4294967295
2.9550002 2.101115 1.573761 4294967295
2.9556253 2.0835485 1.578267 4294967295
2.9536002 2.058985 1.5869675 4294967295
2.9548573 2.0265794 1.581539 4294967295
2.9420004 2.0031343 1.5759511 4294967295
2.9485002 1.8981038 1.574856 4294967295
2.9420002 1.8870934 1.5759511 4294967295
2.9441667 1.7774788 1.5835496 4294967295
2.9419999 1.7555388 1.5852592 4294967295
2.9547501 1.4745029 1.5873756 4294967295
2.9589999 1.385384 1.5934936 4294967295
2.9522002 1.3668931 1.5823324 4294967295
2.9528 1.3356489 1.5763923 4294967295
2.9549 1.303019 1.581261 4294967295
2.9498889 1.2776999 1.581053 4294967295
2.9428668 1.2435404 1.582635 4294967295
2.9429996 1.2154124 1.5852386 4294967295
2.9419997 1.1942604 1.5827771 4294967295
2.9506664 -0.91422796 1.5836225 4294967295
2.9526668 2.1656678 1.5478065 4294967295
2.9547503 2.1420593 1.5608124 4294967295
2.9548004 2.1153638 1.5661383 4294967295
2.9515002 2.0986042 1.569078 4294967295
2.9590001 2.0181441 1.5614543 4294967295
2.9499416 1.994453 1.5558279 4294967295
2.9420002 1.9724178 1.5486474 4294967295
2.944438 1.9317702 1.5584624 4294967295
2.9527335 1.9081279 1.5628954 4294967295
2.9420002 1.881974 1.5640057 4294967295
2.9463334 1.807831 1.5547231 4294967295
2.9514616 1.786743 1.5640634 4294967295
2.9448888 1.7545756 1.5633193 4294967295
2.9494998 1.4744529 1.5603906 4294967295
2.9571252 1.2724427 1.5625014 4294967295
2.943083 1.2487601 1.5621092 4294967295
2.9419997 1.2124628 1.5668498 4294967295
2.9419997 1.1888971 1.5652246 4294967295
2.9506664 0.55082667 1.5562383 4294967295
2.961 0.53214568 1.5415505 4294967295
2.948333 -0.9248963 1.5531665 4294967295
2.9590001 2.2000701 1.515689 4294967295
2.9505005 2.1811888 1.527667 4294967295
2.9580002 1.9865763 1.5370805 4294967295
2.9463334 1.9696296 1.5319297 4294967295
2.9594998 0.52328509 1.530728 4294967295
2.9535999 -0.92746854 1.5252923 4294967295
2.9526668 2.2227538 1.48616 4294967295
2.951 2.2119129 1.4997649 4294967295
2.9514999 0.50303537 1.4988806 4294967295
2.9499998 -0.9140138 1.4932605 4294967295
2.9520001 2.2261715 1.4679996 4294967295
2.9579999 0.73749149 1.4547307 4294967295
2.9419999 0.71985739 1.4599102 4294967295
2.9562001 0.49698862 1.4644524 4294967295
2.961 -0.90368962 1.4694153 4294967295
2.9548335 2.2335429 1.4354277 4294967295
2.9557145 0.76338023 1.434906 4294967295
2.9419999 0.73009628 1.4462583 4294967295
2.961 0.49779558 1.4453702 4294967295
2.9547501 -0.91206157 1.4331341 4294967295
2.9570003 2.2534735 1.3960903 4294967295
2.95 2.243001 1.412837 4294967295
2.9579999 0.83700943 1.4032612 4294967295
2.9419999 0.80859464 1.4121286 4294967295
2.9419999 0.76763898 1.4189545 4294967295
2.9484999 0.50253505 1.4106715 4294967295
2.9547501 -0.91548216 1.4005477 4294967295
2.9550002 2.2519493 1.3783622 4294967295
2.9515002 2.2458472 1.3636384 4294967295
2.9549999 0.51049906 1.3817902 4294967295
2.9506664 -0.88684374 1.3668343 4294967295
2.9549999 -0.90185839 1.3817902 4294967295
2.9505 2.2393844 1.3405441 4294967295
2.9549999 -0.87443399 1.3475096 4294967295
2.9550002 2.2553773 1.3098011 4294967295
2.9526668 2.2455957 1.3217387 4294967295
2.9484999 -0.87251049 1.3080562 4294967295
2.9516668 2.2722344 1.2849358 4294967295
2.9589999 0.51347542 1.2776859 4294967295
2.9549999 -0.8915742 1.2755206 4294967295
2.951 2.2735429 1.2532704 4294967295
2.9560001 0.51203698 1.2586126 4294967295
2.9546669 -0.90632206 1.2514416 4294967295
2.9547503 2.2603207 1.2308958 4294967295
2.9515002 2.2475536 1.2164068 4294967295
2.961 0.51153558 1.2392695 4294967295
2.9484999 -0.91355664 1.2122819 4294967295
2.9530001 2.2386663 1.1952274 4294967295
2.9514999 -0.91789913 1.1924829 4294967295
2.9526668 2.2227538 1.175589 4294967295
2.9505556 2.2120366 1.1614286 4294967295
2.961 0.52527565 1.1568291 4294967295
2.9463332 -0.91516066 1.162786 4294967295
2.9505556 2.2318206 1.1332788 4294967295
2.9548004 2.2120254 1.1458948 4294967295
2.957 0.51999068 1.1422474 4294967295
2.9526665 -0.89657092 1.1253488 4294967295
2.9579999 -0.90620899 1.1424648 4294967295
2.9550002 2.2519493 1.1006899 4294967295
2.9496 2.2450862 1.1064811 4294967295
2.94525 0.51564813 1.1021793 4294967295
2.9509997 -0.89241683 1.1040143 4294967295
2.951 2.2447846 1.0779889 4294967295
2.9547501 0.51901788 1.0766467 4294967295
2.9463332 -0.89692795 1.0784888 4294967295
2.9549999 -0.90185839 1.0664093 4294967295
2.9522002 2.2388468 1.0494411 4294967295
2.9549999 0.5139271 1.0492692 4294967295
2.9574001 -0.90259093 1.0462598 4294967295
2.9473336 2.2347105 1.0159686 4294967295
2.961 -0.90368962 1.0159936 4294967295
2.9548333 2.2598159 0.98297 4294967295
2.9419999 -0.89789081 0.9752683 4294967295
2.9589999 -0.90307927 0.99163449 4294967295
2.9526665 2.2604399 0.95294154 4294967295
2.961 0.51153558 0.95072842 4294967295
2.9419999 0.50825316 0.95479047 4294967295
2.9419999 -0.89789081 0.96844232 4294967295
2.9579999 2.2542357 0.93313777 4294967295
2.9514999 2.2475536 0.92365003 4294967295
2.9419999 0.51507914 0.91383481 4294967295
2.9419999 -0.89789081 0.92066073 4294967295
2.9586003 2.2478285 0.89546084 4294967295
2.961 0.51840562 0.90950823 4294967295
2.9549999 -0.93613893 0.88815069 4294967295
2.9549999 2.2542346 0.86529702 4294967295
2.9419999 2.2488682 0.8592273 4294967295
2.9484999 0.52305812 0.87707174 4294967295
2.9536667 2.2589166 0.83886349 4294967295
2.9514999 2.2492599 0.82264769 4294967295
2.9526665 0.53064805 0.83989048 4294967295
2.9419999 -0.96615022 0.83192348 4294967295
2.9549999 2.2519493 0.81958961 4294967295
2.9529998 2.2396519 0.80373132 4294967295
2.9549999 0.54477954 0.7990213 4294967295
2.9549999 0.53792346 0.81273353 4294967295
2.9484999 -0.97512585 0.79497945 4294967295
2.9535999 2.2385418 0.77285218 4294967295
2.9549999 0.55163568 0.78530908 4294967295
2.9548001 -0.98268497 0.77706754 4294967295
2.9549999 -0.99098778 0.76474077 4294967295
2.9557145 2.2593453 0.73932779 4294967295
2.9526665 2.2455957 0.75540686 4294967295
2.961 0.57336581 0.74119264 4294967295
2.9532499 0.56157053 0.7354551 4294967295
2.961 0.4222253 0.73088759 4294967295
2.9549999 0.41108555 0.73046029 4294967295
2.9579999 0.34973183 0.73067391 4294967295
2.9609997 0.31230488 0.73088759 4294967295
2.9549999 0.29453179 0.73046029 4294967295
2.961 0.22642955 0.73775762 4294967295
2.9579999 0.18501827 0.73067391 4294967295
2.961 0.17490436 0.73088759 4294967295
2.9579999 0.075216196 0.73067391 4294967295
2.9463332 0.037328143 0.73667896 4294967295
2.9419999 0.006546468 0.73636031 4294967295
2.9526665 -0.010571217 0.73714477 4294967295
2.9579999 -0.041462861 0.73067391 4294967295
2.9609997 -0.25790721 0.73088759 4294967295
2.9549999 -0.27452484 0.73046029 4294967295
2.9549999 -0.38079447 0.73046029 4294967295
2.961 -0.40561277 0.73088759 4294967295
2.9547501 -0.94975227 0.73386645 4294967295
2.9514999 -0.98294395 0.74731994 4294967295
2.961 -0.99299991 0.75836766 4294967295
2.9511428 2.2607327 0.71941864 4294967295
2.9419999 2.2488682 0.70905656 4294967295
2.9506664 0.51658642 0.72330558 4294967295
2.9549999 0.49335879 0.72360414 4294967295
2.9517498 0.46543324 0.72338021 4294967295
2.9419999 0.44340676 0.72270846 4294967295
2.9419999 0.39562514 0.72953439 4294967295
2.9419999 0.37514731 0.72953439 4294967295
2.9419999 0.35808247 0.72953439 4294967295
2.9419999 0.27958414 0.72953439 4294967295
2.9419999 0.19425987 0.72953439 4294967295
2.9484999 0.15705588 0.72315627 4294967295
2.9565001 0.13691257 0.7237075 4294967295
2.9523997 0.10590771 0.72342503 4294967295
2.9419999 0.06456697 0.72953439 4294967295
2.9484999 -0.044776905 0.72656929 4294967295
2.9589999 -0.072372265 0.72387975 4294967295
2.9419999 -0.10949454 0.71588248 4294967295
2.9484997 -0.13710055 0.71631527 4294967295
2.9549999 -0.16482721 0.71674806 4294967295
