# .PCD v0.7 - Point Cloud Data file format
VERSION 0.7
FIELDS x y z rgb
SIZE 4 4 4 4
TYPE F F F U
COUNT 1 1 1 1
WIDTH 1045
HEIGHT 1
VIEWPOINT 0 0 0 1 0 0 0
POINTS 1045
DATA ascii
0.40545881 0.80581504 -0.045119692 4278190080
0.40826935 0.80439472 -0.045119692 4278190080
0.41107446 0.80296481 -0.045119692 4278190080
0.41387498 0.80152494 -0.045119692 4278190080
0.41667047 0.80007523 -0.045119692 4278190080
0.41946048 0.79861605 -0.045119692 4278190080
0.42224577 0.79714692 -0.045119692 4278190080
0.42502552 0.7956683 -0.045119692 4278190080
0.42793924 0.79410499 -0.045119692 4278190080
0.43309239 0.79699373 -0.045380499 4278190080
0.43587196 0.79547703 -0.045380499 4278190080
0.44106084 0.79832113 -0.045641307 4278190080
0.44384456 0.79677683 -0.045641307 4278190080
0.4466233 0.79522258 -0.045641307 4278190080
0.44939616 0.79365885 -0.045641307 4278190080
0.45216399 0.79208523 -0.045641307 4278190080
0.45741686 0.79482967 -0.045902111 4278190080
0.46018827 0.79322833 -0.045902111 4278190080
0.46561387 0.79584616 -0.046162918 4278190080
0.46838921 0.79421592 -0.046162918 4278190080
0.47371036 0.79686803 -0.046423726 4278190080
0.4764888 0.79520977 -0.046423726 4278190080
0.47926185 0.79354161 -0.046423726 4278190080
0.48216701 0.79177976 -0.046423726 4278190080
0.48492804 0.79009175 -0.046423726 4278190080
0.49030954 0.79264081 -0.046684533 4278190080
0.49307355 0.79092437 -0.046684533 4278190080
0.49848786 0.79342628 -0.046945341 4278190080
0.50125414 0.79168159 -0.046945341 4278190080
0.50670052 0.79413629 -0.047206149 4278190080
0.50946927 0.79236287 -0.047206149 4278190080
0.51223218 0.79057956 -0.047206149 4278190080
0.51785666 0.79287744 -0.047466956 4278190080
0.52062136 0.7910648 -0.047466956 4278190080
0.52613878 0.79340416 -0.047727764 4278190080
0.52890527 0.79156268 -0.047727764 4278190080
0.53445381 0.79385352 -0.047988571 4278190080
0.53722137 0.79198325 -0.047988571 4278190080
0.54280019 0.79422545 -0.048249379 4278190080
0.545569 0.79232603 -0.048249379 4278190080
0.5513165 0.7944231 -0.048510186 4278190080
0.55408597 0.792494 -0.048510186 4278190080
0.55972445 0.79463708 -0.048770994 4278190080
0.56249458 0.79267865 -0.048770994 4278190080
0.56525832 0.79071021 -0.048770994 4278190080
0.5709331 0.79278398 -0.049031802 4278190080
0.57369673 0.79078639 -0.049031802 4278190080
0.57645375 0.7887789 -0.049031802 4278190080
0.57920331 0.78676206 -0.049031802 4278190080
0.58492053 0.78874606 -0.049292609 4278190080
0.58780742 0.78659701 -0.049292609 4278190080
0.59054971 0.78454024 -0.049292609 4278190080
0.59630162 0.78645277 -0.049553417 4278190080
0.59904301 0.78436667 -0.049553417 4278190080
0.60482198 0.78622836 -0.049814224 4278190080
0.61048347 0.78816587 -0.050075032 4278190080
0.61336803 0.78592312 -0.050075032 4278190080
0.61919361 0.78770268 -0.050335839 4278190080
0.62503868 0.78945148 -0.050596647 4278190080
0.63090384 0.79116863 -0.050857451 4278190080
0.63366145 0.78896177 -0.050857451 4278190080
0.639552 0.790627 -0.051118258 4278190080
0.64230812 0.78838962 -0.051118258 4278190080
0.64822322 0.790003 -0.051379066 4278190080
0.65111428 0.78762192 -0.051379066 4278190080
0.6570546 0.78918147 -0.051639874 4278190080
0.66301382 0.79070914 -0.051900685 4278190080
0.66576958 0.78839022 -0.051900685 4278190080
0.66851771 0.78606129 -0.051900685 4278190080
0.67450535 0.78751546 -0.052161492 4278190080
0.67725039 0.78515607 -0.052161492 4278190080
0.68326163 0.78655666 -0.0524223 4278190080
0.68600279 0.78416705 -0.0524223 4278190080
0.69203681 0.78551412 -0.052683108 4278190080
0.69822556 0.78670698 -0.052943911 4278190080
0.70429504 0.78798765 -0.053204719 4278190080
0.70704108 0.78552461 -0.053204719 4278190080
0.71313232 0.78675121 -0.053465527 4278190080
0.71924073 0.78794479 -0.053726334 4278190080
0.72198653 0.7854296 -0.053726334 4278190080
0.72811586 0.7865687 -0.053987142 4278190080
0.73426151 0.78767496 -0.054247949 4278190080
0.73700672 0.78510696 -0.054247949 4278190080
0.74317306 0.78615791 -0.054508757 4278190080
0.74591249 0.7835592 -0.054508757 4278190080
0.75209862 0.78455502 -0.054769564 4278190080
0.7583003 0.78551757 -0.055030372 4278190080
0.76103783 0.78286564 -0.055030372 4278190080
0.767259 0.78377229 -0.05529118 4278190080
0.77349532 0.78464544 -0.055551983 4278190080
0.77636588 0.78180528 -0.055551983 4278190080
0.78262103 0.78262103 -0.055812791 4278190080
0.78889132 0.78340262 -0.056073599 4278190080
0.79517615 0.78415036 -0.056334406 4278190080
0.79790866 0.78136969 -0.056334406 4278190080
0.80779046 0.78554225 -0.056856029 4278190080
0.81066447 0.78257596 -0.056856029 4278190080
0.82780898 0.79356319 -0.057899255 4278190080
0.81610799 0.77689749 -0.056856029 4278190080
0.83695728 0.79119492 -0.058160063 4278190080
0.83607364 0.78485096 -0.057899255 4278190080
1.1154619 0.8149007 -0.070157208 4278190080
1.1263838 0.81686515 -0.070678823 4278190080
1.0968096 0.78958994 -0.068592355 4278190080
1.1239344 0.80317497 -0.070157208 4278190080
1.1022952 0.7819137 -0.068592355 4278190080
1.1009353 0.7751863 -0.068331555 4278190080
1.0954489 0.76561815 -0.067809939 4278190080
1.0940123 0.75894332 -0.067549132 4278190080
1.0967865 0.75492859 -0.067549132 4278190080
1.0952922 0.74827862 -0.067288324 4278190080
1.0978973 0.74445111 -0.067288324 4278190080
1.1004894 0.74061394 -0.067288324 4278190080
1.1072202 0.73954111 -0.067549132 4278190080
1.1139566 0.73843092 -0.067809939 4278190080
1.1248704 0.7400263 -0.068331555 4278190080
1.1358085 0.74155504 -0.068853162 4278190080
1.1425806 0.74030066 -0.06911397 4278190080
1.1535579 0.74170846 -0.069635585 4278190080
1.160349 0.74036342 -0.069896393 4278190080
1.1671453 0.73897946 -0.070157208 4278190080
1.1739453 0.73755753 -0.070418015 4278190080
1.1851164 0.73853105 -0.07093963 4278190080
1.1919339 0.73701608 -0.071200438 4278190080
1.2030114 0.73807305 -0.071722053 4278190080
1.2098458 0.73646528 -0.071982861 4278190080
1.216683 0.73481941 -0.072243668 4278190080
1.2235239 0.73313409 -0.072504476 4278190080
1.2346594 0.73396212 -0.073026083 4278190080
1.241515 0.73218411 -0.073286891 4278190080
1.2483733 0.73036712 -0.073547699 4278190080
1.259552 0.73101825 -0.074069314 4278190080
1.2707508 0.73159951 -0.074590929 4278190080
1.2820963 0.73188812 -0.075112544 4278190080
1.2933334 0.73232859 -0.075634159 4278190080
1.3045887 0.73270017 -0.076155774 4278190080
1.3158625 0.73300129 -0.076677389 4278190080
1.3315246 0.73564804 -0.077459812 4278190080
1.342971 0.73555952 -0.077981427 4278190080
1.3499178 0.73325098 -0.078242235 4278190080
1.3612612 0.73327005 -0.07876385 4278190080
1.3726211 0.73321885 -0.079285465 4278190080
1.3795843 0.73076069 -0.079546273 4278190080
1.3865474 0.72826213 -0.07980708 4278190080
1.397938 0.72803092 -0.080328695 4278190080
1.4093443 0.72772825 -0.080850311 4278190080
1.4207653 0.72735482 -0.081371926 4278190080
1.4322004 0.72691119 -0.081893541 4278190080
1.4481103 0.72864008 -0.082675956 4278190080
1.4595811 0.72803873 -0.083197571 4278190080
1.4710656 0.72736537 -0.083719194 4278190080
1.4825631 0.72662061 -0.084240809 4278190080
1.4985641 0.72798699 -0.085023232 4278190080
1.510094 0.7270835 -0.085544847 4278190080
1.5216354 0.72610921 -0.086066462 4278190080
1.5377024 0.72719693 -0.086848885 4278190080
1.5492743 0.72606236 -0.087370493 4278190080
1.5655121 0.7266863 -0.088152915 4278190080
1.5771116 0.72539067 -0.08867453 4278190080
1.5932651 0.7260927 -0.089456953 4278190080
1.6048917 0.72463596 -0.089978568 4278190080
1.621085 0.72514659 -0.090760998 4278190080
1.6373017 0.72555202 -0.091543414 4278190080
1.6489683 0.72384691 -0.092065029 4278190080
1.6652223 0.72405922 -0.092847452 4278190080
1.6769116 0.72219181 -0.093369067 4278190080
1.6933268 0.72191566 -0.094151489 4278190080
1.7050362 0.71988535 -0.094673105 4278190080
1.721359 0.71970719 -0.095455527 4278190080
1.7377013 0.71942377 -0.09623795 4278190080
1.7494419 0.71714205 -0.096759565 4278190080
1.7658148 0.7166639 -0.097541988 4278190080
1.782205 0.71608102 -0.098324411 4278190080
1.7986128 0.71539146 -0.099106833 4278190080
1.8150374 0.71459597 -0.099889256 4278190080
1.8314778 0.71369547 -0.10067168 4278190080
1.8479342 0.71268779 -0.10145409 4278190080
1.8644054 0.71157491 -0.10223652 4278190080
1.8810155 0.71002603 -0.10301894 4278190080
1.8975152 0.70869744 -0.10380137 4278190080
1.914152 0.70692676 -0.10458378 4278190080
1.930555 0.70571822 -0.10536622 4278190080
1.9470931 0.70406944 -0.10614863 4278190080
1.9683454 0.70399433 -0.10719187 4278190080
1.9896201 0.70378035 -0.1082351 4278190080
2.0062041 0.70177656 -0.10901751 4278190080
2.0275171 0.70129776 -0.11006074 4278190080
2.0488508 0.70067966 -0.11110397 4278190080
2.070205 0.69992006 -0.1121472 4278190080
2.096314 0.70060372 -0.11345124 4278190080
2.1177118 0.69954616 -0.11449447 4278190080
2.1391275 0.69834769 -0.1155377 4278190080
2.1653121 0.69854236 -0.11684174 4278190080
2.1867669 0.69704503 -0.11788497 4278190080
2.2083583 0.69502169 -0.1189282 4278190080
2.2346115 0.69472021 -0.12023224 4278190080
2.2608888 0.69424492 -0.12153627 4278190080
2.2871902 0.69359338 -0.12284032 4278190080
2.3135138 0.6927678 -0.12414435 4278190080
2.3398597 0.69176561 -0.12544839 4278190080
2.3662262 0.69058776 -0.12675242 4278190080
2.3926127 0.68923557 -0.12805645 4278190080
2.4190185 0.68770617 -0.1293605 4278190080
2.4502499 0.68735069 -0.13092534 4278190080
2.4766958 0.68545222 -0.13222937 4278190080
2.5032771 0.6829415 -0.13353342 4278190080
2.5297544 0.6806857 -0.13483746 4278190080
2.5658984 0.68081427 -0.13666311 4278190080
2.5972428 0.67943645 -0.13822794 4278190080
2.5609188 0.66039109 -0.13614149 4278190080
2.3889918 0.60717094 -0.12675242 4278190080
2.3184428 0.58063209 -0.12284032 4278190080
2.3253033 0.57373124 -0.12310112 4278190080
2.3369956 0.5679701 -0.12362273 4278190080
2.3341081 0.55864626 -0.12336193 4278190080
2.3360438 0.55049604 -0.12336193 4278190080
2.333087 0.54120952 -0.12310112 4278190080
2.3349621 0.53306174 -0.12310112 4278190080
2.3368084 0.52490872 -0.12310112 4278190080
2.3337512 0.51567072 -0.12284032 4278190080
2.3355367 0.50752205 -0.12284032 4278190080
2.3372943 0.4993659 -0.12284032 4278190080
2.3391087 0.49079627 -0.12284032 4278190080
2.3408077 0.48262778 -0.12284032 4278190080
2.3473718 0.47544581 -0.12310112 4278190080
2.3490171 0.46724856 -0.12310112 4278190080
2.3506339 0.45904562 -0.12310112 4278190080
2.357126 0.45177826 -0.12336193 4278190080
2.3586886 0.4435471 -0.12336193 4278190080
2.3749535 0.43802872 -0.12414435 4278190080
2.3912086 0.43240097 -0.12492677 4278190080
2.4467859 0.4336358 -0.12779565 4278190080
2.6303093 0.45669782 -0.13744552 4278190080
2.5777395 0.43830591 -0.13457665 4278190080
2.4758196 0.41208991 -0.12909968 4278190080
2.5068126 0.40826035 -0.13066453 4278190080
2.5279467 0.40264857 -0.13170776 4278190080
2.5145354 0.39151818 -0.13092534 4278190080
2.5504415 0.38799462 -0.13275099 4278190080
2.5665972 0.3812916 -0.13353342 4278190080
2.5876787 0.37519556 -0.13457665 4278190080
2.6087487 0.36895695 -0.13561988 4278190080
2.6051371 0.35871226 -0.13535908 4278190080
2.6063731 0.34961727 -0.13535908 4278190080
2.6026266 0.33987007 -0.13509826 4278190080
2.603797 0.33078259 -0.13509826 4278190080
2.6049356 0.32169244 -0.13509826 4278190080
2.6060429 0.31259701 -0.13509826 4278190080
2.6021585 0.3029218 -0.13483746 4278190080
2.6032002 0.29383618 -0.13483746 4278190080
2.6042595 0.28429338 -0.13483746 4278190080
2.6002705 0.274676 -0.13457665 4278190080
2.6012597 0.26514408 -0.13457665 4278190080
2.6020796 0.256971 -0.13457665 4278190080
2.6029608 0.24788593 -0.13457665 4278190080
2.6038103 0.23879784 -0.13457665 4278190080
2.6046281 0.22970822 -0.13457665 4278190080
2.6054142 0.22061442 -0.13457665 4278190080
2.6061683 0.21151932 -0.13457665 4278190080
2.6068907 0.20242025 -0.13457665 4278190080
2.602602 0.19294955 -0.13431585 4278190080
2.6032596 0.18386443 -0.13431585 4278190080
2.6038857 0.17477569 -0.13431585 4278190080
2.5994966 0.16536918 -0.13405503 4278190080
2.6000581 0.15629369 -0.13405503 4278190080
2.6005878 0.14721628 -0.13405503 4278190080
2.6011097 0.13768405 -0.13405503 4278190080
2.6015747 0.12860309 -0.13405503 4278190080
2.6020076 0.11952195 -0.13405503 4278190080
2.5974205 0.11022627 -0.13379423 4278190080
2.5977893 0.10115974 -0.13379423 4278190080
2.5981266 0.092090584 -0.13379423 4278190080
2.5984323 0.083020315 -0.13379423 4278190080
2.5987062 0.073950417 -0.13379423 4278190080
2.5989485 0.06487824 -0.13379423 4278190080
2.594167 0.055699464 -0.13353342 4278190080
2.5943456 0.046643239 -0.13353342 4278190080
2.5944927 0.037586447 -0.13353342 4278190080
2.599601 0.028585481 -0.13379423 4278190080
2.5946918 0.019472977 -0.13353342 4278190080
2.594744 0.010416524 -0.13353342 4278190080
2.5947645 0.0013585604 -0.13353342 4278190080
2.5947535 -0.0076988111 -0.13353342 4278190080
2.5947108 -0.016756145 -0.13353342 4278190080
2.5946364 -0.025813272 -0.13353342 4278190080
2.5945306 -0.034870088 -0.13353342 4278190080
2.5894005 -0.043841947 -0.1332726 4278190080
2.5892317 -0.052880373 -0.1332726 4278190080
2.5890312 -0.061918158 -0.1332726 4278190080
2.5887995 -0.070955187 -0.1332726 4278190080
2.588536 -0.079991348 -0.1332726 4278190080
2.5932312 -0.089198187 -0.13353342 4278190080
2.5928869 -0.098702259 -0.13353342 4278190080
2.5925267 -0.10775252 -0.13353342 4278190080
2.5921347 -0.11680147 -0.13353342 4278190080
2.5917113 -0.12584899 -0.13353342 4278190080
2.5912561 -0.134895 -0.13353342 4278190080
2.5907695 -0.14393935 -0.13353342 4278190080
2.5902512 -0.15298194 -0.13353342 4278190080
2.5897014 -0.16202267 -0.13353342 4278190080
2.5891201 -0.17106143 -0.13353342 4278190080
2.5885072 -0.1800981 -0.13353342 4278190080
2.5878627 -0.18913257 -0.13353342 4278190080
2.5871868 -0.19816476 -0.13353342 4278190080
2.5864794 -0.20719451 -0.13353342 4278190080
2.5857403 -0.21622176 -0.13353342 4278190080
2.5849698 -0.22524635 -0.13353342 4278190080
2.5841677 -0.2342682 -0.13353342 4278190080
2.5883057 -0.24375539 -0.13379423 4278190080
2.5874391 -0.25278878 -0.13379423 4278190080
2.5865409 -0.26181909 -0.13379423 4278190080
2.5856111 -0.27084619 -0.13379423 4278190080
2.58465 -0.27987 -0.13379423 4278190080
2.5836573 -0.28889042 -0.13379423 4278190080
2.5826333 -0.29790732 -0.13379423 4278190080
2.5815775 -0.30692059 -0.13379423 4278190080
2.5804904 -0.3159301 -0.13379423 4278190080
2.5843258 -0.32555982 -0.13405503 4278190080
2.5831738 -0.33457881 -0.13405503 4278190080
2.58199 -0.34359375 -0.13405503 4278190080
2.5856607 -0.35373169 -0.13431585 4278190080
2.5844102 -0.36275518 -0.13431585 4278190080
2.5831282 -0.37177423 -0.13431585 4278190080
2.581881 -0.38033819 -0.13431585 4278190080
2.585475 -0.39009321 -0.13457665 4278190080
2.6367996 -0.40584227 -0.045899827 4278190080
2.6353669 -0.41504395 -0.045899827 4278190080
2.6339021 -0.42424056 -0.045899827 4278190080
2.632405 -0.43343204 -0.045899827 4278190080
2.6358061 -0.44344762 -0.045987092 4278190080
2.6342423 -0.4526456 -0.045987092 4278190080
2.6326461 -0.46183804 -0.045987092 4278190080
2.6310179 -0.47102487 -0.045987092 4278190080
2.6342754 -0.48110417 -0.046074349 4278190080
2.63258 -0.49029654 -0.046074349 4278190080
2.6308527 -0.49948299 -0.046074349 4278190080
2.6290932 -0.5086633 -0.046074349 4278190080
2.6272111 -0.518296 -0.046074349 4278190080
2.6302872 -0.52844828 -0.046161614 4278190080
2.6284266 -0.5376265 -0.046161614 4278190080
2.626534 -0.54679811 -0.046161614 4278190080
2.6295969 -0.55654013 -0.046248876 4278190080
2.6276383 -0.56571573 -0.046248876 4278190080
2.6255472 -0.57534271 -0.046248876 4278190080
2.6284027 -0.58559126 -0.046336137 4278190080
2.6263425 -0.5947625 -0.046336137 4278190080
2.6242504 -0.60392654 -0.046336137 4278190080
2.6221263 -0.61308318 -0.046336137 4278190080
2.6248341 -0.62338752 -0.046423398 4278190080
2.622642 -0.63254613 -0.046423398 4278190080
2.6252739 -0.6428861 -0.046510663 4278190080
2.623014 -0.65204608 -0.046510663 4278190080
2.6207218 -0.66119814 -0.046510663 4278190080
2.618398 -0.67034215 -0.046510663 4278190080
2.6208806 -0.68073475 -0.046597924 4278190080
2.6184883 -0.68987918 -0.046597924 4278190080
2.6208942 -0.70030576 -0.046685185 4278190080
2.6184337 -0.70945013 -0.046685185 4278190080
2.6207619 -0.71991003 -0.046772446 4278190080
2.618233 -0.7290538 -0.046772446 4278190080
2.6204836 -0.7395466 -0.046859711 4278190080
2.6178861 -0.74868923 -0.046859711 4278190080
2.6152568 -0.75782281 -0.046859711 4278190080
2.6173923 -0.76835537 -0.046946973 4278190080
2.6146944 -0.77748704 -0.046946973 4278190080
2.6119645 -0.78660929 -0.046946973 4278190080
2.6139846 -0.79718018 -0.047034234 4278190080
2.611186 -0.80629987 -0.047034234 4278190080
2.6131272 -0.81690139 -0.047121499 4278190080
2.615026 -0.82752615 -0.04720876 4278190080
2.6121213 -0.8366493 -0.04720876 4278190080
2.6139407 -0.84730369 -0.047296021 4278190080
2.6157172 -0.85798103 -0.047383282 4278190080
2.6127064 -0.86710638 -0.047383282 4278190080
2.614403 -0.87781239 -0.047470547 4278190080
2.6113231 -0.88693303 -0.047470547 4278190080
2.6129391 -0.89766705 -0.047557805 4278190080
2.6097896 -0.90678245 -0.047557805 4278190080
2.6113253 -0.91754413 -0.04764507 4278190080
2.612817 -0.92832738 -0.047732331 4278190080
2.6095607 -0.93744224 -0.047732331 4278190080
2.6109715 -0.94825214 -0.047819592 4278190080
2.6123385 -0.95908326 -0.047906853 4278190080
2.6089747 -0.96819621 -0.047906853 4278190080
2.61026 -0.97905302 -0.047994118 4278190080
2.6068265 -0.98815858 -0.047994118 4278190080
2.6080298 -0.99904031 -0.048081379 4278190080
2.6047025 -1.0076834 -0.048081379 4278190080
2.6058254 -1.0185895 -0.048168641 4278190080
2.606724 -1.0299705 -0.048255902 4278190080
2.6077559 -1.0409168 -0.048343167 4278190080
2.6041067 -1.0500131 -0.048343167 4278190080
2.6050553 -1.0609825 -0.048430424 4278190080
2.6059594 -1.0719712 -0.048517689 4278190080
2.6068182 -1.0829791 -0.04860495 4278190080
2.6030221 -1.092072 -0.04860495 4278190080
2.6037974 -1.1031017 -0.048692212 4278190080
2.6045272 -1.1141502 -0.048779473 4278190080
2.6006222 -1.1232349 -0.048779473 4278190080
2.6012683 -1.1343042 -0.048866738 4278190080
2.6018684 -1.1453916 -0.048953999 4278190080
2.602423 -1.156497 -0.04904126 4278190080
2.6029313 -1.1676202 -0.049128521 4278190080
2.603394 -1.1787611 -0.049215786 4278190080
2.6038105 -1.1899194 -0.049303047 4278190080
2.6041806 -1.2010949 -0.049390309 4278190080
2.599972 -1.2101778 -0.049390309 4278190080
2.6004701 -1.2209176 -0.049477573 4278190080
2.6007102 -1.2321279 -0.049564831 4278190080
2.600904 -1.2433548 -0.049652096 4278190080
2.6010506 -1.2545979 -0.049739357 4278190080
2.6011508 -1.2658573 -0.049826622 4278190080
2.5967162 -1.2749293 -0.049826622 4278190080
2.5967298 -1.2862046 -0.049913879 4278190080
2.5966964 -1.2974956 -0.050001144 4278190080
2.5966156 -1.308802 -0.050088406 4278190080
2.5964875 -1.3201237 -0.050175667 4278190080
2.596312 -1.3314602 -0.050262928 4278190080
2.5960891 -1.3428118 -0.050350193 4278190080
2.5958183 -1.3541778 -0.050437454 4278190080
2.5954998 -1.3655585 -0.050524715 4278190080
2.5951333 -1.3769532 -0.050611977 4278190080
2.5947189 -1.3883622 -0.050699241 4278190080
2.5942564 -1.3997848 -0.050786499 4278190080
2.5937459 -1.4112213 -0.050873764 4278190080
2.5931869 -1.4226711 -0.050961025 4278190080
2.5925796 -1.4341342 -0.051048286 4278190080
2.5919237 -1.4456103 -0.051135547 4278190080
2.5912194 -1.4570994 -0.051222812 4278190080
2.5904663 -1.468601 -0.051310074 4278190080
2.5896647 -1.4801153 -0.051397335 4278190080
2.588814 -1.4916418 -0.0514846 4278190080
2.5879142 -1.5031801 -0.051571861 4278190080
2.5869656 -1.5147307 -0.051659122 4278190080
2.5859678 -1.5262926 -0.051746383 4278190080
2.5849206 -1.5378661 -0.051833648 4278190080
2.5838239 -1.5494509 -0.051920906 4278190080
2.5869565 -1.5636326 -0.052095432 4278190080
2.5857522 -1.5752543 -0.052182697 4278190080
2.5887582 -1.5895022 -0.052357219 4278190080
2.5916963 -1.6037904 -0.052531742 4278190080
2.5860822 -1.6128273 -0.052531742 4278190080
2.5789828 -1.633517 -0.052619003 4278190080
1.087513 -0.69951183 -0.02190277 4278190080
1.0850645 -0.70330369 -0.02190277 4278190080
1.0574895 -0.69068456 -0.021379199 4278190080
1.0341921 -0.68062985 -0.020942887 4278190080
1.0485969 -0.69510442 -0.021291936 4278190080
1.0503213 -0.70153719 -0.021379199 4278190080
1.056161 -0.71078157 -0.021553721 4278190080
1.0495359 -0.71165824 -0.02146646 4278190080
1.0346615 -0.7068572 -0.021204673 4278190080
1.0280697 -0.7076301 -0.02111741 4278190080
0.95785594 -0.69439167 -0.019983005 4278190080
0.93927717 -0.68593758 -0.019633958 4278190080
0.13451554 -0.74611145 -0.012565732 4278190080
0.1301706 -0.73673052 -0.012391208 4278190080
0.12674554 -0.73225439 -0.012303947 4278190080
0.12251789 -0.72283447 -0.012129422 4278190080
0.21853745 -2.3828912 -0.041100416 4278190080
0.20934002 -2.3736796 -0.040925894 4278190080
0.20189647 -2.3843589 -0.041100416 4278190080
0.19479933 -2.3949807 -0.041274942 4278190080
0.18333483 -2.3557727 -0.040576845 4278190080
0.17696308 -2.3813257 -0.041013155 4278190080
0.16864975 -2.3819289 -0.041013155 4278190080
0.16033404 -2.382503 -0.041013155 4278190080
0.14381158 -2.3785493 -0.040925894 4278190080
0.032440461 -0.89753288 -0.015009069 4278190080
0.029312901 -0.90264243 -0.015096332 4278190080
0.025872318 -0.8927449 -0.014921807 4278190080
0.022883203 -0.89782739 -0.015009069 4278190080
0.019749109 -0.89790183 -0.015009069 4278190080
0.016864769 -0.90296078 -0.015096332 4278190080
0.013712794 -0.90301412 -0.015096332 4278190080
0.01056053 -0.9030565 -0.015096332 4278190080
0.0073672491 -0.89808875 -0.015009069 4278190080
0.0042322176 -0.89810902 -0.015009069 4278190080
0.0010972542 -0.89811832 -0.015009069 4278190080
-0.0020377226 -0.89811665 -0.015009069 4278190080
-0.0051727942 -0.89810407 -0.015009069 4278190080
-0.0081055341 -0.89308298 -0.014921807 4278190080
-0.011097356 -0.88305151 -0.014747282 4278190080
-0.014019128 -0.87301028 -0.014572759 4278190080
-0.016675618 -0.85296285 -0.014223712 4278190080
-0.019307373 -0.8379057 -0.013961924 4278190080
-0.02329292 -0.87781304 -0.014660021 4278190080
-0.026056882 -0.86773241 -0.014485497 4278190080
-0.032893546 -0.69236928 -0.011431326 4278190080
-0.035950765 -0.70723474 -0.011693112 4278190080
-0.040317789 -0.74204814 -0.012303947 4278190080
-0.03944397 -0.68201208 -0.011256802 4278190080
-0.041212317 -0.6718905 -0.011082278 4278190080
-0.041292984 -0.63682121 -0.010471444 4278190080
-0.043515705 -0.63667321 -0.010471444 4278190080
-0.045626692 -0.63652539 -0.010471444 4278190080
-0.048972867 -0.65131778 -0.01073323 4278190080
-0.059483003 -0.75580323 -0.012565732 4278190080
-0.070723072 -0.86022198 -0.014398235 4278190080
-0.073725447 -0.85996985 -0.014398235 4278190080
-0.078060016 -0.87464559 -0.014660021 4278190080
-0.081112698 -0.87436777 -0.014660021 4278190080
-0.084643424 -0.87905556 -0.014747282 4278190080
-0.087864742 -0.87873942 -0.014747282 4278190080
-0.090931647 -0.87842733 -0.014747282 4278190080
-0.094529435 -0.88307542 -0.014834545 4278190080
-0.097611323 -0.88274008 -0.014834545 4278190080
-0.1005381 -0.88241154 -0.014834545 4278190080
-0.10361762 -0.88205522 -0.014834545 4278190080
-0.1065421 -0.88170677 -0.014834545 4278190080
-0.10961913 -0.88132948 -0.014834545 4278190080
-0.11269495 -0.88094145 -0.014834545 4278190080
-0.11576927 -0.88054276 -0.014834545 4278190080
-0.1188423 -0.88013327 -0.014834545 4278190080
-0.12191378 -0.87971306 -0.014834545 4278190080
-0.12568729 -0.88423163 -0.014921807 4278190080
-0.12877314 -0.88378751 -0.014921807 4278190080
-0.13170321 -0.88335562 -0.014921807 4278190080
-0.13478585 -0.88289052 -0.014921807 4278190080
-0.13786684 -0.88241464 -0.014921807 4278190080
-0.14094628 -0.88192803 -0.014921807 4278190080
-0.14402388 -0.88143063 -0.014921807 4278190080
-0.14709984 -0.88092256 -0.014921807 4278190080
-0.15017389 -0.8804037 -0.014921807 4278190080
-0.1532461 -0.87987411 -0.014921807 4278190080
-0.15616307 -0.87936109 -0.014921807 4278190080
-0.16012292 -0.88372982 -0.015009069 4278190080
-0.1632068 -0.88316548 -0.015009069 4278190080
-0.16628858 -0.88259041 -0.015009069 4278190080
-0.16936846 -0.88200456 -0.015009069 4278190080
-0.17244615 -0.88140798 -0.015009069 4278190080
-0.17536809 -0.88083124 -0.015009069 4278190080
-0.17744838 -0.87531418 -0.014921807 4278190080
-0.18065536 -0.87465793 -0.014921807 4278190080
-0.18473576 -0.8789143 -0.015009069 4278190080
-0.18780257 -0.87826413 -0.015009069 4278190080
-0.1908671 -0.87760323 -0.015009069 4278190080
-0.1939294 -0.87693161 -0.015009069 4278190080
-0.19698924 -0.87624937 -0.015009069 4278190080
-0.19989395 -0.87559128 -0.015009069 4278190080
-0.20294906 -0.87488818 -0.015009069 4278190080
-0.20584922 -0.87421036 -0.015009069 4278190080
-0.20889948 -0.87348652 -0.015009069 4278190080
-0.21194732 -0.87275201 -0.015009069 4278190080
-0.21499245 -0.87200683 -0.015009069 4278190080
-0.21803509 -0.87125105 -0.015009069 4278190080
-0.22230554 -0.87533015 -0.015096332 4278190080
-0.22660708 -0.87938994 -0.015183594 4278190080
-0.22714666 -0.86892009 -0.015009069 4278190080
-0.23017833 -0.86812192 -0.015009069 4278190080
-0.23886324 -0.87614024 -0.015183594 4278190080
-0.20762649 -0.66132325 -0.011431326 4278190080
-0.22658889 -0.71300328 -0.012391208 4278190080
-0.23060715 -0.71696711 -0.01247847 4278190080
-0.21144564 -0.64960527 -0.011256802 4278190080
-0.21683981 -0.65835989 -0.011431326 4278190080
-0.20954379 -0.62917858 -0.010907754 4278190080
-0.21652743 -0.64265597 -0.01116954 4278190080
-0.2155439 -0.63243234 -0.010995016 4278190080
-0.31684145 -0.85105163 -0.015183594 4278190080
-0.32262698 -0.84887528 -0.015183594 4278190080
-0.33096534 -0.86174452 -0.01544538 4278190080
-0.33397132 -0.86058402 -0.01544538 4278190080
-0.33332354 -0.85010445 -0.015270855 4278190080
-0.34181231 -0.86287934 -0.015532642 4278190080
-0.3448222 -0.86168092 -0.015532642 4278190080
-0.35157511 -0.8697418 -0.015707165 4278190080
-0.35460889 -0.86850929 -0.015707165 4278190080
-0.35763848 -0.86726612 -0.015707165 4278190080
-0.36066356 -0.86601245 -0.015707165 4278190080
-0.36353341 -0.86481172 -0.015707165 4278190080
-0.36654991 -0.86353749 -0.015707165 4278190080
-0.36956194 -0.86225271 -0.015707165 4278190080
-0.37455502 -0.86554551 -0.015794428 4278190080
-0.37957543 -0.86881393 -0.015881689 4278190080
-0.38260594 -0.86748362 -0.015881689 4278190080
-0.38563162 -0.86614281 -0.015881689 4278190080
-0.39070195 -0.86935139 -0.01596895 4278190080
-1.0690571 -2.3567233 -0.044503637 4278190080
-1.0624176 -2.2992821 -0.043543752 4278190080
-1.0556477 -2.263844 -0.04293292 4278190080
-1.0631492 -2.2603307 -0.04293292 4278190080
-1.0774633 -2.270155 -0.043194704 4278190080
-1.0832217 -2.2618713 -0.043107443 4278190080
-1.0932856 -2.2625775 -0.043194704 4278190080
-1.1011767 -2.2587476 -0.043194704 4278190080
-1.1090547 -2.2548897 -0.043194704 4278190080
-1.119141 -2.2554832 -0.043281969 4278190080
-1.1270071 -2.2515631 -0.043281969 4278190080
-1.1367199 -2.2522762 -0.04336923 4278190080
-1.1468432 -2.2527497 -0.043456491 4278190080
-1.1569831 -2.25318 -0.043543752 4278190080
-1.1671402 -2.253567 -0.043631017 4278190080
-1.1773142 -2.2539101 -0.043718275 4278190080
-1.1851746 -2.2497869 -0.043718275 4278190080
-1.1953663 -2.250051 -0.04380554 4278190080
-1.203213 -2.2458646 -0.04380554 4278190080
-1.2134212 -2.2460494 -0.043892801 4278190080
-1.2236458 -2.2461901 -0.043980066 4278190080
-1.2338856 -2.2462869 -0.044067323 4278190080
-1.2441416 -2.2463393 -0.044154588 4278190080
-1.2544124 -2.2463477 -0.044241849 4278190080
-1.2646985 -2.2463117 -0.044329111 4278190080
-1.2749999 -2.2462308 -0.044416372 4278190080
-1.2828327 -2.2417665 -0.044416372 4278190080
-0.41842893 -0.6972093 -0.013525615 4278190080
-0.42591217 -0.70437384 -0.013700139 4278190080
-1.4411707 -2.2569661 -0.046074349 4278190080
-1.4463353 -2.2477176 -0.045987092 4278190080
-1.459612 -2.2510445 -0.046161614 4278190080
-1.4701954 -2.2501206 -0.046248876 4278190080
-1.4807898 -2.2491508 -0.046336137 4278190080
-1.4913952 -2.2481339 -0.046423398 4278190080
-1.502012 -2.2470706 -0.046510663 4278190080
-1.512639 -2.2459602 -0.046597924 4278190080
-1.523277 -2.2448032 -0.046685185 4278190080
-1.5339249 -2.2435992 -0.046772446 4278190080
-1.5445831 -2.2423484 -0.046859711 4278190080
-1.5548601 -2.2413216 -0.046946973 4278190080
-1.565538 -2.2399781 -0.047034234 4278190080
-1.5762259 -2.2385874 -0.047121499 4278190080
-1.5898151 -2.2412269 -0.047296021 4278190080
-1.6005355 -2.2397308 -0.047383282 4278190080
-1.6141853 -2.242245 -0.047557805 4278190080
-1.6249373 -2.240644 -0.04764507 4278190080
-1.6356978 -2.2389946 -0.047732331 4278190080
-1.646076 -2.2375853 -0.047819592 4278190080
-1.6598296 -2.2398589 -0.047994118 4278190080
-1.6706284 -2.2380576 -0.048081379 4278190080
-1.6844395 -2.2402036 -0.048255902 4278190080
-1.6952673 -2.2382956 -0.048343167 4278190080
-1.7061023 -2.2363391 -0.048430424 4278190080
-1.7169445 -2.234334 -0.048517689 4278190080
-1.730853 -2.2362339 -0.048692212 4278190080
-1.7417222 -2.2341211 -0.048779473 4278190080
-1.7587724 -2.2398236 -0.04904126 4278190080
-1.7696811 -2.2375917 -0.049128521 4278190080
-1.7743661 -2.2274907 -0.04904126 4278190080
-0.57724661 -0.69455671 -0.015096332 4278190080
-0.57324994 -0.68487036 -0.014921807 4278190080
-1.9484533 -2.231981 -0.051048286 4278190080
-1.9595338 -2.2289202 -0.051135547 4278190080
-1.9805578 -2.2370391 -0.0514846 4278190080
-1.9916812 -2.2338436 -0.051571861 4278190080
-2.0061464 -2.2343173 -0.051746383 4278190080
-2.0172863 -2.2310092 -0.051833648 4278190080
-2.0317938 -2.2313466 -0.052008171 4278190080
-2.042949 -2.2279253 -0.052095432 4278190080
-2.0574963 -2.2281263 -0.052269954 4278190080
-2.0720701 -2.2282526 -0.05244448 4278190080
-2.0866694 -2.2283046 -0.052619003 4278190080
-2.1012952 -2.2282808 -0.052793525 4278190080
-2.1155562 -2.2285523 -0.052968051 4278190080
-2.1302319 -2.2283809 -0.053142574 4278190080
-2.1414645 -2.2245333 -0.053229839 4278190080
-2.1561756 -2.2242239 -0.053404361 4278190080
-2.1705229 -2.2242172 -0.053578887 4278190080
-2.1852815 -2.2237585 -0.05375341 4278190080
-2.2000632 -2.2232239 -0.053927936 4278190080
-2.2113392 -2.2190721 -0.054015197 4278190080
-2.2296956 -2.2219255 -0.05427698 4278190080
-2.2445447 -2.2211618 -0.054451507 4278190080
-2.2487185 -2.2098095 -0.054364245 4278190080
-2.4646127 -2.2434113 -0.057505675 4278190080
-2.4613023 -2.2247379 -0.057243891 4278190080
-2.4578917 -2.2061148 -0.056982104 4278190080
-2.4805055 -2.2108271 -0.057331152 4278190080
-2.6363192 -2.2373445 -0.059687227 4278190080
-2.6441135 -2.2281277 -0.059687227 4278190080
-2.6787138 -2.2413414 -0.060298063 4278190080
-2.6784422 -2.2260554 -0.06012354 4278190080
-2.6861961 -2.2166924 -0.06012354 4278190080
-3.0513344 -2.2943397 -0.065970093 4278190080
-3.0593245 -2.2836747 -0.065970093 4278190080
-3.0873606 -2.2878635 -0.066406406 4278190080
-3.0590854 -2.250411 -0.065621048 4278190080
-3.0871084 -2.2544611 -0.066057354 4278190080
-3.0909114 -2.2407372 -0.065970093 4278190080
-3.0987141 -2.2299345 -0.065970093 4278190080
-3.1105475 -2.2220094 -0.066057354 4278190080
-3.1019726 -2.1995716 -0.065708309 4278190080
-3.1300721 -2.2031176 -0.066144623 4278190080
-3.1541357 -2.2036309 -0.066493668 4278190080
-3.1741328 -2.2011542 -0.066755451 4278190080
-3.1982696 -2.2013984 -0.067104504 4278190080
-3.21419 -2.1958611 -0.067279026 4278190080
-3.2501788 -2.1873248 -0.067715332 4278190080
-3.5023336 -2.1842532 -0.07138034 4278190080
-3.5354435 -2.1877987 -0.071903914 4278190080
-3.5515795 -2.1806765 -0.072078444 4278190080
-3.5890551 -2.1864724 -0.072689272 4278190080
-3.6137795 -2.1842742 -0.073038317 4278190080
-3.6428192 -2.1845019 -0.073474631 4278190080
-3.6762004 -2.1871092 -0.073998198 4278190080
-3.6924229 -2.1793461 -0.074172728 4278190080
-3.7086358 -2.1714959 -0.07434725 4278190080
-2.9698377 -1.6299828 -0.058465559 4278190080
-2.9491637 -1.6052662 -0.057941988 4278190080
-2.9415514 -1.5878379 -0.057680201 4278190080
-2.938261 -1.5728419 -0.057505675 4278190080
-2.7935994 -1.4828829 -0.054538772 4278190080
-2.7633681 -1.4544939 -0.053840674 4278190080
-2.7462685 -1.4332739 -0.053404361 4278190080
-2.7379346 -1.4167864 -0.053142574 4278190080
-1.2885125 -0.63850236 -0.024433369 4278190080
-1.2682977 -0.62298048 -0.023997059 4278190080
-2.7991602 -1.2916158 -0.053142574 4278190080
-2.8125205 -1.2864852 -0.0533171 4278190080
-2.8033338 -1.2704692 -0.053055316 4278190080
-2.8123124 -1.2627231 -0.053142574 4278190080
-2.8302085 -1.2470907 -0.0533171 4278190080
-1.4530383 -0.6281839 -0.026963968 4278190080
-1.4506267 -0.62113988 -0.026876705 4278190080
-3.104126 -1.2403049 -0.057680201 4278190080
-3.0944901 -1.2239461 -0.057418417 4278190080
-1.6112667 -0.62432194 -0.029494565 4278190080
-1.5807614 -0.60616434 -0.028883733 4278190080
-2.137218 -0.80247617 -0.039180651 4278190080
-2.1493788 -0.79849303 -0.039355174 4278190080
-3.2640309 -1.2002829 -0.060036276 4278190080
-3.1977303 -1.163247 -0.058727346 4278190080
-1.7573054 -0.61850017 -0.03185064 4278190080
-1.7216821 -0.59921628 -0.031152545 4278190080
-3.7367239 -1.257547 -0.068151645 4278190080
-3.6983981 -1.2302929 -0.067366287 4278190080
-3.6646769 -1.2048843 -0.06666819 4278190080
-1.8832686 -0.60465151 -0.033857666 4278190080
-1.8758372 -0.59505081 -0.033683144 4278190080
-3.7481341 -1.1738756 -0.067889862 4278190080
-3.7044497 -1.1460104 -0.067017242 4278190080
-3.6845219 -1.1257687 -0.066580929 4278190080
-3.6836433 -1.1114556 -0.066493668 4278190080
-2.0558476 -0.60467899 -0.036737315 4278190080
-2.0099361 -0.58356011 -0.035864696 4278190080
-3.7420549 -1.0723106 -0.067279026 4278190080
-3.6974864 -1.0462834 -0.066406406 4278190080
-3.6818557 -1.0279931 -0.066057354 4278190080
-2.1403275 -0.581514 -0.038046248 4278190080
-3.7503657 -1.0049075 -0.067104504 4278190080
-3.7296836 -0.98542517 -0.06666819 4278190080
-2.3293674 -0.58985347 -0.041274942 4278190080
-2.3071594 -0.57566696 -0.040838629 4278190080
-3.687453 -0.86556381 -0.065446526 4278190080
-3.6709685 -0.84818441 -0.065097474 4278190080
-3.6885312 -0.83869058 -0.065359257 4278190080
-3.6768005 -0.82253611 -0.065097474 4278190080
-3.6796491 -0.80969685 -0.065097474 4278190080
-3.6726809 -0.79473317 -0.064922951 4278190080
-3.6705427 -0.78086716 -0.06483569 4278190080
-3.6634593 -0.76600367 -0.064661168 4278190080
-3.6612136 -0.75220525 -0.064573899 4278190080
-3.6589167 -0.73843187 -0.064486638 4278190080
-3.6565681 -0.72468364 -0.064399377 4278190080
-3.6541684 -0.71095991 -0.064312115 4278190080
-3.6517172 -0.6972627 -0.064224854 4278190080
-3.6541288 -0.68451178 -0.064224854 4278190080
-3.6515791 -0.6708492 -0.064137593 4278190080
-3.6537838 -0.65873629 -0.064137593 4278190080
-3.6511378 -0.64510858 -0.064050332 4278190080
-3.6533673 -0.63235998 -0.064050332 4278190080
-3.6506238 -0.61876732 -0.063963071 4278190080
-3.6478293 -0.60520244 -0.063875802 4278190080
-3.6499197 -0.59246564 -0.063875802 4278190080
-3.6470282 -0.57893789 -0.063788548 4278190080
-3.6490269 -0.56620401 -0.063788548 4278190080
-3.6460383 -0.55271304 -0.063701279 4278190080
-3.6479454 -0.5399828 -0.063701279 4278190080
-3.6448603 -0.52653122 -0.063614018 4278190080
-3.6466758 -0.51380527 -0.063614018 4278190080
-3.6434944 -0.50039285 -0.063526757 4278190080
-3.6452188 -0.48767087 -0.063526757 4278190080
-3.6419418 -0.4742983 -0.063439496 4278190080
-3.6435752 -0.46158287 -0.063439496 4278190080
-3.6451643 -0.44886181 -0.063439496 4278190080
-3.6417449 -0.43554157 -0.063352235 4278190080
-3.6432431 -0.42282608 -0.063352235 4278190080
-3.639729 -0.40954745 -0.063264973 4278190080
-3.6411364 -0.39684013 -0.063264973 4278190080
-3.6375275 -0.38360363 -0.063177712 4278190080
-3.6388445 -0.37090415 -0.063177712 4278190080
-3.6351418 -0.35770962 -0.063090451 4278190080
-3.6363685 -0.34501863 -0.063090451 4278190080
-3.6325719 -0.33186856 -0.063003182 4278190080
-3.6337082 -0.31918672 -0.063003182 4278190080
-3.6298189 -0.30608088 -0.062915929 4278190080
-3.6308651 -0.29340783 -0.062915929 4278190080
-3.6318672 -0.28073213 -0.062915929 4278190080
-3.6278393 -0.26768515 -0.06282866 4278190080
-3.6287515 -0.2550202 -0.06282866 4278190080
-3.6296196 -0.24235213 -0.06282866 4278190080
-3.6254544 -0.2293645 -0.062741399 4278190080
-3.6262329 -0.21670811 -0.062741399 4278190080
-3.6269672 -0.20404907 -0.062741399 4278190080
-3.6276574 -0.19138753 -0.062741399 4278190080
-3.6233101 -0.1784777 -0.062654138 4278190080
-3.6239109 -0.16582814 -0.062654138 4278190080
-3.6244678 -0.15317751 -0.062654138 4278190080
-3.6249804 -0.14052501 -0.062654138 4278190080
-3.6204529 -0.12769461 -0.062566876 4278190080
-3.6208766 -0.11505628 -0.062566876 4278190080
-3.6212561 -0.10241558 -0.062566876 4278190080
-3.6215916 -0.089774616 -0.062566876 4278190080
-3.6218829 -0.077132545 -0.062566876 4278190080
-3.6221299 -0.064489536 -0.062566876 4278190080
-3.622333 -0.051845744 -0.062566876 4278190080
-3.6224918 -0.039200358 -0.062566876 4278190080
-3.6226068 -0.026555454 -0.062566876 4278190080
-3.6226773 -0.013910227 -0.062566876 4278190080
-3.6177044 -0.0012630869 -0.062479615 4278190080
-3.6176887 0.010733815 -0.062479615 4278190080
-3.6176293 0.023361648 -0.062479615 4278190080
-3.6125267 0.035940424 -0.06239235 4278190080
-3.6123791 0.048550081 -0.06239235 4278190080
-3.6121876 0.061159149 -0.06239235 4278190080
-3.6119521 0.073767476 -0.06239235 4278190080
-3.6116726 0.086374894 -0.06239235 4278190080
-3.6113491 0.09898223 -0.06239235 4278190080
-3.6109815 0.1115874 -0.06239235 4278190080
-3.6105702 0.1241912 -0.06239235 4278190080
-3.6101146 0.13679349 -0.06239235 4278190080
-3.6046202 0.1491874 -0.062305089 4278190080
-3.6040492 0.16239841 -0.062305089 4278190080
-3.5984669 0.17473523 -0.062217824 4278190080
-3.5978351 0.18729497 -0.062217824 4278190080
-3.5971594 0.19985242 -0.062217824 4278190080
-3.6014676 0.21207397 -0.062305089 4278190080
-3.6007054 0.22464491 -0.062305089 4278190080
-3.5998993 0.23721217 -0.062305089 4278190080
-3.5990493 0.24977651 -0.062305089 4278190080
-3.5981555 0.26233783 -0.062305089 4278190080
-3.5972178 0.27489594 -0.062305089 4278190080
-3.5962362 0.28745168 -0.062305089 4278190080
-3.595211 0.30000293 -0.062305089 4278190080
-3.5991223 0.31298363 -0.06239235 4278190080
-3.5980079 0.32554483 -0.06239235 4278190080
-3.5968494 0.33810204 -0.06239235 4278190080
-3.5956473 0.35065609 -0.06239235 4278190080
-3.5944014 0.36320493 -0.06239235 4278190080
-3.5931118 0.37574932 -0.06239235 4278190080
-3.5967486 0.38882646 -0.062479615 4278190080
-3.5953696 0.4013789 -0.062479615 4278190080
-3.58898 0.41335538 -0.06239235 4278190080
-3.5924797 0.42646989 -0.062479615 4278190080
-3.5909691 0.43900719 -0.062479615 4278190080
-3.5894148 0.45153916 -0.062479615 4278190080
-3.587817 0.46406561 -0.062479615 4278190080
-3.586175 0.47658736 -0.062479615 4278190080
-3.5844896 0.48910236 -0.062479615 4278190080
-3.5827606 0.50161141 -0.062479615 4278190080
-3.5859363 0.51482475 -0.062566876 4278190080
-3.5841174 0.52733868 -0.062566876 4278190080
-3.5822549 0.53984714 -0.062566876 4278190080
-3.5803485 0.55234808 -0.062566876 4278190080
-3.5784972 0.56421804 -0.062566876 4278190080
-3.5765059 0.57670569 -0.062566876 4278190080
-3.5744712 0.58918637 -0.062566876 4278190080
-3.5723927 0.60165977 -0.062566876 4278190080
-3.5751977 0.61497337 -0.062654138 4278190080
-3.573029 0.62745017 -0.062654138 4278190080
-3.570817 0.63991833 -0.062654138 4278190080
-3.5685616 0.65237874 -0.062654138 4278190080
-3.5710609 0.66637129 -0.062741399 4278190080
-3.5687132 0.67883235 -0.062741399 4278190080
-3.5712297 0.69223648 -0.06282866 4278190080
-3.5687916 0.70469797 -0.06282866 4278190080
-3.5713365 0.71751356 -0.062915929 4278190080
-3.5688102 0.72997528 -0.062915929 4278190080
-3.5711346 0.74344701 -0.063003182 4278190080
-3.5685177 0.75590879 -0.063003182 4278190080
-3.5707445 0.76941353 -0.063090451 4278190080
-3.5729203 0.78294295 -0.063177712 4278190080
-3.5701656 0.7954098 -0.063177712 4278190080
-3.5722432 0.80897117 -0.063264973 4278190080
-3.5692542 0.82205909 -0.063264973 4278190080
-3.5663629 0.83451289 -0.063264973 4278190080
-3.5634282 0.84695655 -0.063264973 4278190080
-3.5555902 0.85821784 -0.063177712 4278190080
-3.5525727 0.87062377 -0.063177712 4278190080
-3.5155525 0.87457091 -0.062566876 4278190080
-3.4833953 0.87949401 -0.062043302 4278190080
-3.4221904 0.87675911 -0.06099616 4278190080
-3.3465319 0.86983585 -0.059687227 4278190080
-3.24196 0.85474735 -0.057854723 4278190080
-3.2389567 0.86605853 -0.057854723 4278190080
-3.1973138 0.86689341 -0.05715663 4278190080
-3.155705 0.86744821 -0.056458533 4278190080
-3.1141312 0.86772412 -0.055760436 4278190080
-3.0677838 0.8663609 -0.054975078 4278190080
-3.0214844 0.86468494 -0.054189723 4278190080
-2.9800358 0.86408854 -0.053491622 4278190080
-2.9338324 0.8618046 -0.052706268 4278190080
-2.892473 0.86063522 -0.052008171 4278190080
-2.8511581 0.85918695 -0.051310074 4278190080
-2.8100388 0.85697073 -0.050611977 4278190080
-2.7688167 0.85497439 -0.049913879 4278190080
-2.7324152 0.85419255 -0.049303047 4278190080
-2.6912863 0.8516587 -0.04860495 4278190080
-2.6548219 0.85083717 -0.047994118 4278190080
-2.6185482 0.84930235 -0.047383282 4278190080
-2.5870678 0.84908378 -0.046859711 4278190080
-2.5508769 0.84708035 -0.046248876 4278190080
-2.5194705 0.8464275 -0.045725305 4278190080
-2.4881005 0.8455652 -0.04520173 4278190080
-2.4614952 0.84611946 -0.044765424 4278190080
-2.4301944 0.84485668 -0.044241849 4278190080
-2.4036493 0.84504396 -0.04380554 4278190080
-2.3724222 0.84338242 -0.043281969 4278190080
-2.3457937 0.84361279 -0.042845655 4278190080
-2.3146448 0.84154671 -0.042322084 4278190080
-2.2930706 0.84232271 -0.041973036 4278190080
-2.2713702 0.8433612 -0.041623991 4278190080
-2.2496901 0.8442592 -0.041274942 4278190080
-2.2280321 0.84501553 -0.040925894 4278190080
-2.2017281 0.84384191 -0.04048958 4278190080
-2.1754599 0.84249502 -0.040053271 4278190080
-2.1492283 0.84097528 -0.039616961 4278190080
-2.1230338 0.83928323 -0.039180651 4278190080
-2.1015205 0.83927226 -0.038831603 4278190080
-2.0800333 0.83912146 -0.038482554 4278190080
-2.0585732 0.83883095 -0.038133506 4278190080
-2.0371406 0.83840096 -0.037784461 4278190080
-2.0157359 0.83783215 -0.037435412 4278190080
-1.9943607 0.83712369 -0.037086364 4278190080
-1.9730151 0.83627629 -0.036737315 4278190080
-1.9517 0.83529019 -0.036388267 4278190080
-1.9350049 0.83614856 -0.03612648 4278190080
-1.9137456 0.83490217 -0.035777431 4278190080
-1.892519 0.83351713 -0.035428386 4278190080
-1.8713257 0.83199412 -0.035079338 4278190080
-1.8501662 0.83033347 -0.034730289 4278190080
-1.833595 0.83059806 -0.034468502 4278190080
-1.8124981 0.82867903 -0.034119453 4278190080
-1.7959766 0.82871699 -0.033857666 4278190080
-1.7793325 0.82896018 -0.033595882 4278190080
-1.7628555 0.82878512 -0.033334095 4278190080
-1.7418847 0.82636285 -0.032985047 4278190080
-1.725462 0.82596248 -0.032723263 4278190080
-1.7092073 0.82515943 -0.032461476 4278190080
-1.6928332 0.82455301 -0.032199688 4278190080
-1.6764845 0.82384247 -0.031937901 4278190080
-1.6646404 0.82524842 -0.031763379 4278190080
-1.6483357 0.82434607 -0.031501591 4278190080
-1.6320579 0.82333964 -0.031239808 4278190080
-1.620263 0.82449692 -0.031065283 4278190080
-1.6040323 0.82329917 -0.030803498 4278190080
-1.5922695 0.82429653 -0.030628974 4278190080
-1.5760877 0.82290846 -0.030367188 4278190080
-1.5643587 0.82374644 -0.030192664 4278190080
-1.5482278 0.82216787 -0.029930875 4278190080
-1.5365344 0.82284689 -0.029756352 4278190080
-1.5204563 0.82107896 -0.029494565 4278190080
-1.5086565 0.82186323 -0.029320043 4278190080
-1.4926335 0.81990373 -0.029058255 4278190080
-1.4810158 0.82026464 -0.028883733 4278190080
-1.4650491 0.81811708 -0.028621946 4278190080
-1.4534718 0.81832111 -0.028447423 4278190080
-1.4375635 0.81598622 -0.028185636 4278190080
-1.4260284 0.81603324 -0.028011113 4278190080
-1.4145105 0.8160097 -0.027836587 4278190080
-1.4030104 0.81591576 -0.027662063 4278190080
-1.391528 0.81575197 -0.027487539 4278190080
-1.3800641 0.81551766 -0.027313014 4278190080
-1.3686191 0.81521326 -0.02713849 4278190080
-1.357193 0.81483901 -0.026963968 4278190080
-1.3500633 0.81698322 -0.026876705 4278190080
-1.3386672 0.81648481 -0.026702181 4278190080
-1.3272911 0.81591648 -0.026527658 4278190080
-1.3159356 0.81527877 -0.026353134 4278190080
-1.3046007 0.8145718 -0.02617861 4278190080
-1.2932869 0.81379569 -0.026004085 4278190080
-1.2862163 0.81562817 -0.025916824 4278190080
-1.2749363 0.81472892 -0.0257423 4278190080
-1.2636783 0.81376088 -0.025567774 4278190080
-1.2524427 0.81272429 -0.025393249 4278190080
-1.2454141 0.81435513 -0.025305988 4278190080
-1.2342145 0.81319672 -0.025131464 4278190080
-1.2272036 0.81473482 -0.025044203 4278190080
-1.220197 0.81623393 -0.02495694 4278190080
-1.2131948 0.81769413 -0.024869679 4278190080
-1.2061974 0.81911534 -0.024782415 4278190080
-1.1992048 0.82049805 -0.024695154 4278190080
-1.1922174 0.82184166 -0.024607893 4278190080
-1.1852353 0.82314652 -0.02452063 4278190080
-1.1782587 0.82441264 -0.024433369 4278190080
-1.1712877 0.8256402 -0.024346106 4278190080
-1.1602463 0.82393485 -0.024171583 4278190080
-1.1492314 0.82216233 -0.023997059 4278190080
-1.1422988 0.82324588 -0.023909796 4278190080
-1.1353728 0.82429111 -0.023822535 4278190080
-1.1244181 0.82234687 -0.023648011 4278190080
-1.1175157 0.82330185 -0.023560749 4278190080
-1.1064627 0.82143205 -0.023386223 4278190080
-1.0955815 0.81930131 -0.023211699 4278190080
-1.0887218 0.82011294 -0.023124438 4278190080
-1.0818698 0.82088637 -0.023037175 4278190080
-1.0710539 0.81858635 -0.022862652 4278190080
-1.0642287 0.81927037 -0.022775389 4278190080
-1.0574117 0.81991684 -0.022688128 4278190080
-1.050603 0.82052594 -0.022600865 4278190080
-1.0438033 0.82109731 -0.022513604 4278190080
-1.0370123 0.82163119 -0.022426343 4278190080
-1.0302305 0.82212776 -0.02233908 4278190080
-1.0195613 0.81945515 -0.022164555 4278190080
-1.0128088 0.81986386 -0.022077294 4278190080
-1.0021914 0.81707621 -0.02190277 4278190080
-0.99546957 0.817397 -0.021815509 4278190080
-0.98875779 0.81768084 -0.021728246 4278190080
-0.9820562 0.81792784 -0.021640984 4278190080
-0.97536474 0.8181383 -0.021553721 4278190080
-0.96486509 0.81508565 -0.021379199 4278190080
-0.96962941 0.82492751 -0.021553721 4278190080
-0.94016951 0.80553806 -0.020942887 4278190080
-0.95627689 0.82514471 -0.021379199 4278190080
-0.96833795 0.84176338 -0.021728246 4278190080
-0.77737612 0.85163391 -0.019459434 4278190080
-0.77775609 0.85804629 -0.019546695 4278190080
-0.75468928 0.83846146 -0.019023124 4278190080
-0.75175774 0.84109086 -0.019023124 4278190080
-0.74218023 0.83623177 -0.018848598 4278190080
-0.73595136 0.83506674 -0.018761335 4278190080
-0.72973973 0.8338685 -0.018674074 4278190080
-0.72682458 0.83641064 -0.018674074 4278190080
-0.7206344 0.83515781 -0.018586813 4278190080
-0.71771479 0.83766818 -0.018586813 4278190080
-0.71154702 0.83636069 -0.018499549 4278190080
-0.70847672 0.83896309 -0.018499549 4278190080
-0.70233184 0.83760023 -0.018412288 4278190080
-0.69620514 0.83620471 -0.018325025 4278190080
-0.69328201 0.83862978 -0.018325025 4278190080
-0.68717867 0.8371805 -0.018237764 4278190080
-0.68425196 0.83957422 -0.018237764 4278190080
-0.67817247 0.83807135 -0.018150503 4278190080
-0.67524296 0.84043348 -0.018150503 4278190080
-0.66918766 0.83887726 -0.01806324 4278190080
-0.66625541 0.84120798 -0.01806324 4278190080
-0.66022462 0.83959889 -0.017975979 4278190080
-0.65728986 0.84189838 -0.017975979 4278190080
-0.65128446 0.84023637 -0.017888715 4278190080
-0.64529866 0.8385427 -0.017801454 4278190080
-0.6391865 0.8369292 -0.017714193 4278190080
-0.63626122 0.83915526 -0.017714193 4278190080
-0.63032168 0.83737695 -0.01762693 4278190080
-0.62440234 0.83556741 -0.017539669 4278190080
-0.6214819 0.83774191 -0.017539669 4278190080
-0.61558914 0.83588088 -0.017452406 4278190080
