# .PCD v0.7 - Point Cloud Data file format
VERSION 0.7
FIELDS x y z rgb
SIZE 4 4 4 4
TYPE F F F U
COUNT 1 1 1 1
WIDTH 1104
HEIGHT 1
VIEWPOINT 0 0 0 1 0 0 0
POINTS 1104
DATA ascii
1.4890834 0.48066258 0.77432752 4294967295
1.4909999 0.47984135 0.77580434 4294967295
1.487047 -0.92265636 0.77571976 4294967295
1.4945 0.81125015 0.75126374 4294967295
1.49125 0.80688822 0.73519194 4294967295
1.492 0.48102686 0.74390477 4294967295
1.4844406 -0.91902542 0.74521911 4294967295
1.4955001 0.81179178 0.70632368 4294967295
1.4893 0.80634618 0.71971864 4294967295
1.49 0.47760651 0.71700913 4294967295
1.4861429 -0.92445534 0.71860063 4294967295
1.4820768 -0.93133903 0.70464075 4294967295
1.4857141 0.81393832 0.68540275 4294967295
1.476 0.809771 0.69703931 4294967295
1.484 0.48017612 0.67045379 4294967295
1.4866666 0.47849905 0.68383497 4294967295
1.4923124 -0.92795187 0.68363464 4294967295
1.4814101 -0.93453532 0.68465054 4294967295
1.4917779 0.81688577 0.65394366 4294967295
1.495 0.48084059 0.65362638 4294967295
1.49325 0.47970453 0.6583963 4294967295
1.48712 -0.9255693 0.65318155 4294967295
1.4780769 -0.93279529 0.66378903 4294967295
1.4883636 0.81498039 0.62380898 4294967295
1.4749999 0.8092224 0.61307538 4294967295
1.4985 0.4813911 0.61455649 4294967295
1.4886999 0.47961804 0.63050389 4294967295
1.4847891 -0.92465955 0.62586635 4294967295
1.4913334 0.81183302 0.60314167 4294967295
1.4870625 0.80655491 0.58903193 4294967295
1.4855623 0.48239765 0.59326732 4294967295
1.471 0.47938269 0.60770231 4294967295
1.4861479 -0.92344236 0.59480983 4294967295
1.4878888 0.81628609 0.55999959 4294967295
1.4876666 0.80740994 0.57210582 4294967295
1.485294 0.48220834 0.56455755 4294967295
1.4862381 -0.91589254 0.56525457 4294967295
1.4855715 0.81649643 0.53421462 4294967295
1.4833332 0.482245 0.54763138 4294967295
1.4836997 -0.91727126 0.53470284 4294967295
1.489 0.81602955 0.50514829 4294967295
1.4726667 0.80794227 0.50984329 4294967295
1.4847929 -0.91997528 0.50398391 4294967295
1.4960001 0.82421458 0.48076677 4294967295
1.4865972 -0.92141277 0.47426081 4294967295
1.4883845 0.82479012 0.44404596 4294967295
1.4854062 -0.92114931 0.44507748 4294967295
1.4862001 0.82087839 0.41309428 4294967295
1.4885671 -0.92259395 0.41441762 4294967295
1.4777858 -0.93078434 0.41683915 4294967295
1.4872999 0.82027364 0.3840394 4294967295
1.4859515 -0.92218888 0.38583302 4294967295
1.4894614 0.81980687 0.35812896 4294967295
1.4815999 0.48488626 0.34638613 4294967295
1.4856 -0.926521 0.35539252 4294967295
1.4883 0.48674008 0.32627594 4294967295
1.4865353 -0.9227134 0.32518166 4294967295
1.4903334 0.48337346 0.29419267 4294967295
1.487 0.47769675 0.28089735 4294967295
1.485877 -0.92116278 0.29571527 4294967295
1.4919999 0.82151389 0.26624829 4294967295
1.4891766 0.47716627 0.26470497 4294967295
1.4860791 -0.91871196 0.26419482 4294967295
1.4797499 0.8152616 0.2254127 4294967295
1.4812858 0.47340196 0.24451318 4294967295
1.4871891 -0.91206813 0.23546219 4294967295
1.4867272 0.81659043 0.20820895 4294967295
1.4862766 -0.9161061 0.20567173 4294967295
1.4933333 0.81928056 0.16553709 4294967295
1.4873269 -0.91505468 0.17414266 4294967295
1.4985 0.82211512 0.15388545 4294967295
1.499 -0.89918876 0.14332831 4294967295
1.4880145 -0.9099701 0.14389434 4294967295
1.49225 0.82214844 0.11904377 4294967295
1.499 0.48155171 0.12246072 4294967295
1.4872855 0.46626291 0.10617855 4294967295
1.4913187 -0.92252743 0.11512983 4294967295
1.4800667 -0.93200815 0.1169489 4294967295
1.4855715 0.81895655 0.0822016 4294967295
1.4801223 0.45830339 0.085919112 4294967295
1.4858779 0.43526858 0.086318344 4294967295
1.4876544 0.40533122 0.084068418 4294967295
1.4889992 0.37496373 0.080638528 4294967295
1.4893442 0.34487724 0.080412656 4294967295
1.4875453 0.31445411 0.081431359 4294967295
1.4860401 0.28366014 0.083485812 4294967295
1.4878453 0.25503859 0.083527178 4294967295
1.4911536 0.22608773 0.082027882 4294967295
1.4937925 0.19573389 0.082367986 4294967295
1.4916108 0.16425118 0.081165642 4294967295
1.4880574 0.13397911 0.081282556 4294967295
1.4900793 0.1052924 0.081815571 4294967295
1.4922978 0.074120499 0.08075726 4294967295
1.491383 0.045831792 0.078846842 4294967295
1.4935104 0.01474273 0.079724371 4294967295
1.4950159 -0.016195428 0.08195287 4294967295
1.4956274 -0.04446182 0.082544446 4294967295
1.4964759 -0.07404618 0.077500463 4294967295
1.4966966 -0.10479507 0.076141685 4294967295
1.4985335 -0.12728041 0.074140549 4294967295
1.499 -0.16911212 0.071450919 4294967295
1.4984616 -0.22866648 0.075401247 4294967295
1.4988124 -0.24813229 0.074043065 4294967295
1.4989998 -0.29055002 0.071595907 4294967295
1.4981906 -0.31662607 0.077321768 4294967295
1.4980716 -0.34333703 0.07810232 4294967295
1.4989998 -0.3640835 0.073272765 4294967295
1.4987271 -0.64960712 0.075431913 4294967295
1.499 -0.66547143 0.072378427 4294967295
1.499 -0.7670272 0.070291638 4294967295
1.4986665 -0.89512473 0.073096454 4294967295
1.4907498 -0.91926682 0.084680676 4294967295
1.484 0.92778343 0.040360421 4294967295
1.4918182 0.82316482 0.054201275 4294967295
1.4782687 0.45951328 0.053892046 4294967295
1.4821119 0.43485764 0.054727167 4294967295
1.4838277 0.40437821 0.054189354 4294967295
1.4850515 0.37423077 0.054206014 4294967295
1.4852803 0.34509033 0.053322196 4294967295
1.4842863 0.31541276 0.054756939 4294967295
1.4840978 0.28393492 0.055817783 4294967295
1.4850315 0.25482443 0.055529922 4294967295
1.4897397 0.22579178 0.055070102 4294967295
1.4944447 0.19576444 0.05432111 4294967295
1.4933329 0.16443697 0.05466637 4294967295
1.4925146 0.13531956 0.054100603 4294967295
1.4921966 0.10486035 0.054467797 4294967295
1.4907964 0.074539997 0.05510211 4294967295
1.4889394 0.044379577 0.054998338 4294967295
1.489271 0.015406291 0.055941075 4294967295
1.4938971 -0.015349588 0.055027723 4294967295
1.4966725 -0.045287538 0.055359364 4294967295
1.4980559 -0.074869476 0.0549303 4294967295
1.4979223 -0.10440638 0.054973245 4294967295
1.497658 -0.13387394 0.054849505 4294967295
1.4958562 -0.16545232 0.054804295 4294967295
1.4975587 -0.1889991 0.050188243 4294967295
1.4987384 -0.23063894 0.055383414 4294967295
1.4981117 -0.2556178 0.054919749 4294967295
1.4977193 -0.28509039 0.05504474 4294967295
1.4982505 -0.31473818 0.054873854 4294967295
1.4988598 -0.34442621 0.054683596 4294967295
1.4990003 -0.36990184 0.049973279 4294967295
1.4989377 -0.40791285 0.047596067 4294967295
1.4990003 -0.43337724 0.047801018 4294967295
1.4990003 -0.46247286 0.060797781 4294967295
1.4989998 -0.5205906 0.044952422 4294967295
1.499 -0.56878483 0.056379944 4294967295
1.4989998 -0.57617545 0.054206252 4294967295
1.4987857 -0.65588796 0.060916722 4294967295
1.4986743 -0.67229599 0.052474648 4294967295
1.499 -0.69167191 0.043627501 4294967295
1.4989998 -0.76320148 0.064031422 4294967295
1.4989998 -0.85658407 0.05203253 4294967295
1.4965004 -0.88780582 0.054676741 4294967295
1.4872768 -0.91644394 0.055234224 4294967295
1.4739999 -0.93121469 0.043590754 4294967295
1.499 0.94063926 0.035512328 4294967295
1.4863333 0.92005432 0.015478849 4294967295
1.4865556 0.82322037 0.022881806 4294967295
1.477529 0.46183699 0.025216162 4294967295
1.4799087 0.43493307 0.02478379 4294967295
1.4792523 0.40503824 0.02487272 4294967295
1.4833605 0.37639278 0.023591161 4294967295
1.4835351 0.34526974 0.024715811 4294967295
1.4834361 0.31437743 0.024150252 4294967295
1.4845407 0.28449529 0.025111556 4294967295
1.4846839 0.25570363 0.024973541 4294967295
1.4854431 0.22532605 0.024748683 4294967295
1.4872752 0.19517881 0.024326384 4294967295
1.4886179 0.16482522 0.025520027 4294967295
1.4892333 0.13561852 0.024414301 4294967295
1.4903653 0.10545222 0.024697691 4294967295
1.4918878 0.074274123 0.023970336 4294967295
1.4925126 0.044879019 0.023759544 4294967295
1.489278 0.015714973 0.025174916 4294967295
1.494493 -0.01617625 0.025456399 4294967295
1.4986116 -0.045343705 0.025206804 4294967295
1.4989065 -0.074369229 0.034129679 4294967295
1.4980867 -0.10783061 0.028133243 4294967295
1.4974085 -0.13467695 0.024958462 4294967295
1.4971305 -0.16468136 0.02497074 4294967295
1.4958702 -0.19488277 0.025510818 4294967295
1.4982228 -0.22435249 0.0253371 4294967295
1.4973589 -0.2554872 0.025618047 4294967295
1.4976764 -0.28491318 0.025706083 4294967295
1.4988447 -0.31277704 0.030925065 4294967295
1.4989998 -0.33576319 0.037002832 4294967295
1.4990002 -0.37488994 0.035338461 4294967295
1.4990004 -0.40698743 0.026254177 4294967295
1.4990003 -0.42820895 0.0251908 4294967295
1.4986665 -0.68185902 0.037165076 4294967295
1.4989094 -0.70248532 0.024791628 4294967295
1.499 -0.72976357 0.013402581 4294967295
1.499 -0.77572203 0.011166811 4294967295
1.4986249 -0.79798299 0.01491636 4294967295
1.4987781 -0.8246783 0.01742512 4294967295
1.4989998 -0.84453547 0.012657344 4294967295
1.4960731 -0.89370036 0.024435937 4294967295
1.4860393 -0.9163096 0.025670409 4294967295
1.4759566 -0.93598372 0.018832505 4294967295
1.4903126 1.2995415 -0.016557813 4294967295
1.4874998 1.2746598 -0.014041424 4294967295
1.4837304 1.2450839 -0.014220595 4294967295
1.4868 1.2123753 -0.012967229 4294967295
1.4835769 1.1836548 -0.01151824 4294967295
1.484794 1.1537048 -0.012870312 4294967295
1.4847645 1.1240821 -0.012857437 4294967295
1.4859536 1.0947717 -0.012195885 4294967295
1.4853611 1.0651021 -0.013187766 4294967295
1.4853891 1.0350692 -0.01377207 4294967295
1.4866999 1.0042892 -0.012223423 4294967295
1.4880968 0.97609508 -0.011619568 4294967295
1.487059 0.9446826 -0.0093095303 4294967295
1.4839473 0.92086065 -0.0023705363 4294967295
1.4893 0.81498325 0.0027124286 4294967295
1.486921 0.79394406 -0.0080546141 4294967295
1.4867071 0.76497829 -0.013917446 4294967295
1.4888668 0.74068463 -0.016344786 4294967295
1.4742857 0.45308605 0.0068536997 4294967295
1.4767084 0.43355814 0.00089812279 4294967295
1.4755816 0.40587518 0.001368463 4294967295
1.4782128 0.3737964 0.0021806955 4294967295
1.4795498 0.34594226 0.000451684 4294967295
1.4786537 0.31429756 -0.00051796436 4294967295
1.4774029 0.28470156 -0.0020560622 4294967295
1.4789315 0.25544125 -0.002967298 4294967295
1.4791405 0.22524092 -0.0020797253 4294967295
1.4771004 0.19506036 0.0010700226 4294967295
1.4795287 0.16511215 0.0016011 4294967295
1.4818738 0.13522601 -0.0048528314 4294967295
1.482114 0.10501742 -0.0050823689 4294967295
1.4828843 0.074354693 -0.0035815835 4294967295
1.4833286 0.045624744 -0.0035917759 4294967295
1.4848644 0.015030951 -0.0025310516 4294967295
1.490284 -0.015401556 -0.0057181716 4294967295
1.4948953 -0.046811406 -0.007915616 4294967295
1.4926172 -0.074438334 -0.010222018 4294967295
1.4898447 -0.10556729 -0.006775558 4294967295
1.4885446 -0.13487187 -0.0058500767 4294967295
1.4912727 -0.16480654 -0.0049028993 4294967295
1.491341 -0.19532548 -0.0058713555 4294967295
1.4902227 -0.22487904 -0.006552577 4294967295
1.4929785 -0.25482225 -0.0063309073 4294967295
1.4940474 -0.28517225 -0.0068913102 4294967295
1.4941714 -0.31377798 -0.0085120797 4294967295
1.4926317 -0.34353721 -0.01509285 4294967295
1.4941314 -0.37554163 -0.015997231 4294967295
1.4933783 -0.40716857 -0.0086096525 4294967295
1.4915593 -0.43403742 -0.0071567297 4294967295
1.492172 -0.46411821 -0.01096952 4294967295
1.4939152 -0.49487805 -0.012242556 4294967295
1.4913638 -0.5257082 -0.011693835 4294967295
1.4892668 -0.55559725 -0.0092666149 4294967295
1.4923584 -0.5842821 -0.0064371228 4294967295
1.4925003 -0.61452979 -0.010060549 4294967295
1.4891148 -0.64555192 -0.012180388 4294967295
1.4866524 -0.67515177 -0.0078966022 4294967295
1.4892586 -0.70491344 -0.0047293305 4294967295
1.4889891 -0.73447084 -0.0066305995 4294967295
1.4905002 -0.76521856 -0.0078035593 4294967295
1.4920754 -0.79429889 -0.0064712167 4294967295
1.4947599 -0.82465082 -0.0053751469 4294967295
1.4972435 -0.85517883 -0.0066291094 4294967295
1.4935704 -0.8855657 -0.005751133 4294967295
1.4882935 -0.91586256 -0.0063792467 4294967295
1.4808887 -0.9406094 -0.00077801943 4294967295
1.493 1.3248438 -0.024900734 4294967295
1.487875 1.3116676 -0.021723092 4294967295
1.4873613 0.73124081 -0.031078994 4294967295
1.4745456 0.12783991 -0.023450911 4294967295
1.4739165 0.11157455 -0.023632944 4294967295
1.4768333 -0.026982153 -0.021849871 4294967295
1.4786587 -0.046120897 -0.026679039 4294967295
1.4785597 -0.071417198 -0.02332741 4294967295
1.471 -0.090583466 -0.020284295 4294967295
1.4758749 -0.14439376 -0.021642387 4294967295
1.4787201 -0.16544361 -0.023249388 4294967295
1.478238 -0.1922812 -0.022282302 4294967295
1.4765383 -0.25696039 -0.021260917 4294967295
1.4796666 -0.28507686 -0.021747112 4294967295
1.4777648 -0.31466928 -0.020949244 4294967295
1.4779444 -0.34476843 -0.021115243 4294967295
1.48 -0.37557402 -0.023579717 4294967295
1.4778886 -0.40130916 -0.022046328 4294967295
1.4761999 -0.43934566 -0.021960199 4294967295
1.48004 -0.46626666 -0.024008453 4294967295
1.4841087 -0.49621275 -0.027328789 4294967295
1.478652 -0.52047014 -0.023536384 4294967295
1.4751537 -0.5589565 -0.022069871 4294967295
1.4787691 -0.58578235 -0.023261964 4294967295
1.4803334 -0.61436015 -0.022723615 4294967295
1.4766666 -0.63396525 -0.020647109 4294967295
1.471 -0.71857011 -0.020284295 4294967295
1.4756922 -0.79778135 -0.021213353 4294967295
1.4820666 -0.82793522 -0.024793088 4294967295
1.4849494 -0.85482979 -0.024872184 4294967295
1.4814665 -0.88349289 -0.023773551 4294967295
1.4791999 -0.90617692 -0.021575689 4294967295
1.4863808 0.72972608 -0.063544571 4294967295
1.4779999 0.71655101 -0.072583556 4294967295
1.493 0.71517724 -0.080324948 4294967295
1.5200001 -0.92676258 1.3648808 4294967295
1.5152069 -0.92209613 1.3460323 4294967295
1.5160002 -0.91517907 1.3147466 4294967295
1.5146333 -0.91956156 1.2848983 4294967295
1.5166924 -0.92264247 1.2547896 4294967295
1.5128965 -0.9181546 1.2250584 4294967295
1.5134444 -0.91849506 1.1962358 4294967295
1.5133215 -0.91904926 1.1614645 4294967295
1.5206001 -0.93259943 1.1525646 4294967295
1.501 -0.92824918 1.1492903 4294967295
1.5165151 -0.93536901 1.1364758 4294967295
1.5051 -0.92833775 1.1066587 4294967295
1.5212941 -0.93228072 1.1044378 4294967295
1.5189999 0.48957148 1.0712919 4294967295
1.5076667 -0.9294284 1.0727578 4294967295
1.5175004 -0.93209857 1.0759177 4294967295
1.5137501 0.48451641 1.0527694 4294967295
1.5161999 0.47544184 1.0385034 4294967295
1.5134543 -0.92357886 1.0453212 4294967295
1.5148335 0.46847048 1.0244527 4294967295
1.5146579 -0.92168766 1.0154485 4294967295
1.5151786 -0.91577381 0.98647219 4294967295
1.515487 -0.91744214 0.95438504 4294967295
1.5064001 0.77261436 0.91178221 4294967295
1.5105715 -0.92664129 0.93225348 4294967295
1.5204499 -0.93338215 0.92038465 4294967295
1.529 0.8104679 0.88432097 4294967295
1.5161589 0.79357302 0.89786905 4294967295
1.5141667 0.77740586 0.90829414 4294967295
1.529 0.48054656 0.89851117 4294967295
1.5190001 0.47857073 0.89306188 4294967295
1.5139583 -0.92818338 0.89873362 4294967295
1.5191001 -0.9355607 0.88758457 4294967295
1.5190871 0.81607616 0.86326569 4294967295
1.508 0.80749887 0.87581837 4294967295
1.5167501 0.48285368 0.85765052 4294967295
1.5055001 0.47839743 0.86476111 4294967295
1.524 -0.92478538 0.8513062 4294967295
1.5153748 -0.93887419 0.86289364 4294967295
1.5177 0.82259941 0.83813715 4294967295
1.5171113 0.48658362 0.83766145 4294967295
1.5138686 -0.91750586 0.83652145 4294967295
1.5107501 0.81832016 0.80462468 4294967295
1.5208182 0.48534414 0.79961461 4294967295
1.5137879 -0.92006409 0.80554187 4294967295
1.5122223 0.81911767 0.77504814 4294967295
1.5142858 0.48268861 0.77517378 4294967295
1.5141113 -0.92111802 0.77498788 4294967295
1.5126251 0.81669372 0.74484217 4294967295
1.5224615 0.48745549 0.74718547 4294967295
1.5126669 -0.92043811 0.74783337 4294967295
1.5178183 0.81893718 0.71198678 4294967295
1.5195001 0.48166946 0.71870267 4294967295
1.5096668 0.47913542 0.71038449 4294967295
1.5072001 -0.92764419 0.71221709 4294967295
1.5228573 -0.93318075 0.71073675 4294967295
1.5172354 0.82348001 0.68520212 4294967295
1.5174001 0.48205805 0.68368697 4294967295
1.503 0.47934952 0.69330341 4294967295
1.5124786 -0.92831576 0.68600976 4294967295
1.526 -0.93166894 0.68746918 4294967295
1.5142001 0.82509887 0.65701616 4294967295
1.5234287 0.48383862 0.64769173 4294967295
1.5148387 -0.92578542 0.65441066 4294967295
1.529 -0.93137479 0.66792101 4294967295
1.5200769 0.82145405 0.62052286 4294967295
1.5210001 0.48331857 0.62744808 4294967295
1.5132222 -0.92486757 0.62530482 4294967295
1.5173477 0.81421542 0.59804523 4294967295
1.5036001 0.80816656 0.58871478 4294967295
1.5161176 0.48538569 0.59548056 4294967295
1.5140644 -0.92372531 0.59484947 4294967295
1.518 0.81950074 0.56328416 4294967295
1.5071665 0.80821532 0.57430857 4294967295
1.5169545 0.48458603 0.56564295 4294967295
1.5159688 -0.91901946 0.56685686 4294967295
1.518 0.83105576 0.53480661 4294967295
1.523 0.49280924 0.53478104 4294967295
1.5130527 -0.92256886 0.53426838 4294967295
1.52475 0.83120978 0.50300741 4294967295
1.5138216 -0.92110795 0.5046311 4294967295
1.516 0.83422649 0.47420517 4294967295
1.5139999 -0.91694558 0.47503212 4294967295
1.5278 0.84173459 0.44661236 4294967295
1.524 0.83964103 0.4305293 4294967295
1.5139713 -0.91828352 0.44526798 4294967295
1.5165 0.83374095 0.41508859 4294967295
1.5144849 -0.91867435 0.4147951 4294967295
1.519875 0.8307513 0.38273829 4294967295
1.5147777 -0.92126262 0.38486245 4294967295
1.5196365 0.82953596 0.35995108 4294967295
1.511 0.49123576 0.34949875 4294967295
1.5140301 -0.92649066 0.35470209 4294967295
1.5206251 0.49157616 0.32489285 4294967295
1.5143334 -0.92043185 0.32593268 4294967295
1.5144287 0.4890222 0.29356906 4294967295
1.5140715 -0.92113316 0.29499474 4294967295
1.526 0.83720231 0.25692344 4294967295
1.518 0.4810482 0.26357579 4294967295
1.503 0.47934952 0.25042692 4294967295
1.5141515 -0.91730744 0.26408786 4294967295
1.507 0.82677841 0.22348461 4294967295
1.512231 -0.90980941 0.2431249 4294967295
1.518 0.82998872 0.20051041 4294967295
1.5117391 -0.91596198 0.20188659 4294967295
1.5216666 0.83129442 0.17644054 4294967295
1.5145588 -0.91759968 0.17550409 4294967295
1.501 0.82348669 0.15327346 4294967295
1.5072858 -0.89965963 0.1407451 4294967295
1.5159357 -0.90342104 0.14599925 4294967295
1.50675 0.82925326 0.10734573 4294967295
1.518 0.48237124 0.11213765 4294967295
1.5108181 0.46686667 0.10371912 4294967295
1.5232 -0.89744008 0.10191205 4294967295
1.5124112 -0.90698165 0.113397 4294967295
1.5165999 0.83274174 0.080468088 4294967295
1.52475 0.45620751 0.097943336 4294967295
1.5119002 0.43480593 0.09799239 4294967295
1.5144118 0.40463713 0.094407499 4294967295
1.5126668 0.37741807 0.088715613 4294967295
1.52 0.34722498 0.085740864 4294967295
1.513706 0.31519681 0.090892076 4294967295
1.5128571 0.28514943 0.093725383 4294967295
1.5132501 0.25440857 0.093458116 4294967295
1.5131335 0.22605814 0.092508018 4294967295
1.5125716 0.19538307 0.092051148 4294967295
1.51125 0.16902502 0.088096738 4294967295
1.5201668 0.13562019 0.08510384 4294967295
1.5167779 0.10365687 0.088817567 4294967295
1.5125002 0.080276534 0.089647055 4294967295
1.5121363 0.044511043 0.087735116 4294967295
1.5136665 0.016540943 0.087858289 4294967295
1.511889 -0.014358662 0.09254697 4294967295
1.509846 -0.049326584 0.093184263 4294967295
1.5118077 -0.0743412 0.08643356 4294967295
1.5141156 -0.10539396 0.083745718 4294967295
1.5105474 -0.13652292 0.081940889 4294967295
1.508732 -0.16453344 0.081969142 4294967295
1.5077543 -0.1955864 0.081499696 4294967295
1.5068138 -0.22328512 0.084877342 4294967295
1.5088296 -0.25692427 0.083309978 4294967295
1.5089825 -0.28464752 0.081809849 4294967295
1.5115001 -0.31262997 0.088164687 4294967295
1.5099444 -0.34636888 0.087262422 4294967295
1.5066662 -0.37568957 0.08224687 4294967295
1.512839 -0.40555084 0.080024511 4294967295
1.5114586 -0.43477735 0.080445826 4294967295
1.5124656 -0.46509194 0.07984513 4294967295
1.5119032 -0.49581909 0.078996599 4294967295
1.510862 -0.52510297 0.080366611 4294967295
1.5134486 -0.55482066 0.080336809 4294967295
1.51214 -0.58510214 0.080250651 4294967295
1.5088706 -0.61537069 0.081184298 4294967295
1.5105475 -0.64333141 0.083550096 4294967295
1.5114073 -0.67562056 0.081672609 4294967295
1.5135533 -0.70386261 0.079545468 4294967295
1.5164999 -0.73633122 0.075615525 4294967295
1.512333 -0.76564962 0.075768679 4294967295
1.5161704 -0.79571199 0.076765656 4294967295
1.5148928 -0.8254717 0.077852368 4294967295
1.5112722 -0.85526937 0.079323918 4294967295
1.5100677 -0.88557333 0.085998118 4294967295
1.503737 -0.90404671 0.091284752 4294967295
1.5173334 0.83283454 0.053849876 4294967295
1.501 -0.14641078 0.069691628 4294967295
1.501 -0.15163465 0.069691628 4294967295
1.5018531 -0.19940236 0.059748411 4294967295
1.5015621 -0.21592408 0.053956658 4294967295
1.501 -0.26481837 0.069691628 4294967295
1.501 -0.27787802 0.069691628 4294967295
1.5016662 -0.37960193 0.060380578 4294967295
1.5015301 -0.40429732 0.061357796 4294967295
1.5009997 -0.43654254 0.061897457 4294967295
1.5018834 -0.46672034 0.051998794 4294967295
1.5022911 -0.49504501 0.055357695 4294967295
1.5012698 -0.52464658 0.056762338 4294967295
1.5021161 -0.55530185 0.05528143 4294967295
1.5027235 -0.58438957 0.055946797 4294967295
1.5116673 -0.61483532 0.05463931 4294967295
1.5071471 -0.64256269 0.053236634 4294967295
1.5017998 -0.67967826 0.060253769 4294967295
1.5052466 -0.70602518 0.05589959 4294967295
1.5052372 -0.73491544 0.055081755 4294967295
1.503072 -0.76448488 0.05561927 4294967295
1.5084839 -0.7954517 0.054719746 4294967295
1.5038536 -0.82375389 0.055040359 4294967295
1.5011941 -0.85474181 0.055993319 4294967295
1.501353 -0.8760106 0.059957206 4294967295
1.5163332 0.95035523 0.019378841 4294967295
1.5132 0.83298194 0.025695622 4294967295
1.5017903 -0.074735805 0.019374907 4294967295
1.5011176 -0.097354688 0.017823339 4294967295
1.501 -0.29790285 0.010487854 4294967295
1.5009997 -0.3179276 0.0171628 4294967295
1.5014907 -0.34609994 0.024741888 4294967295
1.5016149 -0.37433743 0.022671163 4294967295
1.5010002 -0.39402196 0.016059995 4294967295
1.5012436 -0.44059142 0.024252087 4294967295
1.5079681 -0.46515262 0.024257332 4294967295
1.5091292 -0.49588412 0.024227411 4294967295
1.5037962 -0.52464038 0.025607735 4294967295
1.5060596 -0.55503005 0.024093926 4294967295
1.5058932 -0.58379453 0.024550825 4294967295
1.5114273 -0.61446434 0.024395138 4294967295
1.5108922 -0.64415729 0.025597364 4294967295
1.5061042 -0.67447019 0.02282995 4294967295
1.5009996 -0.70667034 0.024635673 4294967295
1.5035512 -0.73724365 0.026407778 4294967295
1.5061924 -0.76524186 0.023932159 4294967295
1.5063521 -0.79406112 0.028724819 4294967295
1.5015496 -0.82380742 0.032425761 4294967295
1.5016171 -0.85521263 0.025342435 4294967295
1.5034521 -0.88039988 0.024530411 4294967295
1.5236667 1.328631 -0.0091200471 4294967295
1.5179567 1.3085327 -0.0084773898 4294967295
1.5133077 1.2809771 -0.013941884 4294967295
1.5110002 1.2536848 -0.016857743 4294967295
1.5156875 1.212419 -0.012287915 4294967295
1.5126926 1.1852797 -0.011148691 4294967295
1.512231 1.1541514 -0.010850012 4294967295
1.5113043 1.1247191 -0.010528266 4294967295
1.5179526 1.093043 -0.011189818 4294967295
1.514923 1.0642813 -0.011387229 4294967295
1.5124 1.0353397 -0.010770619 4294967295
1.5179331 1.007689 -0.01168859 4294967295
1.5144167 0.97457904 -0.011914909 4294967295
1.5146874 0.94807148 -0.0035905242 4294967295
1.5190454 0.8221572 -0.00075054169 4294967295
1.5163747 0.79512733 -0.0056127906 4294967295
1.5149442 0.76578838 -0.0095509291 4294967295
1.5146155 0.73875958 -0.013850927 4294967295
1.501 -0.028873842 4.0113926e-05 4294967295
1.5013078 -0.037252586 -0.0014062524 4294967295
1.5026895 -0.077027917 0.0047473907 4294967295
1.5020001 -0.092492439 0.0084071159 4294967295
1.501 -0.29790285 0.0070052743 4294967295
1.5017501 -0.32135624 0.0028293729 4294967295
1.503788 -0.34630111 -0.00018566847 4294967295
1.5043827 -0.37489066 -0.00060623884 4294967295
1.5016155 -0.39557603 0.0014361143 4294967295
1.501 -0.44504169 0.0061346292 4294967295
1.5063887 -0.46732894 0.0032295585 4294967295
1.5074466 -0.49465799 0.0021345019 4294967295
1.5044166 -0.52459401 0.0034191608 4294967295
1.5046664 -0.55312097 0.0049411654 4294967295
1.5029168 -0.58828753 0.0083854795 4294967295
1.5039283 -0.61576903 0.0050128102 4294967295
1.508689 -0.64612561 0.0022129416 4294967295
1.5053141 -0.67234963 0.0048392415 4294967295
1.501 -0.74715519 0.0070052743 4294967295
1.5010002 -0.75934416 0.0061346292 4294967295
1.5009999 -0.86382151 0.0070052743 4294967295
1.5009999 -0.87426925 0.0070052743 4294967295
1.5246667 1.3558885 -0.027608991 4294967295
1.5149231 1.3386081 -0.023418128 4294967295
1.529 1.2751957 -0.020301938 4294967295
1.5251429 1.2502357 -0.021970689 4294967295
1.5167727 0.73198575 -0.033559382 4294967295
1.5136251 0.7366783 -0.063573897 4294967295
1.51775 0.730555 -0.084988475 4294967295
1.5428206 -0.92342466 1.3711185 4294967295
1.5465488 -0.92029077 1.3439775 4294967295
1.545037 -0.91562486 1.3149121 4294967295
1.5452452 -0.92426783 1.2845204 4294967295
1.5438278 -0.91974342 1.2544924 4294967295
1.5438912 -0.92173159 1.2252707 4294967295
1.5437499 -0.92362791 1.1949614 4294967295
1.5436442 -0.92228562 1.1630902 4294967295
1.5365 -0.93326288 1.1534753 4294967295
1.5502223 -0.92790955 1.1421404 4294967295
1.5418603 -0.93411005 1.1347022 4294967295
1.5510001 -0.9289729 1.0992769 4294967295
1.5408484 -0.93261355 1.1071768 4294967295
1.543345 0.48590469 1.0751867 4294967295
1.5528263 0.47047704 1.067163 4294967295
1.5487498 -0.92744482 1.0741948 4294967295
1.5372381 -0.93265027 1.0775243 4294967295
1.53475 0.48234966 1.0566145 4294967295
1.546959 0.46791962 1.0473248 4294967295
1.5433 -0.92349893 1.0447259 4294967295
1.5369999 0.46879646 1.0270894 4294967295
1.5446409 -0.92341995 1.0156804 4294967295
1.5447367 -0.91697943 0.98378956 4294967295
1.5445163 -0.9167496 0.95314705 4294967295
1.5475 0.48456159 0.912063 4294967295
1.5478945 -0.92307216 0.92579693 4294967295
1.5366999 -0.93249452 0.92359281 4294967295
1.533 0.81080741 0.88171726 4294967295
1.5374818 0.79129964 0.89036381 4294967295
1.545189 0.77135116 0.88941336 4294967295
1.5460001 0.48254743 0.89631689 4294967295
1.5459636 -0.92393738 0.89773375 4294967295
1.5409198 -0.9373368 0.8855778 4294967295
1.5347998 0.81448799 0.86231577 4294967295
1.5440731 0.7953155 0.86522353 4294967295
1.5516251 0.77407682 0.87508225 4294967295
1.5448 0.48801628 0.86621815 4294967295
1.5471458 -0.91877598 0.86188734 4294967295
1.5414876 -0.93982929 0.87055421 4294967295
1.5373727 0.81859851 0.83385539 4294967295
1.5448674 0.79614115 0.83586115 4294967295
1.5424401 0.48876154 0.83313388 4294967295
1.5435625 -0.91634101 0.83540577 4294967295
1.5405804 0.81999165 0.80508971 4294967295
1.5473797 0.79693323 0.80545831 4294967295
1.5444782 0.48663673 0.80712187 4294967295
1.5447854 -0.92022043 0.80480391 4294967295
1.5450525 0.82273626 0.77550399 4294967295
1.549055 0.79562986 0.77572095 4294967295
1.5549167 0.7776019 0.7663337 4294967295
1.5471336 0.48767507 0.77303624 4294967295
1.5445175 -0.92242712 0.77577347 4294967295
1.5445188 0.82047665 0.74619502 4294967295
1.5476347 0.79611617 0.74653178 4294967295
1.55625 0.77796924 0.75631189 4294967295
1.5447894 0.48757359 0.74490237 4294967295
1.5414166 -0.92700291 0.75376612 4294967295
1.5464 -0.93405569 0.74209827 4294967295
1.5407201 0.81867015 0.71388501 4294967295
1.5505853 0.8014459 0.71343815 4294967295
1.5455885 0.48427451 0.71530658 4294967295
1.5465 -0.92947328 0.70190728 4294967295
1.5439258 -0.93659896 0.7128796 4294967295
1.542214 0.82103908 0.68529773 4294967295
1.5507126 0.79819 0.68654042 4294967295
1.5419524 0.4820483 0.68331015 4294967295
1.5491796 -0.92512631 0.68323553 4294967295
1.5360454 -0.93177181 0.68367118 4294967295
1.5411428 0.8233453 0.65419447 4294967295
1.5473996 0.79799861 0.654185 4294967295
1.5358889 0.48191765 0.65988731 4294967295
1.5350001 0.4779799 0.64980698 4294967295
1.545426 -0.92371666 0.65563953 4294967295
1.5359999 -0.93088388 0.66741258 4294967295
1.5345894 0.81835639 0.62720221 4294967295
1.5436093 0.79331177 0.62442476 4294967295
1.5338181 0.48238185 0.62113982 4294967295
1.5366874 0.47761151 0.62586135 4294967295
1.5450926 -0.92772615 0.62454075 4294967295
1.5358 -0.93052435 0.62510443 4294967295
1.5366799 0.81253439 0.59563893 4294967295
1.5459292 0.79308522 0.59570575 4294967295
1.553 0.77995068 0.59097189 4294967295
1.5431874 0.48319581 0.59499037 4294967295
1.549 0.47964445 0.60875881 4294967295
1.5443238 -0.9189195 0.59461838 4294967295
1.54 0.84130996 0.55107409 4294967295
1.5392172 0.81835669 0.56122214 4294967295
1.5476841 0.7955938 0.56587374 4294967295
1.5421035 0.48267686 0.56381965 4294967295
1.549 0.47964445 0.57102239 4294967295
1.5433334 -0.91563153 0.5657658 4294967295
1.5426668 0.84276682 0.54396939 4294967295
1.5435548 0.8253845 0.53498757 4294967295
1.5485598 0.79489738 0.5345273 4294967295
1.5419285 0.48664996 0.53410602 4294967295
1.5465133 -0.92795408 0.53529793 4294967295
1.5376667 -0.9307043 0.53497261 4294967295
1.542073 0.82212102 0.50548649 4294967295
1.5488479 0.79603505 0.5054009 4294967295
1.5476874 0.49437445 0.50599474 4294967295
1.5448002 -0.9202252 0.50386566 4294967295
1.5471877 0.84432459 0.47695756 4294967295
1.5478489 0.82352394 0.47479638 4294967295
1.5468764 0.79445148 0.47339004 4294967295
1.5434821 -0.91509432 0.47415084 4294967295
1.5488096 0.84661043 0.44223911 4294967295
1.5474705 0.8228122 0.44477865 4294967295
1.5443751 0.79351133 0.44545314 4294967295
1.5441295 -0.91773462 0.44507352 4294967295
1.5485295 0.84468699 0.4214994 4294967295
1.5445161 0.8229754 0.41483197 4294967295
1.5468 0.79433078 0.41441542 4294967295
1.5451999 -0.91984743 0.41630697 4294967295
1.538 0.84021741 0.39759159 4294967295
1.5399857 0.82352513 0.38533956 4294967295
1.5434731 0.79305339 0.3850112 4294967295
1.55225 0.77957404 0.38385659 4294967295
1.5449387 -0.92247033 0.38350117 4294967295
1.533 0.8410427 0.34108037 4294967295
1.5403715 0.82348031 0.3549704 4294967295
1.5417751 0.79397839 0.35437033 4294967295
1.5482173 0.77582502 0.35243386 4294967295
1.54685 0.49044323 0.34736872 4294967295
1.5451865 -0.92491579 0.35504022 4294967295
1.533 -0.93025446 0.35352927 4294967295
1.544 0.84229487 0.33740908 4294967295
1.541923 0.82126772 0.32637537 4294967295
1.5404172 0.79507166 0.32413176 4294967295
1.54325 0.77479637 0.32607722 4294967295
1.5464135 0.49070126 0.32603782 4294967295
1.5440195 -0.92145866 0.32434541 4294967295
1.5433332 0.82241935 0.29519641 4294967295
1.5406394 0.79518539 0.29550639 4294967295
1.5437199 0.77500176 0.29455194 4294967295
1.5472308 0.49371508 0.29468569 4294967295
1.5445917 -0.92262948 0.29497245 4294967295
1.5502501 0.84402198 0.26030335 4294967295
1.5458302 0.82262117 0.26523593 4294967295
1.5438528 0.79426354 0.26472917 4294967295
1.5480001 0.77481127 0.26651958 4294967295
1.5438695 0.48349679 0.2669439 4294967295
1.549 0.47892147 0.26158381 4294967295
1.5442454 -0.91947359 0.26622829 4294967295
1.552143 0.84228414 0.2328575 4294967295
1.5466501 0.82384312 0.23470244 4294967295
1.5442291 0.7932092 0.23480538 4294967295
1.5486156 0.77470583 0.23575857 4294967295
1.547857 0.48595476 0.24288794 4294967295
1.5457273 -0.91937852 0.24276876 4294967295
1.5450001 0.8418842 0.2170904 4294967295
1.5443583 0.8261708 0.20442581 4294967295
1.5487571 0.79520726 0.20503926 4294967295
1.5519999 0.77692509 0.20958063 4294967295
1.5427858 -0.9226259 0.19804609 4294967295
1.5450416 0.8227945 0.17553934 4294967295
1.5517238 0.7960555 0.17343631 4294967295
1.5418284 -0.92107892 0.17375973 4294967295
1.5405457 0.82530397 0.14556438 4294967295
1.5478002 0.79353285 0.1449326 4294967295
1.5577499 0.77872205 0.14483166 4294967295
1.5422902 -0.90759909 0.1460788 4294967295
1.5477275 0.84421438 0.10725799 4294967295
1.543873 0.82455349 0.11646011 4294967295
1.5461748 0.79358149 0.11622837 4294967295
1.5552499 0.77837306 0.12468445 4294967295
1.5445 0.48600966 0.10621727 4294967295
1.5418 0.47669014 0.10181591 4294967295
1.5434999 -0.89751029 0.10380441 4294967295
1.5431665 -0.90262383 0.11732346 4294967295
1.5502855 0.84511083 0.082911253 4294967295
1.5486543 0.82338566 0.08460629 4294967295
1.5463055 0.79395407 0.084762692 4294967295
1.5458182 0.46463698 0.097663492 4294967295
1.5403334 0.43585151 0.095423192 4294967295
1.5448499 0.40540883 0.09256798 4294967295
1.5447648 0.37626508 0.084608197 4294967295
1.5460668 0.34528565 0.085117102 4294967295
1.545722 0.31543562 0.089756817 4294967295
1.5442668 0.28468102 0.091837257 4294967295
1.5452801 0.25390503 0.092563361 4294967295
1.5431999 0.2262482 0.090933442 4294967295
1.5434544 0.19404428 0.087886095 4294967295
1.5432856 0.16557768 0.083869338 4294967295
1.5455 0.13788304 0.081442147 4294967295
1.5425714 0.10338512 0.08662796 4294967295
1.5446875 0.07623291 0.08795473 4294967295
1.5453887 0.044670705 0.086858779 4294967295
1.5428889 0.013382478 0.088556975 4294967295
1.539643 -0.014428318 0.091786504 4294967295
1.5403574 -0.042786505 0.091331512 4294967295
1.5424209 -0.077091925 0.087223142 4294967295
1.5439998 -0.10556752 0.086232305 4294967295
1.5447 -0.13477862 0.089928687 4294967295
1.5447501 -0.16322735 0.087489218 4294967295
1.5434668 -0.19413052 0.085611999 4294967295
1.5425 -0.22614866 0.088568717 4294967295
1.5408214 -0.25588286 0.090319425 4294967295
1.5415753 -0.2849201 0.091572493 4294967295
1.5449048 -0.313438 0.091864765 4294967295
1.5446112 -0.34498036 0.087085187 4294967295
1.5436842 -0.37422737 0.086680561 4294967295
1.5397002 -0.40757355 0.088814884 4294967295
1.5431738 -0.43531948 0.089122176 4294967295
1.5450435 -0.4640373 0.088134557 4294967295
1.5418078 -0.49627703 0.085944623 4294967295
1.5432916 -0.52545625 0.088645786 4294967295
1.542269 -0.55478102 0.089526951 4294967295
1.5422798 -0.58520329 0.089522243 4294967295
1.5401201 -0.61425203 0.089984208 4294967295
1.5432941 -0.64392722 0.087973893 4294967295
1.5471876 -0.67500979 0.086355954 4294967295
1.5451428 -0.70644182 0.086337 4294967295
1.5422412 -0.73608923 0.083618194 4294967295
1.542531 -0.76513386 0.08084777 4294967295
1.5431621 -0.79570115 0.084832221 4294967295
1.542722 -0.82497358 0.088415682 4294967295
1.542432 -0.85441297 0.088428319 4294967295
1.5430301 -0.88381261 0.093548357 4294967295
1.5442857 0.84262514 0.058007836 4294967295
1.5429999 0.82600081 0.054993361 4294967295
1.5449864 0.79561424 0.056059361 4294967295
1.5549999 1.1128787 0.010196984 4294967295
1.553 1.1078441 0.010852695 4294967295
1.553 0.99254096 0.014455914 4294967295
1.5422727 0.97626442 0.014701784 4294967295
1.5380769 0.84162855 0.021243274 4294967295
1.5417308 0.82501042 0.025508583 4294967295
1.5461576 0.79655015 0.023819625 4294967295
1.5377498 1.3603201 -0.014918149 4294967295
1.5332857 1.3448392 -0.011651397 4294967295
1.542647 1.3049295 -0.0086261034 4294967295
1.5346667 1.2870376 -0.018743694 4294967295
1.5362501 1.2331148 -0.013944507 4294967295
1.5425911 1.2079111 -0.0071795583 4294967295
1.5461729 1.1853198 -0.0065445304 4294967295
1.5464253 1.1544971 -0.0068089962 4294967295
1.546064 1.1246238 -0.0030630827 4294967295
1.542679 1.0961339 -0.0036395192 4294967295
1.5414321 1.0634027 -0.005825758 4294967295
1.543909 1.0366262 -0.01057303 4294967295
1.5464287 1.0015259 -0.010946453 4294967295
1.5426315 0.97734028 -0.0056918859 4294967295
1.533 0.95841783 -0.0021528602 4294967295
1.54 0.84130996 0.0079686046 4294967295
1.536889 0.82494879 0.0030678511 4294967295
1.5390215 0.79246527 0.0029522777 4294967295
1.5449636 0.76573056 -0.0032359958 4294967295
1.5439812 0.73423547 -0.010702133 4294967295
1.5524285 0.71739298 -0.017257392 4294967295
1.5336001 1.3633654 -0.023346722 4294967295
1.556 1.2904935 -0.022622526 4294967295
1.5474446 1.2757967 -0.024220228 4294967295
1.541 1.2542179 -0.023347437 4294967295
1.542872 0.72769213 -0.035948336 4294967295
1.552875 0.71615386 -0.028067231 4294967295
1.5473527 0.73709953 -0.064508915 4294967295
1.5475416 0.73904341 -0.090726435 4294967295
1.577 -0.92768323 1.3952016 4294967295
1.5890001 -0.93105561 1.3963288 4294967295
1.5736666 -0.92488974 1.3740518 4294967295
1.5725455 -0.91558611 1.3460977 4294967295
1.5732609 -0.92071599 1.3160547 4294967295
1.589 -0.93105561 1.3078468 4294967295
1.5746785 -0.92342204 1.2859876 4294967295
1.5747825 -0.92001361 1.2556438 4294967295
1.5706155 -0.92447782 1.2325659 4294967295
1.5782 -0.93423766 1.2189974 4294967295
1.572125 -0.92707765 1.1872817 4294967295
1.5795 -0.93187809 1.1981857 4294967295
1.5711111 -0.92521477 1.1663201 4294967295
1.5826 -0.93170279 1.1570657 4294967295
1.5599999 -0.92854124 1.1414506 4294967295
1.5754089 -0.93437558 1.1352806 4294967295
1.579 0.48160678 1.0940664 4294967295
1.5599999 -0.92854124 1.1016365 4294967295
1.5769047 -0.93283832 1.1058283 4294967295
1.566 0.48127505 1.0857067 4294967295
1.5679998 0.46308759 1.0737054 4294967295
1.566 -0.92847919 1.0798932 4294967295
1.5789999 -0.93205607 1.0764339 4294967295
1.5617999 0.4557023 1.0519428 4294967295
1.5701175 -0.92619729 1.0462527 4294967295
1.5875714 -0.93126863 1.0445724 4294967295
1.5714614 -0.92580712 1.0105232 4294967295
1.581 -0.93107575 1.0214164 4294967295
1.5756363 -0.9202137 0.98597717 4294967295
1.5747038 -0.91575956 0.95405674 4294967295
1.5752858 0.4872528 0.91675723 4294967295
1.5734998 -0.91927642 0.92679369 4294967295
1.5710001 0.76072466 0.88156408 4294967295
1.5748887 0.48765337 0.89404035 4294967295
1.5737498 -0.92557657 0.89406633 4294967295
1.586 -0.93113422 0.8923794 4294967295
1.5745555 0.78629088 0.85985744 4294967295
1.5731665 0.77103502 0.87400365 4294967295
1.5715001 0.49298677 0.86070478 4294967295
1.5735219 -0.91751963 0.86698639 4294967295
1.5734499 0.79130262 0.83576232 4294967295
1.569 0.48947769 0.83380222 4294967295
1.5745198 -0.91992277 0.83393198 4294967295
1.5728078 0.78861541 0.80366838 4294967295
1.5786667 0.49003866 0.8064242 4294967295
1.5740001 -0.91847366 0.80441356 4294967295
1.5714444 0.78271019 0.78545314 4294967295
1.5715714 0.77553666 0.77030182 4294967295
1.5788889 0.4925628 0.77528918 4294967295
1.5731851 -0.92149746 0.77669704 4294967295
1.581 -0.93186808 0.76282465 4294967295
1.5734825 0.79009306 0.74145615 4294967295
1.5743332 0.77542275 0.75509119 4294967295
1.5724546 0.48889104 0.74277222 4294967295
1.5760714 -0.94333088 0.74742615 4294967295
1.5732142 0.79181314 0.71478581 4294967295
1.5806251 0.77593201 0.70409036 4294967295
1.5664285 0.48504114 0.71517408 4294967295
1.5745714 -0.94268388 0.7140817 4294967295
1.5724858 0.78815532 0.68461257 4294967295
1.5798334 0.77599013 0.69635433 4294967295
1.5658 0.48410916 0.69251442 4294967295
1.5730907 -0.92319721 0.68178797 4294967295
1.5775001 -0.9316293 0.69640058 4294967295
1.5747619 0.79347551 0.65616906 4294967295
1.5728947 -0.92314249 0.65584314 4294967295
1.587 -0.93172252 0.64407986 4294967295
1.5723001 0.78635848 0.62614113 4294967295
1.5704373 -0.92721665 0.62157416 4294967295
1.581 -0.93186229 0.62755257 4294967295
1.5746152 0.78573871 0.59167773 4294967295
1.574156 -0.91388631 0.59524143 4294967295
1.5719999 0.78850842 0.56388539 4294967295
1.5746189 -0.9160018 0.5636043 4294967295
1.5734375 0.78723919 0.53624034 4294967295
1.569375 0.48595351 0.53524786 4294967295
1.5734375 -0.92715585 0.53532183 4294967295
1.5725 -0.93050593 0.53531176 4294967295
1.5697367 0.78680634 0.50433934 4294967295
1.5777142 0.48905283 0.50266105 4294967295
1.5753702 -0.91912007 0.50710511 4294967295
1.5654705 0.85010147 0.46697032 4294967295
1.5703888 0.78745627 0.47879925 4294967295
1.5754073 -0.91576505 0.47503129 4294967295
1.5655788 0.84993571 0.44912821 4294967295
1.5732499 0.78828192 0.44405082 4294967295
1.574348 -0.91816604 0.44361573 4294967295
1.5721999 0.78666383 0.41530028 4294967295
1.5749567 -0.92169863 0.41450673 4294967295
1.5731249 0.78457314 0.3856644 4294967295
1.5599999 0.77984679 0.37050435 4294967295
1.5753571 -0.92395407 0.38587195 4294967295
1.577 0.78468621 0.36339849 4294967295
1.562 0.77903223 0.36124545 4294967295
1.571 0.48790908 0.34611997 4294967295
1.5736666 -0.92286468 0.35392451 4294967295
1.5739499 0.48845086 0.32371283 4294967295
1.5741153 -0.92344022 0.32491189 4294967295
1.5727417 0.49062636 0.29501405 4294967295
1.5731876 -0.92142308 0.29408401 4294967295
1.56925 0.48318163 0.27040684 4294967295
1.5599999 0.47943109 0.26192039 4294967295
1.5725652 -0.91919118 0.26746389 4294967295
1.5599999 0.8486166 0.22572574 4294967295
1.57925 0.48900548 0.24224976 4294967295
1.571 -0.92597616 0.24552062 4294967295
1.58 -0.93492949 0.23481253 4294967295
1.562 0.78265631 0.19273147 4294967295
1.5625 0.77837616 0.1962485 4294967295
1.5745001 -0.93717194 0.19925049 4294967295
1.562923 0.78409433 0.18221512 4294967295
1.5599999 0.77984679 0.16419479 4294967295
1.566 -0.9266625 0.16645971 4294967295
1.5803334 -0.93575311 0.17300332 4294967295
1.5650001 0.77871525 0.13582021 4294967295
1.571 -0.91751826 0.1441218 4294967295
1.585 -0.93238938 0.15849277 4294967295
1.5717498 0.78388327 0.11382586 4294967295
1.5599999 0.77984679 0.11714172 4294967295
1.5749333 -0.90940762 0.11354083 4294967295
1.5645214 0.84997481 0.085667938 4294967295
1.5715555 0.78540885 0.085190862 4294967295
1.5793333 0.48535806 0.097491741 4294967295
1.5688572 0.46397725 0.094583422 4294967295
1.5671999 0.43545827 0.094202667 4294967295
1.5743999 0.40529329 0.088579327 4294967295
1.5799999 0.37739125 0.078984052 4294967295
1.5758748 0.34351584 0.083803922 4294967295
1.5787499 0.31486106 0.086658865 4294967295
1.574375 0.28473738 0.089696765 4294967295
1.579 0.25629961 0.0902538 4294967295
1.5712856 0.22665849 0.087670922 4294967295
1.5707142 0.19377975 0.083662063 4294967295
1.5842001 0.17075628 0.077811748 4294967295
1.582 0.13202867 0.074755281 4294967295
1.5734999 0.10109814 0.083561093 4294967295
1.5744287 0.071057305 0.084192097 4294967295
1.5840001 0.04394437 0.081542701 4294967295
1.5764285 0.015258336 0.084689856 4294967295
1.5746 -0.0092690093 0.087797999 4294967295
1.5633334 -0.079349853 0.087263316 4294967295
1.573 -0.10477617 0.086726725 4294967295
1.5763999 -0.13327488 0.08950904 4294967295
1.5845001 -0.16560711 0.083239555 4294967295
1.5624001 -0.19408777 0.083896607 4294967295
1.5696667 -0.23142566 0.086736053 4294967295
1.5735999 -0.25424275 0.08880794 4294967295
1.5741111 -0.28317153 0.091584384 4294967295
1.5723333 -0.31570354 0.090856552 4294967295
1.5752001 -0.34773025 0.084709436 4294967295
1.5780001 -0.36932305 0.081997037 4294967295
1.5699999 -0.4117561 0.085417956 4294967295
1.5882 -0.44049394 0.08406502 4294967295
1.5814 -0.46607736 0.085206658 4294967295
1.5782856 -0.49373111 0.083651096 4294967295
1.575 -0.52454001 0.085662693 4294967295
1.570125 -0.55387861 0.089026302 4294967295
1.5662857 -0.58600247 0.090080172 4294967295
1.5657501 -0.61408758 0.090227157 4294967295
1.5714285 -0.64418185 0.087110996 4294967295
1.5843334 -0.67101431 0.081450433 4294967295
1.5765998 -0.73869091 0.083591044 4294967295
1.5717 -0.76336491 0.082403094 4294967295
1.5743847 -0.79349142 0.083650112 4294967295
1.5749333 -0.82534468 0.08893013 4294967295
1.5703075 -0.85757297 0.091227502 4294967295
1.5724999 -0.88557822 0.092487812 4294967295
1.5792501 -0.90334928 0.098433405 4294967295
1.5725198 0.78608638 0.055841118 4294967295
1.564 1.0031998 0.010875106 4294967295
1.5749998 0.789042 0.024504989 4294967295
1.589 1.3215493 -0.012010098 4294967295
1.5737498 1.3129541 -0.012827814 4294967295
1.5670525 1.1805981 0.00051748753 4294967295
1.5656666 1.1586543 0.00095540285 4294967295
1.57725 1.0626842 -0.0073848367 4294967295
1.5778698 1.033239 -0.011134028 4294967295
1.5666499 1.0087174 -0.0048798919 4294967295
1.5741112 0.78322816 0.0071892738 4294967295
1.5740769 0.76522857 0.00016289949 4294967295
1.5743202 0.73364413 -0.0091363788 4294967295
1.56725 0.71800923 -0.016544044 4294967295
1.5778888 1.3013068 -0.025566876 4294967295
1.5742857 1.2811252 -0.024289429 4294967295
1.563 0.72150695 -0.04682219 4294967295
1.575128 0.71175826 -0.033869684 4294967295
1.5720291 0.72704536 -0.066820621 4294967295
1.5810001 0.71881044 -0.051511168 4294967295
1.5767344 0.73471677 -0.094422162 4294967295
1.5829999 0.73728818 -0.11388451 4294967295
1.589 0.70401853 -0.11339569 4294967295
1.615 -0.93317175 1.421909 4294967295
1.612 -0.92582083 1.397167 4294967295
1.604762 -0.93211871 1.4059124 4294967295
1.6044394 -0.92191243 1.375595 4294967295
1.597 -0.93018168 1.3877687 4294967295
1.603907 -0.91821575 1.3445544 4294967295
1.6061364 -0.92480832 1.3159033 4294967295
1.5972499 -0.9307887 1.3128653 4294967295
1.604611 -0.92280418 1.284961 4294967295
1.6045628 -0.92666274 1.2548233 4294967295
1.6 -0.93007642 1.2427676 4294967295
1.6121175 -0.92874515 1.2279704 4294967295
1.6020467 -0.93522322 1.2244884 4294967295
1.6104866 -0.92534924 1.1933786 4294967295
1.5990475 -0.93269211 1.1985259 4294967295
1.6108888 -0.92725521 1.16821 4294967295
1.6003702 -0.93275529 1.1615102 4294967295
1.6144001 -0.92945415 1.1249142 4294967295
1.603375 -0.93526536 1.1363282 4294967295
1.608 0.48299032 1.1046097 4294967295
1.6 0.47316286 1.0942767 4294967295
1.6103889 -0.9242698 1.1025728 4294967295
1.5980715 -0.93291563 1.1065634 4294967295
1.6119165 -0.92702228 1.0767354 4294967295
1.6000607 -0.93335903 1.0760705 4294967295
1.6106249 -0.92830384 1.0508988 4294967295
1.6032593 -0.93236679 1.0414197 4294967295
1.6065385 -0.92639863 1.0104672 4294967295
1.6010001 -0.93249846 1.0226645 4294967295
1.6029677 -0.9221831 0.98495513 4294967295
1.6160001 0.50039083 0.94254482 4294967295
1.6036218 -0.91767615 0.95368016 4294967295
1.6053334 0.48909378 0.92432368 4294967295
1.6038721 -0.92113519 0.92447329 4294967295
1.6030771 0.49351871 0.89453709 4294967295
1.6068571 -0.9263683 0.89509928 4294967295
1.5968332 -0.93100864 0.8970868 4294967295
1.6029285 0.78720635 0.85981691 4294967295
1.6014999 0.77364653 0.86928606 4294967295
1.6029999 0.49635011 0.86497647 4294967295
1.6035558 -0.92179149 0.86418641 4294967295
1.6030624 0.79507756 0.83571088 4294967295
1.6018 0.49263072 0.8366276 4294967295
1.6042085 -0.92063004 0.83477753 4294967295
1.6037142 0.79038423 0.80577791 4294967295
1.5999999 0.49418741 0.79910761 4294967295
1.602826 -0.91681397 0.80488563 4294967295
1.6047693 0.7824409 0.78090858 4294967295
1.60025 0.77814662 0.76855642 4294967295
1.6073846 0.49628216 0.77532935 4294967295
1.6049795 -0.92139202 0.77671069 4294967295
1.5990909 -0.9332459 0.76340199 4294967295
1.5995554 0.78915703 0.73947954 4294967295
1.598 0.77844644 0.75431502 4294967295
1.6038823 0.49203134 0.74630129 4294967295
1.6153334 -0.92899281 0.75747454 4294967295
1.6074779 -0.94747561 0.7452808 4294967295
1.5979999 0.78946686 0.7229743 4294967295
1.5910001 0.77688682 0.70898849 4294967295
1.5998461 0.48966941 0.71446764 4294967295
1.6055816 -0.94490504 0.71544343 4294967295
1.601613 0.78827983 0.67780697 4294967295
1.6010001 0.77451825 0.68692917 4294967295
1.598 0.48924762 0.69312751 4294967295
1.6044117 -0.92374814 0.68200696 4294967295
1.6002222 -0.93265617 0.69626355 4294967295
1.6062504 0.79584199 0.65687442 4294967295
1.6036665 -0.92577714 0.66253126 4294967295
1.605294 -0.93313611 0.64791465 4294967295
1.6029999 0.7957567 0.62486833 4294967295
1.6056665 -0.92465019 0.61552942 4294967295
1.6032307 -0.93450671 0.62946975 4294967295
1.6041175 0.79378915 0.59548676 4294967295
1.6037436 -0.91419613 0.59643227 4294967295
1.6049999 0.79692739 0.56448954 4294967295
1.6042272 -0.91787016 0.56412745 4294967295
1.6041905 0.79341757 0.53429258 4294967295
1.6041033 -0.92357004 0.53613895 4294967295
1.6028 0.79379463 0.50585037 4294967295
1.604 0.49295351 0.50398529 4294967295
1.603579 -0.92018759 0.50662535 4294967295
1.6052728 0.79535306 0.47502339 4294967295
1.6041429 -0.91703844 0.47607267 4294967295
1.6058096 0.79581577 0.44754687 4294967295
1.6037208 -0.91983634 0.44610113 4294967295
1.6025455 0.79603833 0.42053148 4294967295
1.6035001 -0.9237169 0.4141413 4294967295
1.6046667 0.79286259 0.37553787 4294967295
1.6058519 -0.92296177 0.38536614 4294967295
1.6071428 0.79221511 0.36278081 4294967295
1.599 0.4889366 0.34327215 4294967295
1.6028293 -0.92416829 0.35452762 4294967295
1.6021429 0.48519689 0.32464984 4294967295
