# .PCD v0.7 - Point Cloud Data file format
VERSION 0.7
FIELDS x y z rgb
SIZE 4 4 4 4
TYPE F F F U
COUNT 1 1 1 1
WIDTH 1149
HEIGHT 1
VIEWPOINT 0 0 0 1 0 0 0
POINTS 1149
DATA ascii
2.6280003 -0.90753335 0.83521515 4294967295
2.6251383 2.2326646 0.80407906 4294967295
2.6375 2.2149885 0.80575502 4294967295
2.6340001 0.51004577 0.8023237 4294967295
2.628 0.50888395 0.8169241 4294967295
2.63625 -0.89784932 0.81326401 4294967295
2.6280625 -0.91143364 0.80168676 4294967295
2.620857 2.2535586 0.77094299 4294967295
2.6329353 2.236269 0.77510977 4294967295
2.6389999 2.218291 0.77734733 4294967295
2.6285 0.51354861 0.7773428 4294967295
2.629214 -0.92442077 0.77654099 4294967295
2.6239047 2.2541411 0.74369168 4294967295
2.636095 2.2384133 0.74677122 4294967295
2.6389999 2.2193115 0.75693762 4294967295
2.62975 0.52447218 0.74695581 4294967295
2.6273999 -0.92500865 0.7461375 4294967295
2.6276498 2.2554724 0.71323568 4294967295
2.6389999 2.2453339 0.71560788 4294967295
2.628 0.53327358 0.72546297 4294967295
2.6294999 -0.91690284 0.70574975 4294967295
2.6276498 2.2554762 0.68276209 4294967295
2.6380908 2.2452545 0.68340933 4294967295
2.6389999 0.5416286 0.67121661 4294967295
2.6205001 0.53783172 0.68534786 4294967295
2.6289229 -0.91727507 0.68564928 4294967295
2.6268573 -0.93752491 0.67312735 4294967295
2.628684 2.2558827 0.65296447 4294967295
2.6389999 2.2481768 0.65547192 4294967295
2.6353333 0.54494953 0.65877765 4294967295
2.6322 -0.95417887 0.65859199 4294967295
2.6285 -0.96564692 0.64804155 4294967295
2.6290586 2.2572176 0.62579125 4294967295
2.6205001 0.54999167 0.624542 4294967295
2.6378462 -0.95053524 0.62360322 4294967295
2.6295791 -0.97303206 0.62411427 4294967295
2.6230001 -0.99223006 0.61552751 4294967295
2.6259336 2.2529838 0.60020149 4294967295
2.636091 2.2457671 0.59210294 4294967295
2.628 0.55156583 0.59741741 4294967295
2.6389999 -0.92787462 0.59467995 4294967295
2.63448 -0.94461483 0.59761202 4294967295
2.6305194 -0.97371948 0.59750277 4294967295
2.6302171 -1.0033219 0.5964191 4294967295
2.6255002 -1.0236367 0.58820343 4294967295
2.6312222 2.2390194 0.56715637 4294967295
2.6259999 0.54505324 0.57604885 4294967295
2.6291428 0.52564704 0.5686965 4294967295
2.6291666 0.49588722 0.55882055 4294967295
2.638 0.46797141 0.55486768 4294967295
2.6389999 0.4375388 0.55488092 4294967295
2.6389999 0.40692416 0.55488092 4294967295
2.6389999 0.37018657 0.55488092 4294967295
2.6315999 0.34472826 0.55478311 4294967295
2.6273334 0.31165597 0.55574721 4294967295
2.6294284 0.28603706 0.55912298 4294967295
2.6340001 0.25336996 0.5609262 4294967295
2.6328001 0.22271736 0.56090754 4294967295
2.628 0.19486742 0.56083292 4294967295
2.628 0.16742907 0.56083292 4294967295
2.6301427 0.13444714 0.5591324 4294967295
2.6273334 0.10845932 0.55574721 4294967295
2.628 0.075967968 0.55473554 4294967295
2.6292002 0.045496117 0.5547514 4294967295
2.6364999 0.024215166 0.5548479 4294967295
2.6389999 -0.20230739 0.55488092 4294967295
2.6340001 -0.22331375 0.55481482 4294967295
2.6389999 -0.2451679 0.55488092 4294967295
2.6364999 -0.4773837 0.5548479 4294967295
2.6304002 -0.49763417 0.55476725 4294967295
2.628 -0.52767545 0.55473554 4294967295
2.6324999 -0.55606955 0.55479503 4294967295
2.6389999 -0.5849905 0.55488092 4294967295
2.6285 -0.85555136 0.55627143 4294967295
2.6272223 -0.88377917 0.56015396 4294967295
2.6295331 -0.91681147 0.56819534 4294967295
2.6253335 -0.94234288 0.57551688 4294967295
2.6139998 -0.97366434 0.57881021 4294967295
2.6200001 -1.0063026 0.57894516 4294967295
2.6229999 -1.0257077 0.57901269 4294967295
2.6294544 2.2367597 0.53701043 4294967295
2.61675 0.46116638 0.54851556 4294967295
2.6159999 0.43373013 0.54850733 4294967295
2.6146667 0.40114343 0.54849285 4294967295
2.615 0.3728942 0.54849648 4294967295
2.6129999 0.35441419 0.54847467 4294967295
2.622 0.011898178 0.54857272 4294967295
2.6294 -0.015490747 0.5449996 4294967295
2.6304002 -0.046024982 0.54256129 4294967295
2.6264999 -0.078454904 0.54354835 4294967295
2.6252222 -0.10751486 0.54591334 4294967295
2.6234446 -0.1358463 0.54522038 4294967295
2.626333 -0.16307171 0.5459255 4294967295
2.6256669 -0.19517392 0.54861271 4294967295
2.6129999 -0.22456463 0.54847467 4294967295
2.6262002 -0.25313577 0.5486185 4294967295
2.626889 -0.28501412 0.54592896 4294967295
2.6304998 -0.31254429 0.54765493 4294967295
2.6340001 -0.34554031 0.54870349 4294967295
2.6265001 -0.37274158 0.54482394 4294967295
2.628 -0.40572733 0.54254073 4294967295
2.6277502 -0.43845445 0.54483324 4294967295
2.6262002 -0.46636456 0.5486185 4294967295
2.6129999 -0.48222539 0.54847467 4294967295
2.6129999 -0.56407052 0.54847467 4294967295
2.615 -0.58574462 0.54849648 4294967295
2.6205001 -0.61432964 0.54855639 4294967295
2.6293333 -0.64588445 0.54764223 4294967295
2.6282001 -0.67407477 0.54254246 4294967295
2.62925 -0.70483834 0.54027653 4294967295
2.6303332 -0.73460937 0.54053986 4294967295
2.6299999 -0.76342529 0.53995132 4294967295
2.6268573 -0.79647678 0.5381856 4294967295
2.6251252 -0.8255232 0.54556072 4294967295
2.6277914 2.228914 0.50647014 4294967295
2.6389999 2.2193115 0.49977455 4294967295
2.6273999 2.2217288 0.48522967 4294967295
2.6275554 2.2171094 0.47242832 4294967295
2.6264827 2.2306082 0.44291872 4294967295
2.6389999 2.2172706 0.44977063 4294967295
2.6242499 2.2559006 0.41220197 4294967295
2.6345832 2.2446206 0.42033637 4294967295
2.6274283 2.2560039 0.3846209 4294967295
2.6389999 2.2499263 0.37425447 4294967295
2.6275001 2.2523036 0.36269808 4294967295
2.6310554 2.244487 0.34960282 4294967295
2.6287584 2.2338059 0.32339847 4294967295
2.6340001 0.87061429 0.31647298 4294967295
2.6365001 0.86226392 0.32239309 4294967295
2.6281559 2.2351148 0.29463327 4294967295
2.6389999 2.2193115 0.30077931 4294967295
2.6389999 0.87226689 0.30077934 4294967295
2.6389999 0.86308247 0.3099637 4294967295
2.6298385 2.2375498 0.26622161 4294967295
2.6310999 2.2378681 0.23673511 4294967295
2.6253002 2.2516298 0.20141351 4294967295
2.6293333 2.2472508 0.21007752 4294967295
2.631 2.2522588 0.18851304 4294967295
2.6289165 2.2423308 0.17556313 4294967295
2.6270003 2.23664 0.14635143 4294967295
2.6231999 2.2522631 0.10550284 4294967295
2.6312668 2.244132 0.11480895 4294967295
2.622478 2.2564518 0.088270694 4294967295
2.6347616 2.2398951 0.080628872 4294967295
2.6277058 2.2338028 0.055695742 4294967295
2.6389999 2.2193115 0.052800655 4294967295
2.6240001 2.2523427 0.014867961 4294967295
2.6322141 2.2377834 0.025860906 4294967295
2.6389999 2.2193115 0.025247455 4294967295
2.6277494 2.2580984 -0.0066843033 4294967295
2.6376207 2.2360859 -0.0056152344 4294967295
2.6389999 2.2170155 -0.0046018362 4294967295
2.6208572 2.2552974 -0.026509225 4294967295
2.625931 2.2328863 -0.035211921 4294967295
2.6357777 2.2125161 -0.034275234 4294967295
2.6257501 2.2218566 -0.069766939 4294967295
2.6289546 2.2155454 -0.062138081 4294967295
2.6287858 2.2255194 -0.095684886 4294967295
2.6389999 2.2193115 -0.084965289 4294967295
2.6306431 2.2279656 -0.12489599 4294967295
2.6205001 2.2189507 -0.13848442 4294967295
2.6340001 2.2212181 -0.14187676 4294967295
2.6286817 2.2108822 -0.15661365 4294967295
2.6276927 2.2289984 -0.19234085 4294967295
2.6310713 2.2139244 -0.17820549 4294967295
2.6237779 2.2572184 -0.22250313 4294967295
2.6294665 2.241365 -0.20906627 4294967295
2.6266427 2.2872419 -0.25102913 4294967295
2.6271112 2.272274 -0.23631459 4294967295
2.628722 2.2984073 -0.27404088 4294967295
2.6315999 2.2887847 -0.2945177 4294967295
2.6275384 2.2645166 -0.29874295 4294967295
2.6268826 2.234189 -0.30464321 4294967295
2.618 2.2198739 -0.31400824 4294967295
2.635 2.2220614 -0.3316465 4294967295
2.6242001 2.216593 -0.33303708 4294967295
2.655 0.73587418 1.9965447 4294967295
2.6586001 -0.89404893 1.9997813 4294967295
2.6538892 0.73829412 1.9726501 4294967295
2.6543 -0.89321941 1.9745919 4294967295
2.6526668 0.74035108 1.9470412 4294967295
2.6535716 -0.89692658 1.9517641 4294967295
2.6544285 -0.90337676 1.9372708 4294967295
2.6539998 0.74175471 1.9159336 4294967295
2.6547694 -0.90971732 1.9153872 4294967295
2.6532724 0.74434245 1.8830839 4294967295
2.661 -0.89856601 1.8702282 4294967295
2.6530001 -0.90980285 1.8866824 4294967295
2.6565554 0.74588597 1.8542672 4294967295
2.65925 -0.89488518 1.8508254 4294967295
2.649857 -0.90270615 1.8549142 4294967295
2.6470001 0.78585607 1.8139925 4294967295
2.6501667 0.75809819 1.8201386 4294967295
2.658 0.74903965 1.8286134 4294967295
2.6569998 -0.89721525 1.8312057 4294967295
2.651 -0.90475279 1.8214133 4294967295
2.6440003 1.9014536 1.7818532 4294967295
2.6527276 1.7222327 1.7910402 4294967295
2.6513851 1.6983176 1.7905748 4294967295
2.6440003 1.6775432 1.7818532 4294967295
2.6515 1.0886338 1.7823526 4294967295
2.6515 1.0701826 1.7823526 4294967295
2.6552498 0.79107159 1.7961392 4294967295
2.6564209 0.7680546 1.8020407 4294967295
2.658 -0.89755297 1.7854548 4294967295
2.6511819 -0.90530473 1.7986952 4294967295
2.6440008 1.9014535 1.7634497 4294967295
2.6440003 1.8704399 1.7579968 4294967295
2.6440003 1.8523773 1.7511806 4294967295
2.6535716 1.7750669 1.7529919 4294967295
2.6535389 1.7555668 1.7636697 4294967295
2.6596 1.7275232 1.7757136 4294967295
2.6573849 1.6936316 1.7678413 4294967295
2.6533754 1.6665418 1.7589864 4294967295
2.651556 1.6378989 1.7540071 4294967295
2.6440003 1.6161978 1.7511806 4294967295
2.6511335 1.1223093 1.7590079 4294967295
2.6563001 1.1023047 1.7760047 4294967295
2.6607499 1.0584872 1.7790376 4294967295
2.653091 1.0330427 1.7755471 4294967295
2.6551664 1.0032027 1.7700468 4294967295
2.6531582 0.97576112 1.7602897 4294967295
2.6505001 0.944592 1.7537609 4294967295
2.650579 0.91298586 1.7565005 4294967295
2.6548123 0.88634664 1.7585083 4294967295
2.6552999 0.85608143 1.7551987 4294967295
2.6520834 0.82325894 1.7534002 4294967295
2.6561818 0.80510557 1.7686095 4294967295
2.6552997 -0.89416796 1.7650659 4294967295
2.6500001 -0.90100002 1.7785684 4294967295
2.6440003 2.0701532 1.720508 4294967295
2.6488001 2.0554688 1.7226874 4294967295
2.6538002 2.0269098 1.7253588 4294967295
2.6492002 1.9949269 1.7265539 4294967295
2.6503639 1.9638876 1.7273074 4294967295
2.6503887 1.9344022 1.7312591 4294967295
2.6508007 1.9044954 1.7356383 4294967295
2.6526823 1.8769208 1.7367507 4294967295
2.6472509 1.8449355 1.7347755 4294967295
2.6475461 1.8115593 1.7243439 4294967295
2.6537063 1.7905357 1.7386659 4294967295
2.6638002 1.6307752 1.7443281 4294967295
2.6530559 1.6073725 1.7348624 4294967295
2.6460004 1.577862 1.7248256 4294967295
2.6440003 1.5425835 1.720508 4294967295
2.6440001 1.5149781 1.720508 4294967295
2.6465716 1.4844255 1.7225518 4294967295
2.6479337 1.4547648 1.7280232 4294967295
2.6503751 1.4240758 1.7287722 4294967295
2.6544671 1.3938957 1.7289444 4294967295
2.6565835 1.3639759 1.7395681 4294967295
2.6546156 1.3312967 1.7433145 4294967295
2.6543846 1.3032429 1.7346864 4294967295
2.6527505 1.2753271 1.7298504 4294967295
2.6526673 1.2440027 1.7359225 4294967295
2.655 1.2131128 1.7342422 4294967295
2.650059 1.185161 1.7312075 4294967295
2.6519132 1.1515292 1.7331858 4294967295
2.6578331 1.1333708 1.7442559 4294967295
2.6659999 0.96778923 1.7490537 4294967295
2.6634998 0.94525832 1.7479012 4294967295
2.6626666 0.92333043 1.747517 4294967295
2.6643333 0.82397592 1.7472545 4294967295
2.655143 -0.89658082 1.7387644 4294967295
2.6553333 -0.90075147 1.7256414 4294967295
2.6489451 2.2003551 1.7036264 4294967295
2.655226 2.176307 1.7053157 4294967295
2.6541433 2.1431799 1.7074972 4294967295
2.6533337 2.1155586 1.7080173 4294967295
2.6540005 2.0861778 1.7120371 4294967295
2.6581821 2.0554492 1.7179701 4294967295
2.6623335 2.026835 1.7185314 4294967295
2.6610003 1.9912866 1.7141023 4294967295
2.6614501 1.965867 1.7117471 4294967295
2.6606665 1.9338611 1.7107183 4294967295
2.6587596 1.9047866 1.7067174 4294967295
2.6558571 1.8747677 1.7051995 4294967295
2.6534238 1.8442928 1.7029887 4294967295
2.6539524 1.8175557 1.710357 4294967295
2.6606002 1.5998008 1.7101331 4294967295
2.6547923 1.5740231 1.7056252 4294967295
2.6537673 1.5441667 1.7041887 4294967295
2.6550002 1.5147108 1.707541 4294967295
2.6564167 1.4856179 1.7081513 4294967295
2.6588333 1.4569799 1.7138691 4294967295
2.6605 1.4256608 1.7187341 4294967295
2.6659999 1.202841 1.7181258 4294967295
2.6589231 1.1816115 1.7135118 4294967295
2.6596363 1.1618181 1.7141365 4294967295
2.661 -0.89856601 1.6973569 4294967295
2.65575 -0.90217543 1.7073605 4294967295
2.6524005 2.1973231 1.6753829 4294967295
2.6574287 2.1890001 1.6790453 4294967295
2.6660001 1.9853163 1.6810124 4294967295
2.6645718 1.9025609 1.6839217 4294967295
2.6637142 1.8772266 1.6861936 4294967295
2.6660001 1.8585119 1.6871979 4294967295
2.6508751 -0.89744747 1.6744256 4294967295
2.6500001 -0.90100002 1.6863415 4294967295
2.6527829 2.1998417 1.6439391 4294967295
2.6571667 -0.89829397 1.6483804 4294967295
2.6512501 -0.90142506 1.6407521 4294967295
2.6490002 2.2233262 1.6051197 4294967295
2.6547396 2.2105706 1.6166447 4294967295
2.655 0.60651302 1.6023014 4294967295
2.6440001 0.57946205 1.6100863 4294967295
2.6659999 0.54098451 1.6005999 4294967295
2.6552 0.53385705 1.6097783 4294967295
2.6615715 -0.89699167 1.6129165 4294967295
2.6505833 -0.90529275 1.6138207 4294967295
2.6521502 2.2275913 1.5829817 4294967295
2.6618338 2.218955 1.5865592 4294967295
2.6596 0.5458566 1.5856444 4294967295
2.6592498 -0.8964287 1.5916905 4294967295
2.6516874 -0.90694416 1.5840205 4294967295
2.6502278 2.2295799 1.5556351 4294967295
2.6606927 2.2138059 1.5538181 4294967295
2.6500001 0.5438863 1.5633725 4294967295
2.6500001 0.53158939 1.5449271 4294967295
2.6535001 -0.91018605 1.5573635 4294967295
2.6464002 2.2243023 1.5349381 4294967295
2.6558151 2.2048957 1.5252653 4294967295
2.6637778 2.1790292 1.5166098 4294967295
2.6552501 -0.89661449 1.5161545 4294967295
2.654 -0.90389711 1.5295445 4294967295
2.6515834 2.1975908 1.4978623 4294967295
2.6611538 2.1787977 1.4955711 4294967295
2.6524999 -0.88830298 1.4960468 4294967295
2.6533532 2.1980534 1.4614706 4294967295
2.6580911 2.1832168 1.474046 4294967295
2.652154 -0.88846886 1.4643399 4294967295
2.6508002 2.2218478 1.4259191 4294967295
2.6558673 2.2129393 1.4366806 4294967295
2.655875 -0.8945204 1.4385893 4294967295
2.6528952 2.2147818 1.403828 4294967295
2.6573997 0.53183669 1.4059777 4294967295
2.6513 -0.89835781 1.4070177 4294967295
2.6529174 2.208168 1.3737037 4294967295
2.658 0.64420038 1.3722718 4294967295
2.654 0.52006996 1.3725078 4294967295
2.6545999 -0.88653821 1.3717853 4294967295
2.6531253 2.2257888 1.3426046 4294967295
2.6551249 2.2112918 1.3551638 4294967295
2.6500001 0.64226151 1.3543251 4294967295
2.6539998 0.51268148 1.344501 4294967295
2.661 0.50910008 1.3330925 4294967295
2.6659999 -0.86932653 1.3562698 4294967295
2.6544287 -0.87961906 1.3442795 4294967295
2.6563573 2.2281737 1.3153801 4294967295
2.655 0.72355402 1.3004589 4294967295
2.655 0.69275373 1.318939 4294967295
2.655 0.50795215 1.318939 4294967295
2.6570833 -0.89312792 1.315959 4294967295
2.652786 2.2242963 1.285301 4294967295
2.6626668 2.2144992 1.2738812 4294967295
2.6558752 -0.89220411 1.2845372 4294967295
2.6531851 2.2314532 1.252264 4294967295
2.6573 2.2060261 1.2558217 4294967295
2.6575003 2.179368 1.2514849 4294967295
2.6560001 -0.89225233 1.2552996 4294967295
2.6564445 2.2596481 1.225203 4294967295
2.6628575 2.2375963 1.2356837 4294967295
2.6591432 2.2040801 1.2298353 4294967295
2.6562352 2.1790543 1.2304813 4294967295
2.6440001 -0.89895999 1.2358799 4294967295
2.6552861 -0.90719223 1.2222083 4294967295
2.6547 2.258369 1.2024384 4294967295
2.6547697 2.2306638 1.1899993 4294967295
2.6605003 2.215781 1.184792 4294967295
2.6545999 -0.91918427 1.1950152 4294967295
2.6540005 2.2083042 1.1653764 4294967295
2.661 -0.89856601 1.1540473 4294967295
2.6539998 -0.91229922 1.1646979 4294967295
2.6544001 2.1983755 1.1339977 4294967295
2.6534617 -0.89364141 1.1323637 4294967295
2.6470001 -0.90458089 1.1445664 4294967295
2.6551306 2.2012479 1.1044321 4294967295
2.6555002 -0.89360869 1.1061757 4294967295
2.6500001 -0.90100002 1.0960901 4294967295
2.6518104 2.2004724 1.0774441 4294967295
2.6600003 2.179601 1.0684984 4294967295
2.6568947 -0.89002502 1.0722866 4294967295
2.6500001 -0.90100002 1.0837932 4294967295
2.6470003 2.1922576 1.058589 4294967295
2.6557083 2.1778841 1.0464945 4294967295
2.661 -0.86769617 1.0305676 4294967295
2.6521251 -0.88209546 1.0457873 4294967295
2.6531248 2.1973219 1.0098164 4294967295
2.652 2.1871634 1.0244424 4294967295
2.6569998 -0.86639178 1.0174663 4294967295
2.6504669 -0.87655437 1.0137751 4294967295
2.6478889 2.2288246 0.97480649 4294967295
2.6532941 2.2106786 0.98707616 4294967295
2.6537144 -0.89346176 0.99398208 4294967295
2.6520002 -0.9041366 0.97838134 4294967295
2.6500003 2.2293196 0.95621198 4294967295
2.6579375 2.2113328 0.9552139 4294967295
2.6552002 -0.91199851 0.95552868 4294967295
2.6460001 2.2251937 0.93560207 4294967295
2.6534402 2.2058253 0.92495227 4294967295
2.6585715 0.51656049 0.92612165 4294967295
2.6552 -0.92494321 0.92841697 4294967295
2.6553333 -0.93155563 0.91447425 4294967295
2.65465 2.1973469 0.89384526 4294967295
2.6539998 0.51391858 0.89375913 4294967295
2.6559999 -0.93282092 0.8919782 4294967295
2.6550004 2.1971838 0.86141473 4294967295
2.655 2.1896467 0.87233508 4294967295
2.651 0.51179129 0.86563963 4294967295
2.661 0.50910008 0.85152245 4294967295
2.6559999 -0.92152345 0.86322761 4294967295
2.6551819 2.2020948 0.83623004 4294967295
2.655 0.50795215 0.83537483 4294967295
2.6551998 -0.89412534 0.82737958 4294967295
2.6533334 -0.90623617 0.84030831 4294967295
2.6536958 2.2083602 0.80697256 4294967295
2.6659999 0.51005661 0.79647517 4294967295
2.655 0.50795215 0.81073463 4294967295
2.6529999 -0.89200819 0.81205153 4294967295
2.64975 -0.90551937 0.79632711 4294967295
2.6521819 2.212477 0.77602172 4294967295
2.6522498 0.51511329 0.77350825 4294967295
2.6545 -0.91946667 0.77833986 4294967295
2.651706 2.2278075 0.74070311 4294967295
2.6558888 2.2156985 0.75365376 4294967295
2.655 0.52335227 0.75221407 4294967295
2.6525002 -0.926467 0.74585283 4294967295
2.6547084 2.2368608 0.71497512 4294967295
2.6572001 -0.9194743 0.71172464 4294967295
2.6534736 2.2402151 0.68435717 4294967295
2.661 -0.89856601 0.68482518 4294967295
2.6542222 -0.91062754 0.68098146 4294967295
2.6542001 2.2517936 0.64499307 4294967295
2.6564615 2.2463081 0.65561688 4294967295
2.6554 0.54745394 0.64997691 4294967295
2.6631112 -0.92467612 0.65542918 4294967295
2.6524167 -0.94206083 0.65198308 4294967295
2.64925 2.2530231 0.62519264 4294967295
2.6573079 2.2446592 0.62057847 4294967295
2.6584001 0.55177826 0.62297171 4294967295
2.6659999 -0.89406884 0.61400074 4294967295
2.6581538 -0.91608709 0.62084758 4294967295
2.6482725 -0.93727458 0.62762254 4294967295
2.6538334 2.234838 0.59509981 4294967295
2.6647499 0.55309618 0.59541303 4294967295
2.6616666 -0.89261156 0.59532779 4294967295
2.6508505 -0.91357648 0.59501719 4294967295
2.649688 2.2229114 0.56808621 4294967295
2.6590588 2.2100422 0.56639725 4294967295
2.6500001 0.5438863 0.57962012 4294967295
2.6575556 0.52487302 0.57636917 4294967295
2.6560001 0.49316946 0.56567365 4294967295
2.6598001 0.46566662 0.56132704 4294967295
2.6598001 0.43481344 0.56132704 4294967295
2.66225 0.40741643 0.56136513 4294967295
2.6542857 0.37672189 0.55948865 4294967295
2.6512501 0.34422824 0.56119418 4294967295
2.6524999 0.31565958 0.56327122 4294967295
2.6539998 0.28608707 0.56739467 4294967295
2.6529999 0.25519064 0.56737679 4294967295
2.652 0.2243429 0.56735897 4294967295
2.6529999 0.19365044 0.56737679 4294967295
2.6545713 0.16031194 0.56917214 4294967295
2.659143 0.13503687 0.5692538 4294967295
2.652 0.10620214 0.56244296 4294967295
2.6552501 0.074437827 0.56357592 4294967295
2.6552856 0.048600782 0.56302422 4294967295
2.6552 0.015162055 0.55756694 4294967295
2.6634998 -0.0064356928 0.55520475 4294967295
2.6643331 -0.083702289 0.55521578 4294967295
2.655 -0.10497312 0.55509239 4294967295
2.655 -0.13269335 0.55509239 4294967295
2.655 -0.1634936 0.55509239 4294967295
2.6544285 -0.19337338 0.5586105 4294967295
2.6560001 -0.22517894 0.56358761 4294967295
2.6524999 -0.25564766 0.55814171 4294967295
2.655 -0.28669468 0.55509239 4294967295
2.655 -0.31749493 0.55509239 4294967295
2.6537499 -0.34505698 0.55507588 4294967295
2.6607499 -0.37066597 0.55516839 4294967295
2.6606667 -0.44162807 0.55516732 4294967295
2.6528573 -0.46584404 0.55770975 4294967295
2.6544282 -0.4969061 0.56301087 4294967295
2.654 -0.52364433 0.56432742 4294967295
2.6526668 -0.55005699 0.5632742 4294967295
2.6585999 -0.58317524 0.56130838 4294967295
2.6483998 -0.61163276 0.55624229 4294967295
2.652 -0.64325708 0.55505276 4294967295
2.6634998 -0.6676715 0.55520475 4294967295
2.6552 -0.83252305 0.55632985 4294967295
2.6557779 -0.85503972 0.56538129 4294967295
2.6541426 -0.88480675 0.57312238 4294967295
2.6474288 -0.90801704 0.57692921 4294967295
2.6507649 2.2244952 0.53550321 4294967295
2.6607502 2.2139339 0.53921491 4294967295
2.648 -0.021759529 0.54885608 4294967295
2.6539998 -0.046430472 0.54892147 4294967295
2.6470001 -0.073942393 0.54884517 4294967295
2.6440001 -0.38365936 0.54881251 4294967295
2.6500001 -0.40297535 0.54887789 4294967295
2.648 -0.4272418 0.54885608 4294967295
2.6485 -0.67620379 0.5488615 4294967295
2.6607499 -0.7040292 0.54899502 4294967295
2.6620002 -0.73213911 0.54900867 4294967295
2.6551666 -0.76413381 0.54791176 4294967295
2.654 -0.79461354 0.54431009 4294967295
2.6525002 -0.81875139 0.54890513 4294967295
2.6530559 2.2232499 0.50787807 4294967295
2.661 2.219291 0.49651897 4294967295
2.6500001 2.2224138 0.48739335 4294967295
2.6547275 2.2118015 0.47361666 4294967295
2.6470001 2.222965 0.43215683 4294967295
2.6553714 2.2047131 0.44384885 4294967295
2.6647499 2.186866 0.44238964 4294967295
2.6553335 2.2515216 0.40107614 4294967295
2.6530499 2.2378812 0.41594678 4294967295
2.6606665 2.2128313 0.42553008 4294967295
2.6538827 2.2528183 0.38447767 4294967295
2.6634998 2.2522748 0.36672455 4294967295
2.6533337 2.2436621 0.35294098 4294967295
2.6500001 0.85130894 0.34597895 4294967295
2.6540668 2.2274547 0.32600981 4294967295
2.661 2.219291 0.31438673 4294967295
2.650667 2.2219419 0.29366559 4294967295
2.6577272 2.2123349 0.29501611 4294967295
2.6496665 0.87373924 0.28656888 4294967295
2.6520002 0.85954523 0.29553142 4294967295
2.6483533 2.2235522 0.26584905 4294967295
2.660105 2.211061 0.26411119 4294967295
2.655 0.87139529 0.27789003 4294967295
2.655 0.85907519 0.27789003 4294967295
2.6485002 2.2259779 0.23238978 4294967295
2.6552174 2.2082944 0.2358166 4294967295
2.6561668 2.2522261 0.19458541 4294967295
2.6555626 2.2409117 0.2112214 4294967295
2.6572499 2.2523742 0.17981049 4294967295
2.6553333 2.2453606 0.16388434 4294967295
2.6536429 2.2443686 0.14344388 4294967295
2.661 2.2501609 0.11373255 4294967295
2.6546667 2.2468464 0.1136789 4294967295
2.6545002 2.2328925 0.085339636 4294967295
2.6634998 2.2182832 0.073182344 4294967295
2.6512501 2.2219222 0.064474612 4294967295
2.6556954 2.2108266 0.052796245 4294967295
2.6504376 2.2058499 0.026955128 4294967295
2.659091 2.1874042 0.020637423 4294967295
2.6501005 2.2030022 -0.0043032765 4294967295
2.6588333 2.1886883 0.0019977689 4294967295
2.6555655 2.2034895 -0.034777522 4294967295
2.6526318 2.20841 -0.065898895 4294967295
2.6534166 2.2262869 -0.10057855 4294967295
2.6567142 2.2148147 -0.086824059 4294967295
2.6560712 2.2318971 -0.12585115 4294967295
2.6561999 2.2226753 -0.14375407 4294967295
2.6542001 2.2058096 -0.15803003 4294967295
2.6440001 2.2235165 -0.19960034 4294967295
2.6536429 2.2012534 -0.18595374 4294967295
2.6565001 2.1893404 -0.17989177 4294967295
2.6500001 2.2531562 -0.22582716 4294967295
2.6532502 2.2322018 -0.21658909 4294967295
2.6611905 2.2053201 -0.21134132 4294967295
2.6525002 2.2845032 -0.25576198 4294967295
2.6529334 2.265476 -0.2401917 4294967295
2.6659999 2.2420175 -0.23239207 4294967295
2.6565204 2.2936871 -0.27819586 4294967295
2.655 2.2728074 -0.28883487 4294967295
2.648 2.2883139 -0.2928462 4294967295
2.6558888 2.2636216 -0.29389447 4294967295
2.6518998 2.2387643 -0.3063466 4294967295
2.6533334 2.2279372 -0.33277488 4294967295
2.661 2.2316389 -0.35240251 4294967295
2.688 0.73878396 2.0211339 4294967295
2.6989999 -0.89261138 2.027277 4294967295
2.6911998 0.73966342 2.004168 4294967295
2.6808748 -0.88972062 2.0047164 4294967295
2.6829 -0.89101189 1.9778111 4294967295
2.671 0.74030876 1.9434713 4294967295
2.6833999 -0.89740437 1.9550481 4294967295
2.6833999 -0.90363032 1.93887 4294967295
2.6768 0.74191636 1.9154987 4294967295
2.6812856 -0.90629208 1.9142714 4294967295
2.6819999 0.7433576 1.8871065 4294967295
2.6889999 -0.89677751 1.8806758 4294967295
2.6767499 -0.90232533 1.8906444 4294967295
2.687 0.74562871 1.8549014 4294967295
2.6822498 -0.89328706 1.8561013 4294967295
2.6837499 0.7531715 1.8132613 4294967295
2.6813335 0.74835026 1.830766 4294967295
2.6814287 -0.89834833 1.8281472 4294967295
2.6710002 -0.90194285 1.8195277 4294967295
2.6710002 1.7256597 1.7823447 4294967295
2.6821427 1.0901141 1.782264 4294967295
2.6865997 1.0687338 1.7822186 4294967295
2.6850998 0.79218102 1.7871248 4294967295
2.6848462 0.76618356 1.7970176 4294967295
2.6854284 -0.89701533 1.7962853 4294967295
2.671 -0.90194285 1.8071334 4294967295
2.6823335 1.779647 1.7545048 4294967295
2.6842358 1.7554241 1.7669692 4294967295
2.6817148 1.7257419 1.765743 4294967295
2.6808462 1.6951634 1.7573183 4294967295
2.6878572 1.6634914 1.7546628 4294967295
2.6841815 1.1215903 1.7653443 4294967295
2.6824999 1.1044799 1.7784376 4294967295
2.6852498 1.0541983 1.7781589 4294967295
2.6852355 1.0334059 1.7685254 4294967295
2.6761665 1.0092567 1.7578715 4294967295
2.671 0.98509723 1.7513587 4294967295
2.679857 0.90885842 1.7518802 4294967295
2.6816249 0.88480496 1.7570236 4294967295
2.6843748 0.85690314 1.7536191 4294967295
2.6786668 0.81079829 1.7548894 4294967295
2.6847141 0.80461431 1.7665716 4294967295
2.6851664 -0.89426649 1.760976 4294967295
2.6710002 2.0417156 1.7203729 4294967295
2.6710002 2.0262229 1.7203729 4294967295
2.6878889 1.8086227 1.7272615 4294967295
2.6784286 1.7925977 1.742349 4294967295
2.6990001 1.6560798 1.7454807 4294967295
2.6845832 1.6394559 1.7332001 4294967295
2.6853182 1.3919266 1.7273564 4294967295
2.6883636 1.3671408 1.7434789 4294967295
2.6839998 1.3359797 1.7372136 4294967295
2.684083 1.3075137 1.7272705 4294967295
2.6833634 1.2751864 1.730446 4294967295
2.6816998 1.2453806 1.7326341 4294967295
2.6794999 1.2229118 1.7249482 4294967295
2.6816249 1.147666 1.7298007 4294967295
2.6786668 1.1360422 1.7445337 4294967295
2.6870713 1.0333452 1.7324852 4294967295
2.6753919 1.0014259 1.7336874 4294967295
2.6827826 0.97494906 1.7381024 4294967295
2.6802499 0.94497287 1.7447243 4294967295
2.6786664 0.9247334 1.7465994 4294967295
2.6824999 0.84307796 1.7473183 4294967295
2.6855457 0.82277858 1.7393476 4294967295
2.688 0.80738676 1.7467227 4294967295
2.678 -0.89809316 1.7390413 4294967295
2.688 -0.90144676 1.7248945 4294967295
2.6808002 2.1735892 1.6936662 4294967295
2.6838334 2.1459296 1.6960229 4294967295
2.6878505 2.1169255 1.7017372 4294967295
2.6887505 2.0851376 1.708046 4294967295
2.6847827 2.0568454 1.7075887 4294967295
2.6786506 2.0258169 1.705161 4294967295
2.6722 1.9992346 1.7023122 4294967295
2.671 1.9659724 1.6983386 4294967295
2.671 1.9394624 1.6986829 4294967295
2.6935003 1.8620529 1.6929883 4294967295
2.6845832 1.8418576 1.6979226 4294967295
2.6804445 1.8195069 1.7107891 4294967295
2.6959999 1.7543263 1.7003368 4294967295
2.6941111 1.7259964 1.6988124 4294967295
2.6990001 1.7061769 1.6953834 4294967295
2.6902144 1.6319635 1.7062478 4294967295
2.6803575 1.6073217 1.6974669 4294967295
2.6783638 1.5750391 1.6926001 4294967295
2.6853635 1.5440363 1.6956661 4294967295
2.6861107 1.5165654 1.6994519 4294967295
2.6860769 1.4860926 1.7007649 4294967295
2.6835909 1.4541597 1.7050669 4294967295
2.6865909 1.4254588 1.711774 4294967295
2.684 1.4060839 1.717909 4294967295
2.6871428 1.2097017 1.71336 4294967295
2.6829998 1.186011 1.7045772 4294967295
2.6855998 1.1618291 1.7113435 4294967295
2.6861579 1.0331814 1.7035477 4294967295
2.6758933 1.003085 1.7028216 4294967295
2.6886919 0.98465848 1.7067156 4294967295
2.6868 -0.89853942 1.6987833 4294967295
2.6795001 -0.90169483 1.7148576 4294967295
2.6846876 2.1958127 1.6735624 4294967295
2.6860003 2.1840081 1.6876281 4294967295
2.6990001 2.1022573 1.6750315 4294967295
2.6901 2.0844052 1.6759156 4294967295
2.6792505 2.0554054 1.6728033 4294967295
2.6783707 2.0233912 1.6709585 4294967295
2.6790006 1.9954392 1.6751652 4294967295
2.6787817 1.9650836 1.6776096 4294967295
2.6812699 1.9370886 1.6790156 4294967295
2.6818824 1.907266 1.6769301 4294967295
2.682267 1.8760529 1.6831063 4294967295
2.6710002 1.8558004 1.6893871 4294967295
2.6990004 1.7500118 1.6891214 4294967295
2.6916926 1.7241244 1.6825769 4294967295
2.6939166 1.6998216 1.6811833 4294967295
2.6990001 1.6034778 1.687869 4294967295
2.6904998 1.5821779 1.6885508 4294967295
2.6989999 1.0267346 1.6891214 4294967295
2.6898749 1.0037503 1.6875021 4294967295
2.6861997 -0.89771199 1.6742091 4294967295
2.6855001 2.2054427 1.6467601 4294967295
2.6990001 2.1006918 1.6578107 4294967295
2.69275 2.0817664 1.654385 4294967295
2.6853848 2.0555806 1.6544508 4294967295
2.6822503 2.0347404 1.658522 4294967295
2.688 -0.89644212 1.6438034 4294967295
2.688 2.2230823 1.6095256 4294967295
2.67875 2.2138901 1.6181952 4294967295
2.6989999 0.61656445 1.6202378 4294967295
2.6989999 0.54141873 1.6077135 4294967295
2.6859999 0.53360522 1.6149365 4294967295
2.6830716 -0.89088017 1.6146103 4294967295
2.6805003 2.2225838 1.5872965 4294967295
2.6935003 2.2182677 1.5711191 4294967295
2.6837502 0.54458636 1.5906804 4294967295
2.6811998 -0.89542711 1.5930668 4294967295
2.6867998 -0.90603083 1.5765989 4294967295
2.6822631 2.2062078 1.5537995 4294967295
2.6935003 2.1807711 1.5430032 4294967295
2.6819999 0.53800851 1.5697489 4294967295
2.6836247 -0.90852195 1.5547911 4294967295
2.6710002 2.1935465 1.5344577 4294967295
2.6815238 2.1703043 1.5262973 4294967295
2.6740003 2.158782 1.5169847 4294967295
2.684571 -0.89226985 1.5218021 4294967295
2.677 -0.90396893 1.5367365 4294967295
2.683737 2.1710553 1.4966778 4294967295
2.6816249 -0.88374364 1.4949372 4294967295
2.6990001 2.2259345 1.4511601 4294967295
2.6848183 2.2045889 1.4621215 4294967295
2.6766002 2.1838572 1.4719961 4294967295
2.6828887 -0.88658297 1.4677176 4294967295
2.6873002 2.22562 1.4327791 4294967295
2.6740003 2.2115207 1.4456336 4294967295
2.6989999 0.53515661 1.4323736 4294967295
2.6815715 -0.89572912 1.4380326 4294967295
2.6880002 2.2230866 1.4114916 4294967295
2.6795003 2.2160594 1.3993516 4294967295
2.6896667 0.53123176 1.4084361 4294967295
2.6804998 -0.89788783 1.4053814 4294967295
2.682909 2.2103901 1.3754228 4294967295
2.6813335 0.51712394 1.3766196 4294967295
2.6819999 -0.86832106 1.3643999 4294967295
2.6843748 -0.88153338 1.3791615 4294967295
2.6840005 2.22983 1.3429866 4294967295
2.6780002 2.2148225 1.3553715 4294967295
2.674 0.5115872 1.3525786 4294967295
2.6819999 -0.86832106 1.3581772 4294967295
2.6815715 -0.8761766 1.3438181 4294967295
2.6851001 2.2375081 1.3149104 4294967295
2.6989999 0.74180722 1.3133929 4294967295
2.6822498 -0.89095998 1.3193418 4294967295
2.6807141 2.2268307 1.2893603 4294967295
2.6862001 2.2066214 1.2803402 4294967295
2.6916668 2.1824074 1.2737665 4294967295
2.671 0.74030876 1.298965 4294967295
2.6862855 -0.89106816 1.2856119 4294967295
2.6806471 2.1756577 1.2556667 4294967295
2.6810002 -0.89411044 1.257102 4294967295
2.6776154 2.2589481 1.222996 4294967295
2.6785336 2.2368152 1.2216077 4294967295
2.6826925 2.2043095 1.2166617 4294967295
2.6816251 2.1820405 1.2289526 4294967295
2.684 -0.91047919 1.2259408 4294967295
2.6710002 2.2524197 1.2060074 4294967295
2.6771669 2.2317305 1.2034529 4294967295
2.6868236 2.2173383 1.1946678 4294967295
2.6837499 -0.91713125 1.1929228 4294967295
2.6838181 2.2111335 1.1657033 4294967295
2.6849999 -0.89419472 1.1566446 4294967295
2.6777999 -0.90547341 1.1692317 4294967295
2.6839089 2.2027192 1.1317594 4294967295
2.6828887 -0.8886531 1.135041 4294967295
2.6827147 2.1973615 1.1054256 4294967295
2.6865003 2.1875556 1.0931115 4294967295
2.6871998 -0.88620269 1.1048095 4294967295
2.6710002 2.190448 1.088261 4294967295
2.6836669 2.1732285 1.0752342 4294967295
2.6856999 -0.88071752 1.0757895 4294967295
2.6989999 2.1977551 1.0347277 4294967295
2.6802726 2.1776881 1.0455706 4294967295
2.6904998 -0.86794192 1.0330968 4294967295
2.6800001 -0.87387866 1.0478809 4294967295
2.6815996 2.2047329 1.0158496 4294967295
2.6795001 -0.86594617 1.02168 4294967295
2.6795001 -0.8737222 1.0061413 4294967295
2.6989999 2.2259345 0.98463058 4294967295
2.6786249 2.2161155 0.9850086 4294967295
2.6821427 -0.89146829 0.99283946 4294967295
2.6837502 -0.9046827 0.97888207 4294967295
2.6823077 2.2121532 0.95375454 4294967295
2.6953335 0.51566869 0.94961292 4294967295
2.6841667 -0.91468894 0.95300663 4294967295
2.6832724 2.206156 0.92447305 4294967295
2.6889999 0.51445699 0.92365217 4294967295
2.6777999 -0.92535961 0.93065214 4294967295
2.6935 -0.93453807 0.91493422 4294967295
2.6841667 2.2007065 0.89487827 4294967295
2.6807501 0.5128786 0.89441609 4294967295
2.6824 -0.93565804 0.89773357 4294967295
2.6845999 2.1966009 0.86609137 4294967295
2.6730001 0.51139593 0.87162757 4294967295
2.6857998 -0.92188805 0.8633281 4294967295
2.6825449 2.1970623 0.83440214 4294967295
2.6989999 0.51010799 0.83747029 4294967295
2.6786668 -0.89416748 0.83300823 4294967295
2.68225 -0.90572548 0.84483182 4294967295
2.6853333 2.2113218 0.80637527 4294967295
2.671 0.51101327 0.79079652 4294967295
2.671 -0.89264709 0.80628955 4294967295
2.6823332 -0.90784025 0.79401129 4294967295
2.6989999 2.2259345 0.77171779 4294967295
2.679857 2.2163594 0.77393293 4294967295
2.6849999 0.51681 0.77663136 4294967295
2.6803334 -0.91751051 0.78345823 4294967295
2.6933334 -0.9323929 0.76806486 4294967295
2.6853635 2.2265577 0.74241936 4294967295
2.6746666 2.2162035 0.75599992 4294967295
2.688 0.52673888 0.75510037 4294967295
2.6817999 2.2384951 0.71660078 4294967295
2.677 -0.91639113 0.70444953 4294967295
2.6819999 -0.93054807 0.72968483 4294967295
2.6989999 2.2541142 0.68717891 4294967295
2.679111 2.2440591 0.68732107 4294967295
2.6710002 0.54199916 0.67924738 4294967295
2.6834443 -0.89505994 0.6806764 4294967295
2.676667 -0.90592206 0.68995333 4294967295
2.6844997 2.2544541 0.65202171 4294967295
2.6764998 2.2477365 0.66715544 4294967295
2.683857 0.54459888 0.65153289 4294967295
2.6898634 -0.89127553 0.65456027 4294967295
2.6770525 -0.91313225 0.65443516 4294967295
2.688 2.2532215 0.62931156 4294967295
2.6787498 2.2449574 0.61677831 4294967295
2.6804998 0.54703474 0.62383735 4294967295
2.6926315 0.52993613 0.62135261 4294967295
2.684696 -0.88677078 0.62481636 4294967295
2.6722 -0.90606636 0.63220096 4294967295
2.6826921 2.2301745 0.59615314 4294967295
2.684 2.2177124 0.58245933 4294967295
2.6747499 0.54586214 0.59569776 4294967295
2.6816816 0.52464545 0.59448278 4294967295
2.6903501 0.49785343 0.59052753 4294967295
2.6948748 0.46790558 0.58297801 4294967295
2.6989999 0.3065885 0.58072251 4294967295
2.6989996 0.28198719 0.58251172 4294967295
2.6990001 0.25544766 0.58072251 4294967295
2.6989999 0.23144279 0.58072251 4294967295
2.6989999 0.18447675 0.58072251 4294967295
2.6925714 0.1626288 0.58236706 4294967295
2.6904736 0.13231121 0.58974701 4294967295
2.6943076 0.10721508 0.58784056 4294967295
2.6907499 0.074650809 0.5805369 4294967295
2.6935 0.049726408 0.58059877 4294967295
2.6967998 -0.1973426 0.58067304 4294967295
2.6949997 -0.22279716 0.58575612 4294967295
2.6953335 -0.2431083 0.58272743 4294967295
2.6919999 -0.86530292 0.58213061 4294967295
2.6832943 -0.87861073 0.59356576 4294967295
2.6833634 2.210757 0.56508398 4294967295
2.675 0.49108881 0.57294327 4294967295
2.6784444 0.46409756 0.57129133 4294967295
2.6811666 0.43934008 0.56892347 4294967295
2.6849999 0.40935948 0.56639898 4294967295
2.6864998 0.37373832 0.56797504 4294967295
2.6796665 0.34585303 0.56889671 4294967295
2.6851666 0.3153908 0.57211322 4294967295
2.6807499 0.28586036 0.57409215 4294967295
2.678 0.2576001 0.57403666 4294967295
2.6800001 0.22670217 0.57407701 4294967295
2.6790001 0.19554819 0.57405686 4294967295
2.675 0.17042808 0.57397616 4294967295
2.6730001 0.12687866 0.57393575 4294967295
2.6758571 0.1039581 0.57133746 4294967295
2.6788571 0.080094025 0.57228333 4294967295
2.6828747 0.044088677 0.57180792 4294967295
2.6846001 0.015332581 0.56421214 4294967295
2.6849999 -0.017365158 0.55705446 4294967295
2.6867998 -0.047003422 0.55551273 4294967295
2.6865001 -0.075080127 0.55863982 4294967295
2.6831999 -0.10296977 0.56169063 4294967295
2.6864998 -0.13662031 0.56409019 4294967295
2.6908178 -0.16683574 0.56579399 4294967295
2.683727 -0.19525421 0.57020032 4294967295
2.6788571 -0.22711679 0.57228333 4294967295
2.6822855 -0.25496614 0.56880003 4294967295
2.6846001 -0.28367522 0.56171238 4294967295
2.6843998 -0.31477407 0.56170928 4294967295
2.6843998 -0.34593213 0.56170928 4294967295
2.68925 -0.3761611 0.56023532 4294967295
2.6733997 -0.40653372 0.55533564 4294967295
2.68225 -0.43590716 0.5585773 4294967295
2.6841667 -0.46422935 0.56482822 4294967295
2.6847141 -0.49457321 0.57151055 4294967295
2.6819999 -0.52607268 0.57411736 4294967295
2.6781425 -0.55726689 0.57138163 4294967295
2.6909997 -0.5831449 0.57073551 4294967295
2.678 -0.61379272 0.56317538 4294967295
2.6790001 -0.64359021 0.56162536 4294967295
2.687 -0.67770517 0.55968159 4294967295
2.6925712 -0.70217603 0.55827278 4294967295
2.6901429 -0.73631293 0.55734611 4294967295
2.6851997 -0.76343507 0.55861497 4294967295
2.6894283 -0.79495233 0.55733663 4294967295
2.6868181 -0.8245278 0.56118935 4294967295
2.6822855 -0.85327947 0.57234687 4294967295
2.6837502 2.2226703 0.52590418 4294967295
2.6822724 2.2138176 0.54074216 4294967295
2.674 -0.79438347 0.54913938 4294967295
2.6835382 2.2265761 0.50614119 4294967295
2.688 2.2230823 0.48692578 4294967295
2.6805382 2.2078254 0.47075212 4294967295
2.6836247 2.1937664 0.44650251 4294967295
2.676667 2.1868105 0.4404878 4294967295
2.6989999 2.250983 0.4053826 4294967295
2.6789999 2.2373879 0.4114148 4294967295
2.6822219 2.2058494 0.42268896 4294967295
2.6839998 2.2577622 0.38671625 4294967295
2.6819999 2.2492504 0.39988184 4294967295
2.6864998 2.2576807 0.358374 4294967295
2.6764998 2.2477365 0.34733731 4294967295
2.6819999 0.85536611 0.34387755 4294967295
2.6798182 2.2315822 0.32423484 4294967295
2.6840398 2.2041044 0.29293162 4294967295
2.6797142 0.8501811 0.2889657 4294967295
2.6841664 2.206754 0.26623645 4294967295
2.671 0.85185796 0.27643096 4294967295
2.6812997 2.2088385 0.23506531 4294967295
2.6823332 2.2515571 0.19449237 4294967295
2.6818666 2.2375035 0.20325288 4294967295
2.6843998 2.2163646 0.21542335 4294967295
2.6864002 2.2562413 0.17654237 4294967295
2.6803334 2.2478395 0.16364092 4294967295
2.6907501 2.2534447 0.13886869 4294967295
2.6791816 2.2474399 0.14910248 4294967295
2.6827497 2.2550483 0.11561036 4294967295
2.6989999 2.2541142 0.095406681 4294967295
2.6845882 2.2319715 0.083199501 4294967295
2.6904998 2.2189047 0.071784019 4294967295
2.6842501 2.2097006 0.054765433 4294967295
2.6883333 2.1947658 0.027425796 4294967295
2.6767499 2.1873972 0.021275461 4294967295
2.6838996 2.1947844 -0.00620085 4294967295
2.677 2.1891575 0.0088067055 4294967295
2.6833127 2.2024696 -0.036364496 4294967295
2.6830001 2.2104969 -0.066146314 4294967295
2.6888332 2.2300014 -0.10261393 4294967295
2.6833999 2.2167821 -0.087036192 4294967295
2.6835833 2.2381063 -0.12527961 4294967295
2.6860001 2.2307761 -0.14559537 4294967295
2.6809165 2.2078927 -0.16143787 4294967295
2.6830771 2.194587 -0.18436718 4294967295
2.677 2.1891575 -0.18373734 4294967295
2.6815624 2.1959662 -0.21680701 4294967295
2.677 2.1891575 -0.21479279 4294967295
2.674 2.2828648 -0.25739831 4294967295
2.6874163 2.2651899 -0.25142789 4294967295
2.6776998 2.2332046 -0.23797673 4294967295
2.6856999 2.2074602 -0.23650092 4294967295
2.6840625 2.2910507 -0.27704847 4294967295
2.6904998 2.2813289 -0.29340738 4294967295
2.682375 2.2627833 -0.30106288 4294967295
2.6786668 2.2443762 -0.31675541 4294967295
2.6989999 2.250983 -0.33041888 4294967295
2.6830771 2.2381611 -0.33952361 4294967295
2.6884441 2.2352259 -0.35793114 4294967295
2.7165999 -0.88834119 2.0282755 4294967295
2.704 0.74318147 1.9924269 4294967295
2.712286 -0.8898105 2.0068073 4294967295
2.704 0.74318147 1.9736058 4294967295
2.7154999 -0.89649004 1.976634 4294967295
2.7160001 -0.90453529 1.9611518 4294967295
2.7088001 0.74450076 1.9447449 4294967295
2.7096665 -0.90660846 1.9452306 4294967295
2.7160001 0.74647963 1.9170408 4294967295
2.721 -0.89988726 1.900673 4294967295
2.7107997 -0.90656763 1.9206319 4294967295
2.7179999 0.7470293 1.8865314 4294967295
2.71 -0.89624935 1.8856668 4294967295
2.704 -0.90053874 1.8983207 4294967295
2.721 0.74785388 1.8691071 4294967295
2.7112503 -0.89666277 1.8548188 4294967295
2.7142501 0.75386459 1.8201063 4294967295
2.704 0.74945521 1.8324465 4294967295
2.721 -0.89988726 1.8122884 4294967295
2.704 -0.90053874 1.8261727 4294967295
2.7185001 1.1161516 1.782715 4294967295
2.7125001 1.0924375 1.7862146 4294967295
2.7142498 1.0718846 1.7838826 4294967295
2.7155557 0.79326779 1.7886893 4294967295
2.717 0.76881289 1.7993548 4294967295
2.7080002 -0.89558792 1.7935575 4294967295
2.7185004 1.8036506 1.7543347 4294967295
2.7133081 1.7830009 1.7621396 4294967295
2.7135005 1.7544583 1.7601442 4294967295
2.7178752 1.7267822 1.7579894 4294967295
2.7137146 1.6947861 1.7611467 4294967295
2.7160003 1.6759633 1.7563503 4294967295
2.7185001 1.144532 1.7574854 4294967295
2.7129998 1.1264902 1.7738581 4294967295
2.71575 1.0575261 1.7664673 4294967295
2.7039998 1.0443211 1.7602984 4294967295
2.7185001 0.93323171 1.7543347 4294967295
2.7116663 0.91619444 1.7564713 4294967295
2.7105715 0.88423938 1.7606087 4294967295
2.7136667 0.86336499 1.7542313 4294967295
2.7112858 0.80538481 1.7654327 4294967295
2.7132001 -0.89730763 1.7707897 4294967295
2.7163503 1.8107237 1.7328681 4294967295
2.7193336 1.7821225 1.7332661 4294967295
2.7189415 1.7544056 1.7382123 4294967295
2.72 1.7345967 1.7272491 4294967295
2.7210002 1.6822051 1.7239038 4294967295
2.7161005 1.6697288 1.7343367 4294967295
2.7141001 1.3901532 1.7258838 4294967295
2.7129092 1.3667651 1.7328899 4294967295
2.7117276 1.3349932 1.728367 4294967295
2.7115712 1.304283 1.7287163 4294967295
2.7154286 1.2746446 1.7358316 4294967295
2.711875 1.2439812 1.7285076 4294967295
2.7117779 1.1535838 1.7330966 4294967295
2.714875 1.061129 1.7353554 4294967295
2.7108335 0.97147614 1.7351249 4294967295
2.7132001 0.94589579 1.7481426 4294967295
2.7142 0.84799814 1.7435517 4294967295
2.7132001 0.82250082 1.7324038 4294967295
2.7119999 0.80830336 1.7450818 4294967295
2.7156665 -0.90442425 1.7372806 4294967295
2.7100005 2.1736915 1.6907356 4294967295
2.7108574 2.1494551 1.6915569 4294967295
2.7040005 2.1133666 1.6956789 4294967295
2.7040002 2.0983098 1.7006979 4294967295
2.7165003 1.8716518 1.6935471 4294967295
2.7142501 1.8441169 1.7075366 4294967295
2.7191117 1.8121063 1.7132475 4294967295
2.7125335 1.7839652 1.7016827 4294967295
2.7070003 1.7575552 1.7066957 4294967295
2.7129002 1.721875 1.7121381 4294967295
2.7152779 1.6933542 1.7042322 4294967295
2.7116113 1.6659253 1.7015724 4294967295
2.7066672 1.6370554 1.6924361 4294967295
2.7136669 1.5695778 1.6933721 4294967295
2.7140002 1.5465317 1.7001122 4294967295
2.7160001 1.5152729 1.7027869 4294967295
2.717875 1.4824216 1.6996591 4294967295
2.7143569 1.4545172 1.6962123 4294967295
2.7143571 1.4261733 1.7052115 4294967295
2.7151542 1.3989642 1.7135564 4294967295
2.721 1.3744373 1.7160124 4294967295
2.7140002 1.2119037 1.7082071 4294967295
2.7163751 1.1814492 1.704522 4294967295
2.7125001 1.164023 1.7138495 4294967295
2.7156 1.062035 1.7070111 4294967295
2.7148333 1.0369549 1.691777 4294967295
2.7160001 0.99539226 1.6901838 4294967295
2.7132001 0.9830265 1.7021922 4294967295
2.721 -0.89988726 1.6954944 4294967295
2.704 -0.90053874 1.7101085 4294967295
2.7140913 2.2034535 1.6767608 4294967295
2.7161431 2.1770253 1.6857358 4294967295
2.7193336 2.1417561 1.677946 4294967295
2.7080004 2.1202629 1.6790503 4294967295
2.7185004 2.0527983 1.6628747 4294967295
2.7157142 2.0236802 1.6684538 4294967295
2.7154288 1.9946626 1.6674291 4294967295
2.7105005 1.9649833 1.6664257 4294967295
2.7148752 1.9342971 1.6739509 4294967295
2.7155004 1.9016739 1.6813004 4294967295
2.7040002 1.8787287 1.6850135 4294967295
2.7136672 1.7500793 1.6818254 4294967295
2.7140005 1.7250901 1.6743557 4294967295
2.712867 1.6935281 1.6762339 4294967295
2.7170002 1.665668 1.68091 4294967295
2.7155004 1.6357419 1.6831319 4294967295
2.7140837 1.6055071 1.6835737 4294967295
2.7096667 1.5829865 1.6853505 4294967295
2.7140002 1.0064558 1.6853777 4294967295
2.721 -0.89988726 1.6702418 4294967295
2.7172503 2.2236478 1.6434371 4294967295
2.7112505 2.217149 1.6472639 4294967295
2.7136669 2.1110504 1.6555885 4294967295
2.7136669 2.0847938 1.6524469 4294967295
2.7080004 2.0574327 1.6574131 4294967295
2.7160001 0.53222579 1.639771 4294967295
2.7156 -0.89305311 1.6458964 4294967295
2.7136669 2.2338276 1.6178168 4294967295
2.7160001 0.54482895 1.6082631 4294967295
2.7160003 0.53432631 1.6208662 4294967295
2.7132857 -0.88923872 1.6161596 4294967295
2.7133756 2.229908 1.5851711 4294967295
2.7210002 2.2188258 1.5723873 4294967295
2.704 0.5486955 1.5909073 4294967295
2.7144997 -0.90823591 1.5835022 4294967295
2.7088003 2.2025816 1.5601237 4294967295
2.7125003 2.1804173 1.5470728 4294967295
2.721 -0.89988726 1.5408214 4294967295
2.7155001 -0.90752244 1.5545225 4294967295
2.7122004 2.17011 1.5261869 4294967295
2.7125001 -0.88762611 1.5187325 4294967295
2.7160003 2.1989949 1.4853823 4294967295
2.7116671 2.1797554 1.5027096 4294967295
2.7169998 -0.88595665 1.495189 4294967295
2.7156668 2.2270718 1.4600629 4294967295
2.7125003 2.2087381 1.4746981 4294967295
2.7121997 -0.89319921 1.4620013 4294967295
2.7185001 2.2420168 1.4358118 4294967295
2.7160001 0.53852737 1.4381204 4294967295
2.721 -0.89988726 1.4461238 4294967295
2.7119999 -0.90320313 1.4304667 4294967295
2.7146003 2.232502 1.4061633 4294967295
2.7112498 0.52499741 1.401911 4294967295
2.7153332 -0.89380437 1.4000947 4294967295
2.71 -0.90253705 1.4140923 4294967295
2.7190001 2.2272866 1.3760467 4294967295
2.7040002 2.2175107 1.3744633 4294967295
2.721 0.51426601 1.3640523 4294967295
2.7096665 -0.86888719 1.3710192 4294967295
2.7176666 -0.87566358 1.377722 4294967295
2.7176669 2.2518363 1.3378005 4294967295
2.7100003 2.2381504 1.3512087 4294967295
2.7070003 0.51161999 1.3440182 4294967295
2.7116668 -0.88421947 1.3412219 4294967295
2.7193336 2.2532184 1.3172657 4294967295
2.7096667 2.2409923 1.3039416 4294967295
2.721 0.73522747 1.3261733 4294967295
2.7122002 -0.89571434 1.3109703 4294967295
2.7160003 2.2305026 1.2963347 4294967295
2.7153335 2.2078919 1.2919486 4294967295
2.7098002 2.1845362 1.2788422 4294967295
2.7184999 -0.89275312 1.2844346 4294967295
2.7210002 2.193573 1.2472584 4294967295
2.7112501 2.1841347 1.2619503 4294967295
2.7160001 -0.89823371 1.2679777 4294967295
2.7112498 -0.90609711 1.2509376 4294967295
2.7160003 2.2210503 1.2112634 4294967295
2.7168891 2.2077608 1.2233973 4294967295
2.7040002 2.186142 1.2395779 4294967295
2.7119999 -0.91997945 1.2186381 4294967295
2.7176669 2.2266145 1.1980283 4294967295
2.7040002 2.2175107 1.2082092 4294967295
2.7132001 -0.91743982 1.1954297 4294967295
2.7210002 2.2251389 1.1557173 4294967295
2.7040002 2.2175107 1.1674299 4294967295
2.7176666 -0.89457995 1.1612439 4294967295
2.704 -0.90367562 1.1737037 4294967295
2.7160003 2.2210503 1.1482475 4294967295
2.7156003 2.2144144 1.1305022 4294967295
2.7155998 -0.88927543 1.1355467 4294967295
2.7130001 2.2005963 1.1079804 4294967295
2.7125003 2.1867011 1.0939336 4294967295
2.7155998 -0.88423753 1.104056 4294967295
2.7136669 2.1764572 1.0749402 4294967295
2.7153332 -0.88120437 1.0787666 4294967295
2.7160003 2.2021456 1.0411205 4294967295
2.7080002 2.1851842 1.0542428 4294967295
2.7125001 -0.87503916 1.0467228 4294967295
2.7155998 2.2282763 1.0120659 4294967295
2.7125001 2.2150314 1.0278621 4294967295
