# .PCD v0.7 - Point Cloud Data file format
VERSION 0.7
FIELDS x y z rgb
SIZE 4 4 4 4
TYPE F F F U
COUNT 1 1 1 1
WIDTH 1145
HEIGHT 1
VIEWPOINT 0 0 0 1 0 0 0
POINTS 1145
DATA ascii
2.4172003 -0.85715622 0.44147423 4294967295
2.4138334 -0.87388903 0.45483351 4294967295
2.4289999 2.2610915 0.42107537 4294967295
2.402 0.42053708 0.42635477 4294967295
2.4056001 0.40441269 0.42621651 4294967295
2.4085455 0.37544581 0.4263567 4294967295
2.4032857 0.3466844 0.42750037 4294967295
2.4067998 0.31378201 0.42300817 4294967295
2.4097912 0.28492141 0.42046872 4294967295
2.4079998 0.2539784 0.4233343 4294967295
2.4080002 0.2260436 0.42333433 4294967295
2.4081872 0.19672696 0.42402428 4294967295
2.4044545 0.16332179 0.42550007 4294967295
2.4146817 0.13319705 0.42103022 4294967295
2.4171114 0.10446435 0.42111048 4294967295
2.4160004 0.075048432 0.42342666 4294967295
2.409889 0.04855331 0.42636135 4294967295
2.4064999 -0.022567786 0.42897108 4294967295
2.4148502 -0.044509675 0.42194462 4294967295
2.4161 -0.075905941 0.42022052 4294967295
2.4176497 -0.10400063 0.42014226 4294967295
2.4158797 -0.13530707 0.41965741 4294967295
2.41012 -0.16518411 0.41766205 4294967295
2.4096818 -0.19336651 0.41946077 4294967295
2.4112105 -0.22356436 0.42262393 4294967295
2.4156873 -0.2556012 0.42128441 4294967295
2.4199378 -0.2830731 0.41233382 4294967295
2.4171252 -0.31145945 0.40754551 4294967295
2.4064999 -0.34637892 0.4066371 4294967295
2.4142001 -0.37832087 0.40627438 4294967295
2.4200001 -0.40587404 0.40460789 4294967295
2.4175 -0.43211532 0.4014492 4294967295
2.415818 -0.46569729 0.40671325 4294967295
2.4157145 -0.4950543 0.41222388 4294967295
2.4216156 -0.52297133 0.41069052 4294967295
2.4207058 -0.55741084 0.41358164 4294967295
2.4137337 -0.58376467 0.41750798 4294967295
2.4159546 -0.61453915 0.41919851 4294967295
2.4215004 -0.64472681 0.41677597 4294967295
2.4151764 -0.67545408 0.4118492 4294967295
2.4191999 -0.70437098 0.41531917 4294967295
2.4222672 -0.73402256 0.41040292 4294967295
2.4236004 -0.76272446 0.40358984 4294967295
2.4206669 -0.79867554 0.40363646 4294967295
2.4160335 -0.82629359 0.41499507 4294967295
2.4081538 -0.84970587 0.42332673 4294967295
2.4244287 2.258235 0.35196161 4294967295
2.421 2.2438025 0.34627378 4294967295
2.411 2.2541254 0.33929795 4294967295
2.4126475 2.2342281 0.32584113 4294967295
2.4289999 2.2540469 0.30131686 4294967295
2.4259999 2.2446847 0.30627987 4294967295
2.4271998 2.254061 0.089174002 4294967295
2.4210498 2.2331829 0.083814621 4294967295
2.420182 2.208328 0.082864791 4294967295
2.4227223 2.2360351 0.060794145 4294967295
2.4245 2.2133019 0.066865027 4294967295
2.4289999 2.2455935 -0.00019276142 4294967295
2.4214544 2.2411602 -0.037380278 4294967295
2.4211767 2.233722 -0.067574739 4294967295
2.4228668 2.2297902 -0.089201391 4294967295
2.4560003 2.2819517 1.8744768 4294967295
2.4504004 2.2625422 1.8787758 4294967295
2.4424167 2.2343867 1.8783181 4294967295
2.4480002 2.2156742 1.8810152 4294967295
2.4560003 2.0426214 1.8915719 4294967295
2.4480004 2.0246115 1.879795 4294967295
2.4330003 2.0065577 1.8730824 4294967295
2.4330003 1.6226993 1.8787273 4294967295
2.4406927 1.6095247 1.8782321 4294967295
2.4330003 1.5888294 1.8759048 4294967295
2.447417 1.5433344 1.879197 4294967295
2.4465001 1.4869628 1.8862665 4294967295
2.4360003 1.3892004 1.8728621 4294967295
2.4419999 1.260421 1.8780876 4294967295
2.453053 1.247841 1.8830359 4294967295
2.4533498 1.2150556 1.8815485 4294967295
2.4531426 1.1905531 1.8822469 4294967295
2.4541249 1.1179262 1.8819814 4294967295
2.4500625 1.0972366 1.8782988 4294967295
2.453125 1.0669537 1.8864048 4294967295
2.45 0.93485403 1.8825296 4294967295
2.4397502 0.9252823 1.8739877 4294967295
2.4456248 0.8267808 1.8793875 4294967295
2.4475999 -0.90372968 1.8777828 4294967295
2.4560003 2.2819517 1.8659294 4294967295
2.4527731 2.2639539 1.8540642 4294967295
2.4484324 2.234839 1.8553922 4294967295
2.4515002 2.2180424 1.866302 4294967295
2.4535003 2.0149229 1.8645563 4294967295
2.4459093 1.9960226 1.8580498 4294967295
2.4441819 1.9642019 1.8473203 4294967295
2.447778 1.9398483 1.8427944 4294967295
2.4522002 1.8716116 1.8450675 4294967295
2.4445002 1.8373899 1.8553667 4294967295
2.4480002 1.8113474 1.8586946 4294967295
2.4442697 1.7839701 1.859911 4294967295
2.4429371 1.7540051 1.8585594 4294967295
2.44048 1.7268847 1.8545613 4294967295
2.4330003 1.707374 1.8448575 4294967295
2.4354548 1.6027582 1.8585256 4294967295
2.4330001 1.5799161 1.8540677 4294967295
2.4444284 1.5444108 1.8545115 4294967295
2.4560001 1.5143038 1.8463922 4294967295
2.4466846 1.4824444 1.8496071 4294967295
2.452167 1.4571836 1.8410485 4294967295
2.4483531 1.4210752 1.8458555 4294967295
2.4458082 1.3952861 1.8581426 4294967295
2.4446497 1.3667042 1.8511714 4294967295
2.4481001 1.3379588 1.8422726 4294967295
2.4360001 1.2610877 1.8653284 4294967295
2.4484618 1.2427567 1.8550198 4294967295
2.4559999 1.2209209 1.86365 4294967295
2.4560001 1.1935686 1.8687785 4294967295
2.4560001 1.0995461 1.8687785 4294967295
2.4560001 0.93144518 1.8687785 4294967295
2.4462225 0.91322809 1.8615047 4294967295
2.4472859 0.88676232 1.8542523 4294967295
2.444375 0.851183 1.853171 4294967295
2.4460001 0.83400661 1.8632777 4294967295
2.4472859 -0.90182745 1.8566687 4294967295
2.4550004 2.2605176 1.8351904 4294967295
2.4560003 2.2477615 1.8345884 4294967295
2.4390001 1.924713 1.8386747 4294967295
2.445308 1.9062726 1.8345226 4294967295
2.4441113 1.8821284 1.8345145 4294967295
2.4560003 1.7463077 1.8136946 4294967295
2.4524739 1.7216419 1.8246042 4294967295
2.4451253 1.6969634 1.8223618 4294967295
2.4472501 1.6662674 1.8164134 4294967295
2.4449005 1.6311989 1.8195653 4294967295
2.4439051 1.6032342 1.82674 4294967295
2.4399445 1.5741707 1.8278522 4294967295
2.4448521 1.5467567 1.8309153 4294967295
2.4554446 1.5192943 1.8336565 4294967295
2.4538574 1.4845172 1.8358786 4294967295
2.4380002 1.4519345 1.8387759 4294967295
2.4330003 1.4279476 1.8392125 4294967295
2.4448001 1.3242347 1.8353652 4294967295
2.4441249 1.3065242 1.8246677 4294967295
2.4406669 1.2757682 1.8126831 4294967295
2.4455626 1.2469949 1.8275753 4294967295
2.4434998 -0.90902323 1.8250499 4294967295
2.4553752 2.2642803 1.7893925 4294967295
2.4543335 2.2462325 1.7824461 4294967295
2.4522502 1.7749357 1.7870641 4294967295
2.4449003 1.7543018 1.7934867 4294967295
2.4478002 1.7247818 1.7970331 4294967295
2.4436669 -0.91714102 1.792706 4294967295
2.455286 2.2593136 1.7723551 4294967295
2.4543338 2.2433872 1.7710552 4294967295
2.4522502 1.7749357 1.7728385 4294967295
2.4456925 1.7542562 1.7705737 4294967295
2.4408574 1.7298772 1.7755036 4294967295
2.4468184 -0.90673625 1.7656637 4294967295
2.4560003 2.2477615 1.7491133 4294967295
2.447875 -0.9075247 1.7350979 4294967295
2.4560003 2.270555 1.7080853 4294967295
2.4456251 -0.9038493 1.7056122 4294967295
2.4535003 2.2369318 1.6624742 4294967295
2.4487145 -0.90398401 1.6748465 4294967295
2.4457779 2.2257714 1.6494167 4294967295
2.4486003 2.2182515 1.6374612 4294967295
2.4456248 -0.91236615 1.6453204 4294967295
2.4504004 2.2244387 1.60645 4294967295
2.4433637 2.2145355 1.6185839 4294967295
2.4447501 -0.92101586 1.6139573 4294967295
2.4476001 2.2536912 1.5722671 4294967295
2.4438179 2.2377861 1.5863041 4294967295
2.4498336 -0.92671573 1.5925441 4294967295
2.4492223 -0.93186069 1.5821807 4294967295
2.4512503 2.267586 1.5590459 4294967295
2.4432003 -0.9281733 1.543159 4294967295
2.4431002 -0.9332363 1.5606914 4294967295
2.4560003 2.2734041 1.5154815 4294967295
2.4560001 0.54680723 1.5154815 4294967295
2.448714 -0.92670506 1.5279504 4294967295
2.4560001 -0.93191183 1.5154815 4294967295
2.4489231 2.2613814 1.4962279 4294967295
2.4533336 2.2465823 1.4916342 4294967295
2.4330001 -0.92882961 1.5061589 4294967295
2.4502001 -0.93539596 1.4960723 4294967295
2.4513335 2.2592835 1.4725077 4294967295
2.4330001 -0.92882961 1.4553542 4294967295
2.4477499 -0.93303889 1.4681233 4294967295
2.4426 -0.92341477 1.4335361 4294967295
2.4482224 2.2551541 1.4012508 4294967295
2.446667 2.2486417 1.3962513 4294967295
2.4461429 -0.91437852 1.4052603 4294967295
2.4509094 2.2565398 1.3722832 4294967295
2.4381433 2.2467527 1.378947 4294967295
2.4436667 -0.90548497 1.3772173 4294967295
2.4530003 2.2715735 1.3567994 4294967295
2.4560001 -0.86923009 1.3331347 4294967295
2.4441113 -0.88202989 1.3424308 4294967295
2.4560001 0.50406969 1.3103412 4294967295
2.4560001 -0.86923009 1.3274362 4294967295
2.4437854 -0.88150936 1.3140923 4294967295
2.447 -0.90010953 1.3017676 4294967295
2.4419999 0.60318172 1.2718408 4294967295
2.4455001 0.50758868 1.2814126 4294967295
2.4445558 -0.90739566 1.2827078 4294967295
2.447 0.5079 1.2677028 4294967295
2.4482725 -0.90883356 1.2551777 4294967295
2.4484997 -0.90917528 1.225549 4294967295
2.4560001 -0.89772177 1.1849778 4294967295
2.4447143 -0.90412086 1.1965027 4294967295
2.4560003 2.2677057 1.1550615 4294967295
2.445091 -0.88753158 1.1644802 4294967295
2.4503686 2.2605515 1.1316879 4294967295
2.4430001 -0.88956809 1.1361084 4294967295
2.444417 2.2546299 1.1095282 4294967295
2.4474549 2.24612 1.0995553 4294967295
2.4419999 -0.89827025 1.1188626 4294967295
2.4460001 -0.90966034 1.1004511 4294967295
2.445308 2.2432003 1.076906 4294967295
2.4440713 -0.91562366 1.0764205 4294967295
2.4425461 2.2374957 1.0437723 4294967295
2.4439001 -0.9205097 1.0444728 4294967295
2.4473336 2.2587473 1.0078595 4294967295
2.4441819 2.2420847 1.0209261 4294967295
2.451 0.48598328 1.0243952 4294967295
2.4475999 -0.92587638 1.0151669 4294967295
2.4436667 0.49019897 0.98885006 4294967295
2.4436667 -0.92092085 0.985708 4294967295
2.4560001 2.270555 0.95704424 4294967295
2.4445 0.49745426 0.95215154 4294967295
2.4461427 -0.91276097 0.95772266 4294967295
2.4560001 2.2762532 0.91715586 4294967295
2.4496667 0.50276983 0.9331795 4294967295
2.447875 -0.9075247 0.92720068 4294967295
2.4560001 2.2876499 0.89436245 4294967295
2.4533334 2.2718792 0.89091998 4294967295
2.4445 0.50453192 0.89537871 4294967295
2.4488335 -0.90740639 0.8923254 4294967295
2.4494543 2.260623 0.86676693 4294967295
2.4536924 2.244771 0.8642379 4294967295
2.4560001 0.50406969 0.86397135 4294967295
2.4452999 -0.9119603 0.86548638 4294967295
2.4413335 2.2584865 0.83851886 4294967295
2.4449596 2.2398958 0.83392346 4294967295
2.44225 0.50691408 0.83275533 4294967295
2.4456666 -0.9185226 0.837309 4294967295
2.4330003 2.26999 0.80900449 4294967295
2.440727 2.2327228 0.80467975 4294967295
2.4488332 0.50828052 0.80521458 4294967295
2.4490001 -0.92357355 0.8052063 4294967295
2.4448261 2.2619452 0.77500486 4294967295
2.4465201 2.2415588 0.77823198 4294967295
2.4330001 0.50499415 0.78360212 4294967295
2.43875 -0.92677766 0.77857196 4294967295
2.4543333 -0.93127942 0.76882619 4294967295
2.4486003 2.2574627 0.75007069 4294967295
2.45 2.244911 0.74338639 4294967295
2.4513333 0.50500047 0.74389803 4294967295
2.4391668 -0.92833817 0.74274498 4294967295
2.45225 -0.93048888 0.74870944 4294967295
2.4462726 2.2295535 0.71846747 4294967295
2.451 0.50873023 0.7286849 4294967295
2.4462729 -0.919438 0.71744198 4294967295
2.4560001 2.2819517 0.67782557 4294967295
2.4492307 2.2647214 0.68525255 4294967295
2.4456923 2.2374325 0.69243312 4294967295
2.43875 -0.91262519 0.68804705 4294967295
2.4514999 -0.91314059 0.64625818 4294967295
2.4526923 2.2653019 0.62114882 4294967295
2.4330001 0.52192909 0.6311878 4294967295
2.450875 -0.91504204 0.6248855 4294967295
2.4464998 -0.93114001 0.61477584 4294967295
2.4434285 2.2564874 0.60656077 4294967295
2.44712 2.2341621 0.59481716 4294967295
2.4489999 -0.94913489 0.60919058 4294967295
2.4535 -0.96795601 0.59513181 4294967295
2.4452727 2.2245255 0.56469357 4294967295
2.4400001 0.514947 0.55792809 4294967295
2.4500003 -0.97835279 0.5605104 4294967295
2.4440715 2.2250853 0.53448439 4294967295
2.4430001 0.49573758 0.53982496 4294967295
2.4487145 0.46604565 0.53207928 4294967295
2.4459999 0.43672574 0.52395427 4294967295
2.4522002 0.40657857 0.52396429 4294967295
2.4466665 0.3744148 0.52395535 4294967295
2.4560001 0.35306373 0.52397043 4294967295
2.4535 0.3071669 0.52396637 4294967295
2.4504001 0.28688741 0.52396137 4294967295
2.4520001 0.25576305 0.52396399 4294967295
2.4560001 0.23624778 0.52397043 4294967295
2.4535 -0.89395875 0.52396637 4294967295
2.4454286 -0.91451252 0.53125441 4294967295
2.4467502 -0.94400686 0.54311895 4294967295
2.4445 -0.96441108 0.54663849 4294967295
2.4435768 2.2337496 0.50585461 4294967295
2.4360001 0.4274236 0.50980479 4294967295
2.4375002 0.4041307 0.50695342 4294967295
2.4365997 0.37194872 0.50470996 4294967295
2.4393222 0.34509909 0.50624728 4294967295
2.4390004 0.31514722 0.51350433 4294967295
2.4359999 0.28708339 0.51734531 4294967295
2.4388182 0.25156343 0.51520324 4294967295
2.4434001 0.22346465 0.50605494 4294967295
2.4453747 0.19527555 0.50175375 4294967295
2.4466953 0.16574009 0.50596106 4294967295
2.4448948 0.13456948 0.50934154 4294967295
2.4466839 0.10507469 0.50335443 4294967295
2.4560001 0.086191513 0.49737817 4294967295
2.4464736 0.04355526 0.50334704 4294967295
2.4429169 0.012521431 0.50696039 4294967295
2.4505 -0.006872532 0.5002749 4294967295
2.4528334 -0.084646411 0.4993073 4294967295
2.4453502 -0.10575905 0.50184411 4294967295
2.4458568 -0.13278441 0.50127506 4294967295
2.4544444 -0.15937313 0.49866 4294967295
2.4560001 -0.1882785 0.49547875 4294967295
2.4560001 -0.33928451 0.49547875 4294967295
2.4494288 -0.47313389 0.49636602 4294967295
2.4455268 -0.49491534 0.50067937 4294967295
2.4432669 -0.5227021 0.50242406 4294967295
2.4449999 -0.55487967 0.50384372 4294967295
2.4440715 -0.58552128 0.50168747 4294967295
2.4449413 -0.6157074 0.50128067 4294967295
2.4430001 -0.64510882 0.50540829 4294967295
2.4388573 -0.67802948 0.50537157 4294967295
2.4477372 -0.70400584 0.50542903 4294967295
2.4560001 -0.72335261 0.50345641 4294967295
2.4560001 -0.77805662 0.49832791 4294967295
2.4503686 -0.79750782 0.50211984 4294967295
2.4495597 -0.82602835 0.50669128 4294967295
2.4535501 -0.85584533 0.5043298 4294967295
2.447037 -0.88601083 0.5060879 4294967295
2.4330001 -0.90060472 0.51828825 4294967295
2.4441071 2.2299712 0.47474188 4294967295
2.4390001 0.42417854 0.47754279 4294967295
2.4512258 0.40566212 0.47552931 4294967295
2.4514399 0.37163323 0.47640318 4294967295
2.442348 0.34655443 0.47516686 4294967295
2.4375 0.20053571 0.48718554 4294967295
2.4423499 0.10005568 0.47550029 4294967295
2.4559999 0.08581163 0.4778139 4294967295
2.4472501 0.050890453 0.48563838 4294967295
2.4489999 -0.0059199599 0.48702258 4294967295
2.4535 -0.047195066 0.46277305 4294967295
2.4471786 -0.07727138 0.4742814 4294967295
2.4352503 -0.09628205 0.4801544 4294967295
2.4352503 -0.14148884 0.48227125 4294967295
2.4440999 -0.16695976 0.47746915 4294967295
2.4501727 -0.19597159 0.47516567 4294967295
2.4547501 -0.21737361 0.46772778 4294967295
2.4531503 -0.31981793 0.47302997 4294967295
2.4491665 -0.34402221 0.47567394 4294967295
2.4517779 -0.36999169 0.47024482 4294967295
2.4560001 -0.39341873 0.46128869 4294967295
2.4547498 -0.44257659 0.47033805 4294967295
2.444133 -0.46276218 0.47556415 4294967295
2.4330001 -0.65787077 0.46183851 4294967295
2.4377999 -0.68066961 0.47039473 4294967295
2.45016 -0.70572233 0.47507519 4294967295
2.4560001 -0.73175764 0.46698704 4294967295
2.4556665 -0.77187276 0.47230959 4294967295
2.4517574 -0.79532409 0.47637391 4294967295
2.448575 -0.82528371 0.47489071 4294967295
2.4517665 -0.85636264 0.47561488 4294967295
2.445524 -0.87874854 0.47748202 4294967295
2.4342859 2.2585447 0.43921298 4294967295
2.4385171 2.2315366 0.44238538 4294967295
2.4455833 2.2169256 0.44687074 4294967295
2.4414284 0.40072441 0.45354727 4294967295
2.4433331 0.37486693 0.45102173 4294967295
2.4360001 0.35207722 0.45234808 4294967295
2.4419045 0.10268042 0.44544834 4294967295
2.4492776 0.078696251 0.44157714 4294967295
2.4432225 0.052997906 0.44207919 4294967295
2.4330001 -0.02563351 0.45619357 4294967295
2.4409564 -0.04616319 0.44786784 4294967295
2.4379232 -0.072235137 0.44911036 4294967295
2.4330001 -0.17522536 0.45619357 4294967295
2.4379168 -0.19680388 0.45182392 4294967295
2.4462223 -0.22442596 0.44734699 4294967295
2.4453001 -0.25355557 0.44028455 4294967295
2.4518826 -0.28718141 0.43964374 4294967295
2.4486251 -0.3160035 0.44395083 4294967295
2.4386671 -0.34379554 0.44493699 4294967295
2.4455554 -0.37525889 0.44388747 4294967295
2.4541669 -0.40570432 0.44425443 4294967295
2.4560001 -0.44470379 0.45559037 4294967295
2.4516001 -0.46835625 0.45001036 4294967295
2.4403808 -0.4918696 0.4408958 4294967295
2.4330003 -0.52634281 0.43587166 4294967295
2.4330001 -0.54779369 0.43361366 4294967295
2.4330001 -0.64728636 0.44313955 4294967295
2.4413574 -0.67530459 0.44403562 4294967295
2.4419611 -0.70627093 0.44420528 4294967295
2.4468751 -0.73590189 0.44495997 4294967295
2.4512398 -0.76517802 0.44434869 4294967295
2.4514139 -0.79601431 0.4439505 4294967295
2.4391537 -0.82342124 0.44603151 4294967295
2.4375 -0.85419422 0.45381755 4294967295
2.4396107 2.2544432 0.4154489 4294967295
2.4486365 2.2415092 0.42013869 4294967295
2.4330001 -0.26836747 0.42796868 4294967295
2.4395552 -0.28733274 0.42520952 4294967295
2.4398336 -0.3153502 0.42017311 4294967295
2.44155 -0.34295517 0.41914964 4294967295
2.4420421 -0.37418467 0.4191305 4294967295
2.4456668 -0.40649796 0.41831779 4294967295
2.4465559 -0.43446615 0.41265619 4294967295
2.4461765 -0.46578547 0.41780075 4294967295
2.439182 -0.49386331 0.42516705 4294967295
2.4350772 -0.52545065 0.42311037 4294967295
2.4354546 -0.54910952 0.42274022 4294967295
2.4330003 -0.64846247 0.42702785 4294967295
2.4357002 -0.67554832 0.42504406 4294967295
2.4330003 -0.70585304 0.42796868 4294967295
2.4360001 -0.73655921 0.42408955 4294967295
2.4428949 -0.76584995 0.41895455 4294967295
2.4433599 -0.79445386 0.41829056 4294967295
2.4345 -0.81454802 0.42414862 4294967295
2.4485333 2.2589009 0.3847664 4294967295
2.4442668 2.2600553 0.36100572 4294967295
2.4466155 2.2452648 0.34929496 4294967295
2.4461668 2.2368534 0.32436213 4294967295
2.4479165 2.2597525 0.29393023 4294967295
2.4467144 2.2441046 0.30580437 4294967295
2.4554446 2.2681408 0.19860324 4294967295
2.4560001 2.2477615 0.19346675 4294967295
2.4560001 2.2819517 0.1877684 4294967295
2.4542403 2.2643666 0.17661798 4294967295
2.4550002 2.2468441 0.17993066 4294967295
2.4560001 2.270555 0.15927672 4294967295
2.4550002 2.2878582 0.11157843 4294967295
2.4497144 2.2659495 0.10621282 4294967295
2.4473751 2.2384355 0.10377356 4294967295
2.447 2.2849443 0.098146558 4294967295
2.4390001 2.2623756 0.097644091 4294967295
2.4434285 2.235395 0.097149432 4294967295
2.443579 2.2071333 0.083225131 4294967295
2.4433157 2.2340319 0.047760457 4294967295
2.4467502 2.2087553 0.061288059 4294967295
2.4497778 2.254689 0.027557015 4294967295
2.4543333 2.2468653 0.025385439 4294967295
2.447 2.2508795 0.0016297698 4294967295
2.4512501 2.2476637 -0.0014007688 4294967295
2.4453332 2.251235 -0.024492562 4294967295
2.4459445 2.245791 -0.035966039 4294967295
2.4432499 2.2360706 -0.064888418 4294967295
2.4437599 2.227453 -0.095428884 4294967295
2.4514 2.2594767 -0.12102264 4294967295
2.4478571 2.2411091 -0.11376548 4294967295
2.4535 2.2540095 -0.24452633 4294967295
2.448 2.2404289 -0.25468123 4294967295
2.4430499 2.2270954 -0.26790422 4294967295
2.4560001 2.21927 -0.27664626 4294967295
2.4740002 2.1982241 1.901624 4294967295
2.4740002 2.1752636 1.901624 4294967295
2.4740002 2.1436932 1.901624 4294967295
2.4740002 2.1149926 1.901624 4294967295
2.4740002 2.0949023 1.901624 4294967295
2.4740002 1.5352423 1.901624 4294967295
2.4740002 1.5295022 1.901624 4294967295
2.4852502 1.0463243 1.906463 4294967295
2.4865 0.96897626 1.9057174 4294967295
2.474 0.95549202 1.901624 4294967295
2.4827502 0.81340885 1.9050668 4294967295
2.4890001 -0.89823419 1.9042261 4294967295
2.4790001 -0.90324706 1.9044163 4294967295
2.4700003 2.2204587 1.8707361 4294967295
2.4701111 2.2070055 1.884002 4294967295
2.4745171 2.1752243 1.8850827 4294967295
2.4734998 2.1437395 1.8843662 4294967295
2.4733841 2.1151271 1.8838451 4294967295
2.4730358 2.0848665 1.8857107 4294967295
2.469682 2.0571303 1.8825318 4294967295
2.4616671 2.0340087 1.873793 4294967295
2.4681253 1.5380336 1.8858141 4294967295
2.4676669 1.5183386 1.8858792 4294967295
2.46 1.2377491 1.8778243 4294967295
2.4652634 1.1775925 1.8807803 4294967295
2.4690695 1.1562654 1.8840498 4294967295
2.4636362 1.1292113 1.8760822 4294967295
2.4677143 1.0847481 1.8735697 4294967295
2.476033 1.0642569 1.8858892 4294967295
2.4790001 1.0494503 1.8986647 4294967295
2.4865 0.97013122 1.8855225 4294967295
2.4696002 0.94807017 1.8831153 4294967295
2.4748077 0.81995881 1.8841751 4294967295
2.4850001 -0.89793861 1.8812512 4294967295
2.4714546 -0.90231693 1.88664 4294967295
2.4607146 2.2887795 1.8526089 4294967295
2.4600003 2.2799604 1.8452909 4294967295
2.4733877 2.2275431 1.8497907 4294967295
2.4818337 2.2078552 1.8608811 4294967295
2.4836433 2.1755025 1.8670763 4294967295
2.4816473 2.1442175 1.8632057 4294967295
2.4784997 2.1145158 1.8609943 4294967295
2.4819169 2.0838277 1.8633249 4294967295
2.4834237 2.05457 1.856118 4294967295
2.4732919 2.0252008 1.8545858 4294967295
2.4676156 1.9950286 1.8474048 4294967295
2.4649999 1.9694633 1.8439741 4294967295
2.4600003 1.9489186 1.842437 4294967295
2.4642859 1.8649112 1.8471854 4294967295
2.4669647 1.8448601 1.8510764 4294967295
2.4668572 1.8150725 1.8502003 4294967295
2.4668751 1.7869458 1.8475564 4294967295
2.4616668 1.7573206 1.8458698 4294967295
2.4612503 1.5358946 1.8630972 4294967295
2.4625001 1.516682 1.8599731 4294967295
2.4700003 1.441067 1.842082 4294967295
2.4666669 1.4263999 1.8434738 4294967295
2.4649999 1.3981152 1.8467532 4294967295
2.46 1.3667413 1.842437 4294967295
2.46 1.3496184 1.842437 4294967295
2.4642184 1.2134569 1.8518401 4294967295
2.4695005 1.185223 1.8555595 4294967295
2.4738395 1.1563215 1.8556159 4294967295
2.4722185 1.1241935 1.8541924 4294967295
2.4769411 1.09808 1.8582754 4294967295
2.4790001 1.0782088 1.8699062 4294967295
2.4890001 0.99160349 1.8536955 4294967295
2.4888208 0.97359067 1.8542178 4294967295
2.4824703 0.94470209 1.8560116 4294967295
2.4782498 0.91590989 1.8577272 4294967295
2.4771581 0.88562214 1.8549657 4294967295
2.4746466 0.85406959 1.8577241 4294967295
2.4774547 0.8303495 1.865392 4294967295
2.4815001 -0.89839762 1.8683801 4294967295
2.4777691 -0.90478545 1.8524138 4294967295
2.4646299 2.2630632 1.8237392 4294967295
2.477237 2.2406943 1.8267232 4294967295
2.4890003 2.0700669 1.8253024 4294967295
2.4871576 2.0545688 1.8239295 4294967295
2.4772611 2.0230734 1.824223 4294967295
2.4733043 1.9948889 1.8258841 4294967295
2.4733236 1.9647021 1.8247762 4294967295
2.4730306 1.9359341 1.8255984 4294967295
2.4721251 1.9049231 1.8231242 4294967295
2.4749074 1.8749777 1.8245102 4294967295
2.4760323 1.8444952 1.8256562 4294967295
2.4752498 1.8167077 1.8276587 4294967295
2.4719548 1.7876374 1.8272277 4294967295
2.4632354 1.7561629 1.8287157 4294967295
2.4637504 1.7246403 1.8229972 4294967295
2.4702861 1.6921717 1.8147951 4294967295
2.4777203 1.6646951 1.8162938 4294967295
2.4733915 1.6354036 1.8169245 4294967295
2.4688125 1.6057745 1.8167317 4294967295
2.4722729 1.5722067 1.815634 4294967295
2.4735 1.5444776 1.8179052 4294967295
2.4734211 1.5146267 1.8203171 4294967295
2.4740007 1.4850794 1.8249437 4294967295
2.4759023 1.4555626 1.8275518 4294967295
2.4741073 1.4243971 1.8245873 4294967295
2.4722283 1.3946736 1.8245765 4294967295
2.4751244 1.3650786 1.8244019 4294967295
2.4718332 1.3375582 1.8241028 4294967295
2.4739499 1.3041506 1.8143225 4294967295
2.4751666 1.2743349 1.8186665 4294967295
2.4740968 1.2423438 1.8246125 4294967295
2.4718666 1.214474 1.8256716 4294967295
2.4700005 1.18318 1.8248894 4294967295
2.477 1.153311 1.8237811 4294967295
2.4816923 1.1274259 1.8306084 4294967295
2.484 1.1092 1.8380489 4294967295
2.4890001 0.97194654 1.8291522 4294967295
2.4889996 0.94655925 1.8225112 4294967295
2.4749999 -0.91307265 1.8236903 4294967295
2.4617858 2.2628396 1.7997446 4294967295
2.476485 2.2384369 1.793998 4294967295
2.4886158 2.0493164 1.7969685 4294967295
2.4810004 2.0260022 1.7952965 4294967295
2.4781439 1.9953258 1.7971524 4294967295
2.483834 1.9677914 1.7978013 4294967295
2.4865005 1.9352983 1.8076425 4294967295
2.4867275 1.9050521 1.8074979 4294967295
2.4884446 1.8720148 1.8038394 4294967295
2.4829133 1.8438494 1.796142 4294967295
2.4728889 1.813782 1.7970914 4294967295
2.4635 1.7887968 1.7968792 4294967295
2.4815004 1.7442791 1.7820175 4294967295
2.475482 1.7231277 1.7950089 4294967295
2.4826841 1.6973531 1.8052025 4294967295
2.4865003 1.6785703 1.8076426 4294967295
2.4873338 1.6310464 1.8071126 4294967295
2.482667 1.6035978 1.8066086 4294967295
2.4818575 1.5820597 1.8081104 4294967295
2.4890001 1.4406023 1.8060527 4294967295
2.4855385 1.4235157 1.8047012 4294967295
2.485333 1.395803 1.8053061 4294967295
2.4877501 1.3720555 1.8068476 4294967295
2.4865 1.3324269 1.8076426 4294967295
2.4875002 1.3104527 1.8058516 4294967295
2.4817274 1.2102568 1.8059454 4294967295
2.4785237 1.1850681 1.8033659 4294967295
2.4828463 1.1618479 1.8050764 4294967295
2.4890001 0.93818563 1.7961527 4294967295
2.4890001 0.92143834 1.7898828 4294967295
2.4890001 -0.89823419 1.782953 4294967295
2.4738331 -0.90868205 1.7953397 4294967295
2.4650002 2.2845945 1.7564769 4294967295
2.4609373 2.2640581 1.7594322 4294967295
2.4740419 2.2340469 1.7638655 4294967295
2.4880004 2.0478776 1.7651267 4294967295
2.4782503 2.0234692 1.7645611 4294967295
2.4775295 1.9925492 1.7637713 4294967295
2.4861431 1.9770417 1.7707901 4294967295
2.4865003 1.8386674 1.7759095 4294967295
2.4789999 1.814149 1.768545 4294967295
2.4726801 1.7861406 1.7666097 4294967295
2.4735885 1.7557578 1.7717441 4294967295
2.4600003 1.7377366 1.7796532 4294967295
2.4890001 0.93433571 1.7752532 4294967295
2.4890001 0.92086089 1.7742907 4294967295
2.4744616 -0.90268975 1.7636349 4294967295
2.4650002 2.2857382 1.7410351 4294967295
2.4646664 2.2642663 1.7362944 4294967295
2.4785779 2.2364402 1.7363774 4294967295
2.4890003 2.0411925 1.7483037 4294967295
2.4855003 2.0215969 1.7454165 4294967295
2.4817781 2.0007129 1.7466527 4294967295
2.4890003 1.7755468 1.725204 4294967295
2.4871821 1.755365 1.7274735 4294967295
2.4865003 1.7362614 1.7239934 4294967295
2.4890001 -0.89823419 1.725204 4294967295
2.4753335 -0.90477604 1.7358052 4294967295
2.4672856 2.2582676 1.7079285 4294967295
2.481905 2.2443056 1.7074941 4294967295
2.4875004 1.7542785 1.7158186 4294967295
2.4865003 1.7362614 1.7182243 4294967295
2.4833751 -0.8983568 1.7051946 4294967295
2.4703751 -0.90225315 1.7054303 4294967295
2.4773333 2.2368441 1.6738051 4294967295
2.4772351 -0.90513206 1.6735072 4294967295
2.4735007 2.2235837 1.648425 4294967295
2.4824548 2.2112026 1.6390382 4294967295
2.4890001 -0.89823419 1.6414679 4294967295
2.4764583 -0.91020256 1.6439508 4294967295
2.4672003 2.2236578 1.6123686 4294967295
2.4825711 2.2088592 1.6161021 4294967295
2.4890001 -0.89630926 1.6202933 4294967295
2.4729631 -0.91090626 1.6139375 4294967295
2.4713337 2.2531607 1.573285 4294967295
2.476135 2.2347927 1.5871334 4294967295
2.4840004 2.2157428 1.5988661 4294967295
2.4724998 -0.91698843 1.5852613 4294967295
2.4600003 2.2856681 1.5456408 4294967295
2.4741819 2.2652705 1.5550615 4294967295
2.4748998 -0.92269462 1.5561408 4294967295
2.4710314 2.2645323 1.5287404 4294967295
2.480778 2.2461157 1.5159266 4294967295
2.47 0.54132795 1.521156 4294967295
2.4744999 0.53657293 1.5201204 4294967295
2.4760001 -0.92608768 1.5318768 4294967295
2.4744 -0.93314368 1.5171943 4294967295
2.4650002 2.2540841 1.4829037 4294967295
2.4759381 2.2437139 1.4950032 4294967295
2.4776669 0.52574378 1.5069991 4294967295
2.479182 -0.9380852 1.4976816 4294967295
2.474375 2.2571919 1.4635239 4294967295
2.4840004 2.2467222 1.4720662 4294967295
2.46 0.49918306 1.4657342 4294967295
2.4786668 -0.92515963 1.459491 4294967295
2.4720001 -0.9331913 1.4713042 4294967295
2.47944 2.2599885 1.4354643 4294967295
2.4890003 2.249089 1.4249089 4294967295
2.4744117 -0.91793919 1.4354724 4294967295
2.4738929 2.2538519 1.405255 4294967295
2.4890003 2.249089 1.4104717 4294967295
2.4748333 -0.91176271 1.4063395 4294967295
2.4731934 2.2553139 1.3728733 4294967295
2.4890003 2.249089 1.3642724 4294967295
2.4745002 -0.89297545 1.3650897 4294967295
2.473875 -0.90496075 1.3806641 4294967295
2.4700003 2.285408 1.3435005 4294967295
2.4750226 2.2634799 1.3455451 4294967295
2.4882591 2.2349479 1.3425322 4294967295
2.4890003 2.2097147 1.3424853 4294967295
2.4730003 0.50755876 1.3502455 4294967295
2.4760001 -0.86768591 1.3397636 4294967295
2.4707499 -0.87944311 1.3523465 4294967295
2.4707503 2.2909958 1.3107867 4294967295
2.4796977 2.2660744 1.3152809 4294967295
2.4890001 2.2339299 1.3216827 4294967295
2.4890003 2.2144396 1.3267355 4294967295
2.4790001 0.59506577 1.3062392 4294967295
2.471 0.50570458 1.3123028 4294967295
2.4782002 -0.86788166 1.3243766 4294967295
2.4738946 -0.88431567 1.3109455 4294967295
2.4650002 -0.90386528 1.3017991 4294967295
2.4740002 2.3101561 1.2845631 4294967295
2.4724998 2.2898686 1.2831403 4294967295
2.4775999 2.2638984 1.2842848 4294967295
2.4869995 2.236887 1.2831619 4294967295
2.4890003 2.2144396 1.2747614 4294967295
2.4752002 0.50801033 1.2877994 4294967295
2.4856668 -0.8979879 1.2881511 4294967295
2.4727499 -0.90383404 1.2841717 4294967295
2.4716003 2.2849753 1.2603121 4294967295
2.4713466 2.2637861 1.2530921 4294967295
2.4819779 2.2336831 1.2539148 4294967295
2.4890003 2.2144394 1.2545493 4294967295
2.4696667 0.50495738 1.2631618 4294967295
2.4890001 -0.89823419 1.266099 4294967295
2.4728127 -0.90421432 1.25371 4294967295
2.4702227 2.2628925 1.2246969 4294967295
2.482389 2.2386091 1.226032 4294967295
2.4890003 2.2144396 1.2343371 4294967295
2.4760001 -0.90501821 1.2248645 4294967295
2.4797225 2.2560275 1.1968164 4294967295
2.4886668 2.2437828 1.1957452 4294967295
2.47925 -0.89326489 1.1898317 4294967295
2.4720001 -0.90260226 1.2026961 4294967295
2.472815 2.2588692 1.1644647 4294967295
2.4851539 2.24472 1.1627159 4294967295
2.4753635 -0.88547212 1.1656704 4294967295
2.4697919 2.2541499 1.135213 4294967295
2.4825714 2.2469676 1.1395023 4294967295
2.4730666 -0.89208668 1.1360362 4294967295
2.4790001 -0.90037709 1.1221848 4294967295
2.4752502 2.2519493 1.1045048 4294967295
2.4733336 2.2478161 1.1074282 4294967295
2.4729376 -0.90390038 1.1045661 4294967295
2.4749377 2.2532346 1.0741789 4294967295
2.4731112 -0.91033381 1.0754786 4294967295
2.4770005 2.2522738 1.0501652 4294967295
2.4735003 2.2471051 1.0370445 4294967295
2.4746842 -0.91782546 1.0431585 4294967295
2.4644001 2.2548664 1.0077076 4294967295
2.479444 2.2413754 1.0132979 4294967295
2.4890001 0.49351794 1.0062283 4294967295
2.477731 -0.91624945 1.0137478 4294967295
2.4697089 2.2614965 0.98670161 4294967295
2.4809213 2.2378199 0.98405313 4294967295
2.4890001 0.49351794 0.99756598 4294967295
2.4890001 -0.89823419 0.9802413 4294967295
2.4745924 -0.911506 0.9854424 4294967295
2.4670587 2.2605669 0.95597816 4294967295
2.4804285 2.2371964 0.95522296 4294967295
2.4890001 2.2144396 0.94559181 4294967295
2.4756 0.49889478 0.95248938 4294967295
2.4890001 -0.89823425 0.95714164 4294967295
2.4728422 -0.90627545 0.95490992 4294967295
2.4706943 2.2634132 0.92399246 4294967295
2.4842567 2.2334054 0.9264552 4294967295
2.4887722 2.2074115 0.92508149 4294967295
2.4771111 0.5045616 0.92247272 4294967295
2.4890001 -0.89823419 0.93981695 4294967295
2.4743123 -0.90404421 0.92477667 4294967295
2.4651198 2.2608998 0.8982771 4294967295
2.4783411 2.2338037 0.8945024 4294967295
2.4890001 2.2105899 0.90131754 4294967295
2.4772222 0.50521964 0.89567029 4294967295
2.4890001 -0.89823419 0.88206792 4294967295
2.4743335 -0.90441138 0.89523888 4294967295
2.4742856 2.2369027 0.86581528 4294967295
2.4771428 0.50429243 0.865547 4294967295
2.4890001 -0.89823425 0.86474311 4294967295
2.472182 -0.90649116 0.86397338 4294967295
2.4744799 2.2380056 0.83471024 4294967295
2.4792728 0.50622118 0.83619148 4294967295
2.4769995 -0.91477627 0.83512819 4294967295
2.4769683 2.2304573 0.80488706 4294967295
2.4793334 0.50629193 0.80652428 4294967295
2.4782667 -0.92309576 0.80574983 4294967295
2.4768636 2.2301023 0.77568233 4294967295
2.4758182 0.50499034 0.77518606 4294967295
2.4791334 -0.925717 0.77823484 4294967295
2.47 -0.93149316 0.77041841 4294967295
2.4758432 2.2327566 0.74532527 4294967295
2.4768336 0.50642055 0.74524128 4294967295
2.4775381 -0.91949904 0.74377048 4294967295
2.47 -0.93149316 0.75609136 4294967295
2.4755583 2.2250779 0.71388209 4294967295
2.4744 0.51358718 0.71342313 4294967295
2.4744999 -0.91338956 0.71537137 4294967295
2.4649999 2.2874541 0.67268473 4294967295
2.4656923 2.2636609 0.67536366 4294967295
2.4757631 2.2333109 0.68467999 4294967295
2.4776666 -0.91904372 0.68624598 4294967295
2.4694998 2.2876856 0.65756303 4294967295
2.4768107 2.2633722 0.65570986 4294967295
2.4875295 2.2419846 0.65811843 4294967295
2.4707501 0.51999187 0.65727824 4294967295
2.4776998 -0.9165656 0.6539253 4294967295
2.46 2.2856681 0.63812929 4294967295
2.4676921 2.2615283 0.63079822 4294967295
2.479543 2.2359173 0.62691861 4294967295
2.4804707 2.2054787 0.61914843 4294967295
2.4830003 2.183161 0.61273533 4294967295
2.474 0.5249843 0.63880157 4294967295
2.4755833 -0.91012603 0.62259865 4294967295
2.4661999 2.2277915 0.59745932 4294967295
2.4735458 2.2032785 0.59320343 4294967295
2.4804287 2.1846006 0.59923434 4294967295
2.4890001 -0.92133385 0.60487247 4294967295
2.4779 -0.94309098 0.60678512 4294967295
2.4762502 -0.97550189 0.59222054 4294967295
2.4718463 2.2262778 0.56236577 4294967295
2.4822354 2.2128091 0.56872571 4294967295
2.4772859 0.51828384 0.56177658 4294967295
2.483 -0.92255914 0.55397397 4294967295
2.4781537 -0.94517869 0.55718827 4294967295
2.4770627 -0.97473764 0.56173134 4294967295
2.4700418 2.2259598 0.53713644 4294967295
2.4828634 2.2123661 0.53239632 4294967295
2.475143 0.4956868 0.54451668 4294967295
2.476125 0.46511316 0.5383718 4294967295
2.4753637 0.43492797 0.53236467 4294967295
2.4774003 0.40500799 0.53263581 4294967295
2.4776363 0.37471053 0.53289968 4294967295
2.4726665 0.34302661 0.52782929 4294967295
2.4744546 0.31420407 0.52975869 4294967295
2.4769998 0.28424892 0.53263426 4294967295
2.4798 0.25579268 0.53264874 4294967295
2.4755833 0.2271287 0.52928317 4294967295
2.4748333 0.19499296 0.52687675 4294967295
2.4769166 0.16403173 0.52832574 4294967295
2.4754999 0.13473555 0.52688015 4294967295
2.4812222 0.10754305 0.52657652 4294967295
2.4823334 0.07239107 0.52593797 4294967295
2.4825001 0.042966336 0.52690071 4294967295
2.4818573 0.016628398 0.52566218 4294967295
2.4873333 -0.0088967076 0.52402109 4294967295
2.4873333 -0.083912469 0.52402109 4294967295
2.4790001 -0.10664201 0.52400762 4294967295
2.4806669 -0.13356657 0.5249728 4294967295
2.487 -0.16469574 0.52402055 4294967295
2.4890001 -0.19369575 0.52402377 4294967295
2.4890001 -0.21679537 0.52402377 4294967295
2.4825714 -0.46801177 0.52483839 4294967295
2.4789996 -0.49487385 0.52688926 4294967295
2.4801111 -0.52291137 0.52657348 4294967295
2.485667 -0.5510087 0.52401841 4294967295
2.4810002 -0.67658985 0.52401084 4294967295
2.4814999 -0.70264244 0.5268991 4294967295
2.4823334 -0.72881234 0.52401298 4294967295
2.4802501 -0.80011243 0.52400964 4294967295
2.4806666 -0.82487661 0.52657694 4294967295
2.4814997 -0.85521632 0.5268991 4294967295
2.4757333 -0.88692868 0.53052586 4294967295
2.4711175 -0.91199648 0.54187834 4294967295
2.4616668 -0.93976957 0.54682553 4294967295
2.4702399 2.2282159 0.50495821 4294967295
2.4824998 2.2141118 0.50961196 4294967295
2.46 0.21380207 0.5182693 4294967295
2.4640002 0.19699435 0.51826644 4294967295
2.4612501 0.17108616 0.51826841 4294967295
2.46 0.12248015 0.5182693 4294967295
2.4641669 0.1036216 0.51731509 4294967295
2.4655454 0.075695373 0.50813782 4294967295
2.4655001 0.050673235 0.51426893 4294967295
2.4681668 0.012172457 0.51731229 4294967295
2.4693687 -0.016973021 0.50893033 4294967295
2.4734006 -0.043276221 0.50679636 4294967295
2.46925 -0.072081551 0.50873095 4294967295
2.4677145 -0.10370773 0.51663309 4294967295
2.4678571 -0.13724132 0.51663136 4294967295
2.4681249 -0.16522831 0.51147562 4294967295
2.4672859 -0.19527504 0.50764811 4294967295
2.47068 -0.22667211 0.50681156 4294967295
2.4774086 -0.25524169 0.50521052 4294967295
2.4782996 -0.28486165 0.50389469 4294967295
2.4731429 -0.31479448 0.50619298 4294967295
2.4721303 -0.34599453 0.5085575 4294967295
2.4753997 -0.3749904 0.50420457 4294967295
2.4789999 -0.40573055 0.50100851 4294967295
2.4773331 -0.43562648 0.50534338 4294967295
2.4690418 -0.46280992 0.50920504 4294967295
2.4635 -0.49292865 0.51484108 4294967295
2.4644997 -0.52629286 0.51541233 4294967295
2.4695559 -0.55443621 0.51572198 4294967295
2.4740908 -0.58443975 0.51513344 4294967295
2.4774001 -0.61526358 0.51539069 4294967295
2.4749091 -0.64464837 0.51565701 4294967295
2.4657998 -0.67358464 0.51826519 4294967295
2.4625001 -0.70727694 0.51826751 4294967295
2.468611 -0.73877764 0.50714082 4294967295
2.4701538 -0.7646789 0.50726628 4294967295
2.4669168 -0.79199719 0.51445353 4294967295
2.46 -0.81356955 0.5182693 4294967295
2.4620001 -0.8587898 0.51712632 4294967295
2.4616668 -0.87694323 0.51826811 4294967295
2.4728436 2.2261996 0.47738412 4294967295
2.477 2.2175536 0.47285831 4294967295
2.46 0.39216515 0.47260833 4294967295
2.46 0.38274759 0.47146681 4294967295
2.4628944 0.072697863 0.47495151 4294967295
2.4671428 -0.021092698 0.48555151 4294967295
2.4682355 -0.044189416 0.48256016 4294967295
2.4614284 -0.063460127 0.48318896 4294967295
2.46 -0.20856181 0.48973119 4294967295
2.4622724 -0.22875489 0.4782806 4294967295
2.4681668 -0.25507134 0.4753195 4294967295
2.4678123 -0.2847251 0.47461158 4294967295
2.4624996 -0.30712166 0.48072633 4294967295
2.4633331 -0.37888107 0.483504 4294967295
2.4650002 -0.40515155 0.47557732 4294967295
2.4640906 -0.43083143 0.47929546 4294967295
2.4631815 -0.7361747 0.47852516 4294967295
2.4617496 -0.76016831 0.47857457 4294967295
2.4735 2.2207038 0.44368136 4294967295
2.4737914 2.2154622 0.44291824 4294967295
2.4621429 0.071170196 0.45134908 4294967295
2.46 0.059696324 0.44977784 4294967295
2.46 -0.23709992 0.45548546 4294967295
2.4607143 -0.25674599 0.45383599 4294967295
2.4613633 -0.28447109 0.45285535 4294967295
2.46 -0.30559134 0.45548546 4294967295
2.46 -0.41974378 0.44977784 4294967295
2.4606516 -0.43624052 0.44305545 4294967295
2.4604166 -0.46262783 0.43834877 4294967295
2.4649999 2.2502792 0.40388137 4294967295
2.4722576 2.2318959 0.41222525 4294967295
2.484 2.2147791 0.41578656 4294967295
2.4600003 -0.44094348 0.42450124 4294967295
2.46 -0.45827019 0.42552045 4294967295
2.4625001 2.2508509 0.38685888 4294967295
2.481111 2.2361667 0.38584977 4294967295
2.4890001 2.2129958 0.3926447 4294967295
2.4630001 2.2530196 0.36740273 4294967295
2.4779036 2.2360251 0.35563269 4294967295
2.4890001 2.2144396 0.34788918 4294967295
2.4758477 2.2291687 0.3254503 4294967295
2.4882858 2.2146273 0.32278728 4294967295
2.4662726 2.258193 0.28729421 4294967295
2.4753749 2.233876 0.29455233 4294967295
2.4862728 2.2146297 0.29274815 4294967295
2.4713447 2.2651536 0.26793754 4294967295
2.4774373 2.2345004 0.26588517 4294967295
2.485111 2.2128921 0.2635974 4294967295
2.4711874 2.2627349 0.23875606 4294967295
2.4686561 2.2353516 0.23511526 4294967295
2.4744053 2.2073207 0.23417205 4294967295
2.4610713 2.25893 0.20625529 4294967295
2.4633868 2.2336757 0.20298976 4294967295
2.4738789 2.2068689 0.20622131 4294967295
2.46 2.2514224 0.16725066 4294967295
2.469054 2.2341321 0.17376119 4294967295
2.480875 2.2151122 0.17793137 4294967295
2.4625001 2.2851312 0.13261455 4294967295
2.4652998 2.2640784 0.14513129 4294967295
2.4785833 2.2375727 0.14589164 4294967295
2.4616668 2.2853103 0.12417936 4294967295
2.4660001 2.2654798 0.12103292 4294967295
2.477 2.2398882 0.11393815 4294967295
2.4727499 2.2250607 0.097298384 4294967295
2.4754839 2.2053437 0.081758648 4294967295
2.4815001 2.1875896 0.072056323 4294967295
2.4625001 2.2222836 0.044053644 4294967295
2.4744115 2.2012479 0.053402722 4294967295
2.4848335 2.1867015 0.064717203 4294967295
2.4687221 2.2348783 0.024072349 4294967295
2.4820769 2.2113631 0.025428057 4294967295
2.4688947 2.2357194 -0.0046643615 4294967295
2.4822693 2.2113137 -0.0045139194 4294967295
2.4649999 2.2502792 -0.039358199 4294967295
2.4752095 2.2352548 -0.034800589 4294967295
2.4860833 2.2142401 -0.031167805 4294967295
2.4739027 2.2337346 -0.061733484 4294967295
2.4819167 2.2107582 -0.069578767 4294967295
2.4644117 2.2224894 -0.093880057 4294967295
2.478548 2.2077127 -0.095573902 4294967295
2.484 2.3194938 -0.13876426 4294967295
2.4690001 2.2911682 -0.13287979 4294967295
2.4648995 2.2598994 -0.13141465 4294967295
2.4732065 2.2344053 -0.12602031 4294967295
2.4813681 2.2109656 -0.12140387 4294967295
2.484 2.3194938 -0.15317249 4294967295
2.4754999 2.2948089 -0.1542232 4294967295
2.4745159 2.2624753 -0.15310556 4294967295
2.4851289 2.2360895 -0.1543119 4294967295
2.4890001 2.2144396 -0.14009029 4294967295
2.4733336 2.2911735 -0.1780085 4294967295
2.4706578 2.2644825 -0.18514752 4294967295
2.4810367 2.2414498 -0.18530297 4294967295
2.4685161 2.2628949 -0.21410573 4294967295
2.4807308 2.2416008 -0.21559566 4294967295
2.4665387 2.2604835 -0.23713923 4294967295
2.4765334 2.2354836 -0.24491489 4294967295
2.4828463 2.2098389 -0.25543702 4294967295
2.4673998 2.2249835 -0.26602763 4294967295
2.4760904 2.2034311 -0.27531606 4294967295
2.4877501 2.1916802 -0.29560292 4294967295
2.4890001 2.1855652 -0.30178761 4294967295
2.5008569 1.0335416 1.9072218 4294967295
2.50175 1.0064864 1.9102285 4294967295
2.4944286 0.98239863 1.9080746 4294967295
2.5079999 0.81151056 1.9109132 4294967295
2.5053334 -0.89700949 1.912017 4294967295
2.51 1.0829482 1.8722196 4294967295
2.5065649 1.0638838 1.8811116 4294967295
2.5049598 1.0378869 1.8854171 4294967295
2.4951429 1.003909 1.8833876 4294967295
2.493 0.9834879 1.8874453 4294967295
2.4992499 0.81301892 1.8831092 4294967295
2.5115001 0.80583173 1.8769118 4294967295
2.5023634 -0.89460421 1.8842024 4294967295
2.502667 2.2227056 1.8421324 4294967295
2.5046427 2.2063351 1.8523055 4294967295
2.5037777 2.1762452 1.8591676 4294967295
2.5067778 2.1458981 1.853668 4294967295
2.5050001 2.1171789 1.8510183 4294967295
2.4943337 2.0860803 1.8504715 4294967295
2.503 1.0926085 1.852697 4294967295
2.5079331 1.0310618 1.8565542 4294967295
2.4940526 1.0080098 1.8543438 4294967295
2.493 0.93390912 1.8457166 4294967295
2.4990623 0.91187048 1.8452995 4294967295
2.5040002 0.88495588 1.852522 4294967295
2.5061002 0.85449362 1.8625582 4294967295
2.506727 0.82325798 1.859341 4294967295
2.5082941 0.80201197 1.8553855 4294967295
2.4979999 -0.89954239 1.8647931 4294967295
2.5063751 -0.90594786 1.8528249 4294967295
2.5055885 2.230365 1.8257184 4294967295
2.5170002 2.2028518 1.8146802 4294967295
2.5160005 2.1695788 1.8176699 4294967295
2.5139093 2.1448672 1.8183982 4294967295
2.5114 2.1197739 1.8238508 4294967295
2.4968891 2.0869346 1.8246086 4294967295
2.5080001 1.5388839 1.8100507 4294967295
2.5056365 1.513115 1.8119942 4294967295
2.5017147 1.4860945 1.8130223 4294967295
2.4980001 1.4660937 1.8121402 4294967295
2.502526 1.2736173 1.8151634 4294967295
2.5006666 1.2507305 1.8140014 4294967295
2.5035198 1.1220782 1.8202779 4294967295
2.5043333 1.1047032 1.8352618 4294967295
2.5135 1.024693 1.8362017 4294967295
2.5027728 1.002241 1.8284558 4294967295
2.4953334 0.97685832 1.817807 4294967295
2.493 0.93506593 1.8289424 4294967295
2.5011935 0.91654587 1.8263812 4294967295
2.5117145 0.81521177 1.831102 4294967295
2.5132 0.8026945 1.8331281 4294967295
2.5046153 -0.90742755 1.8248398 4294967295
2.5022633 2.2277396 1.7985411 4294967295
2.5144582 2.2093673 1.7953887 4294967295
2.5156667 2.1747408 1.7992064 4294967295
2.510334 2.1455724 1.7942617 4294967295
2.5074346 2.116262 1.7933121 4294967295
2.4977729 2.0855379 1.7947739 4294967295
2.4930003 2.0650389 1.7952657 4294967295
2.5015717 1.9616621 1.7909708 4294967295
2.5045455 1.935851 1.7990066 4294967295
2.5041907 1.9050578 1.7975516 4294967295
2.4982224 1.8780823 1.7914765 4294967295
2.4930003 1.8593788 1.7849827 4294967295
2.507556 1.7493411 1.785894 4294967295
2.5030503 1.7228401 1.7897745 4294967295
2.4951432 1.6919903 1.7913011 4294967295
2.494482 1.6637059 1.7960173 4294967295
2.4992807 1.6331733 1.7903224 4294967295
2.5041428 1.6055912 1.7968391 4294967295
2.5044739 1.5761521 1.8051608 4294967295
2.5008004 1.5501212 1.8080715 4294967295
2.4930003 1.5267882 1.8081194 4294967295
2.5040002 1.4523721 1.8029348 4294967295
2.5039525 1.4235164 1.7921752 4294967295
2.502074 1.3946221 1.7908517 4294967295
2.5035408 1.3654851 1.795004 4294967295
2.5029285 1.3352051 1.7924771 4294967295
2.5034704 1.3040892 1.7948831 4294967295
2.5083334 1.2859117 1.8063252 4294967295
2.5074999 1.2389591 1.8054136 4294967295
2.5030663 1.2164236 1.7985855 4294967295
2.5028889 1.1843941 1.7948186 4294967295
2.5044813 1.1531994 1.7974511 4294967295
2.5074999 1.1356761 1.8054137 4294967295
2.5062728 0.972987 1.7969819 4294967295
2.4934547 0.95301366 1.7946783 4294967295
2.4999523 0.90914237 1.7973349 4294967295
2.5079999 0.89879537 1.7925938 4294967295
2.5020001 -0.89943415 1.7930199 4294967295
2.5050001 -0.90109414 1.8055935 4294967295
2.4930003 2.2237825 1.7763064 4294967295
2.5071065 2.2067316 1.7649007 4294967295
2.5162854 2.1733847 1.7626033 4294967295
2.5146317 2.1478829 1.7698532 4294967295
2.5140004 2.1171074 1.7752209 4294967295
2.5071177 2.0844491 1.7685206 4294967295
2.4950004 2.0617392 1.7645648 4294967295
2.5055001 1.9883415 1.759347 4294967295
2.5006669 1.9746742 1.7740401 4294967295
2.5106671 1.8715894 1.7754947 4294967295
2.5027223 1.8453121 1.7673044 4294967295
2.501667 1.8145641 1.7555043 4294967295
2.5001366 1.7818844 1.7609153 4294967295
2.5095627 1.7578075 1.7649751 4294967295
2.5131338 1.7243496 1.7629352 4294967295
2.5025651 1.6956091 1.7643291 4294967295
2.49597 1.6620491 1.7622524 4294967295
2.50475 1.6429317 1.7691399 4294967295
2.517 1.4130093 1.7796409 4294967295
2.513 1.3903522 1.7776393 4294967295
2.5155001 0.96665674 1.7720771 4294967295
2.5034759 0.94640666 1.7684199 4294967295
2.5000558 0.91560304 1.7705016 4294967295
2.4987142 -0.89924771 1.7721407 4294967295
2.5064001 -0.90101647 1.7580495 4294967295
2.5031905 2.2292554 1.7290171 4294967295
2.5091741 2.2103302 1.7433112 4294967295
2.5080004 2.0535336 1.7447357 4294967295
2.5018003 2.0261238 1.7412589 4294967295
2.4987147 2.0019398 1.744813 4294967295
2.5113335 1.8089597 1.7392442 4294967295
2.4980004 1.7853811 1.7370569 4294967295
2.4961255 1.7560163 1.7416887 4294967295
2.5062594 1.7273086 1.7365775 4294967295
2.5083337 1.6913788 1.7481407 4294967295
2.5065 1.6702619 1.7467536 4294967295
2.5046 -0.89687717 1.7344933 4294967295
2.4979999 -0.90148205 1.7469492 4294967295
2.5034094 2.2404358 1.7049747 4294967295
2.5058892 1.7785362 1.7146319 4294967295
2.5054448 1.7543232 1.7137821 4294967295
2.4930003 1.7350188 1.7155725 4294967295
2.5038335 -0.89583141 1.7043048 4294967295
2.5030589 2.2296512 1.6783755 4294967295
2.5075836 2.2091336 1.6672978 4294967295
2.5034499 -0.89471585 1.6741104 4294967295
2.4970002 2.199523 1.6499017 4294967295
2.5046668 2.1837978 1.640582 4294967295
2.503588 -0.88980627 1.6461526 4294967295
2.4946668 2.1988997 1.6070375 4294967295
2.5017066 2.1778541 1.6141207 4294967295
2.5007498 -0.89279556 1.6172601 4294967295
2.517 -0.90249896 1.6044449 4294967295
2.5075002 2.2526853 1.5727087 4294967295
2.5040004 2.2360899 1.5846936 4294967295
2.5054998 2.2055495 1.5954065 4294967295
2.5100002 2.1806998 1.5955973 4294967295
2.493 -0.89967769 1.5998887 4294967295
2.5027997 -0.91017824 1.5861241 4294967295
2.5044813 2.2561593 1.5551342 4294967295
2.5124998 0.55356222 1.5500412 4294967295
2.5047777 -0.91941863 1.5565453 4294967295
2.5002503 2.2519796 1.5348631 4294967295
2.5036249 2.2441218 1.5224233 4294967295
2.5005 0.53349966 1.5248073 4294967295
2.5002501 -0.9269442 1.53196 4294967295
2.5036001 -0.93486059 1.518499 4294967295
2.5044549 2.2403164 1.4947028 4294967295
2.4979999 0.51848555 1.5035262 4294967295
2.493 0.5058794 1.484205 4294967295
2.5079999 -0.92836684 1.4841875 4294967295
2.5014286 -0.93587631 1.4965822 4294967295
