# .PCD v0.7 - Point Cloud Data file format
VERSION 0.7
FIELDS x y z rgb
SIZE 4 4 4 4
TYPE F F F U
COUNT 1 1 1 1
WIDTH 1100
HEIGHT 1
VIEWPOINT 0 0 0 1 0 0 0
POINTS 1100
DATA ascii
1.378 0.84233004 0.06822598 4294967295
1.3722222 0.82075703 0.056660771 4294967295
1.3725924 0.80132484 0.05606544 4294967295
1.3633332 -0.91620898 0.06390506 4294967295
1.3719606 0.82141596 0.022670627 4294967295
1.3673697 0.79817891 0.022750437 4294967295
1.368 0.54103595 0.01119858 4294967295
1.3553333 0.53707117 0.010673106 4294967295
1.3787367 0.493426 0.01478231 4294967295
1.3631248 -0.90682364 0.018963456 4294967295
1.3701667 1.2108868 -0.017317176 4294967295
1.3588998 1.1853334 -0.018515944 4294967295
1.357 1.1553558 -0.019343317 4294967295
1.3645651 1.1216201 -0.01805836 4294967295
1.3656071 1.0949651 -0.014140189 4294967295
1.3657335 1.0645026 -0.013287604 4294967295
1.3639488 1.0320972 -0.014701962 4294967295
1.3674998 1.0054702 -0.018717289 4294967295
1.3683157 0.97089636 -0.017138481 4294967295
1.3602941 0.94881684 -0.01637733 4294967295
1.3546667 0.91868204 -0.018415987 4294967295
1.3651052 0.88223207 -0.017207563 4294967295
1.367079 0.85255462 -0.0093675256 4294967295
1.3606939 0.82525009 0.00054061413 4294967295
1.3605163 0.79059464 0.0033132434 4294967295
1.3656039 0.76650929 -0.008810401 4294967295
1.3633461 0.73858643 -0.016131639 4294967295
1.3652679 0.52335417 0.0034805536 4294967295
1.3678193 0.49447998 -0.00058323145 4294967295
1.3669757 0.46782288 -0.0087428093 4294967295
1.3632399 0.43704477 -0.015860915 4294967295
1.357 0.41861665 -0.019343376 4294967295
1.3526666 0.19532526 -0.01762104 4294967295
1.358 0.17473994 -0.01974082 4294967295
1.3602858 0.099734239 -0.018840194 4294967295
1.35875 0.083427519 -0.018457115 4294967295
1.3552001 0.015587171 -0.018627942 4294967295
1.3568888 -0.01429328 -0.019299269 4294967295
1.358 -0.030061526 -0.01974082 4294967295
1.3573333 -0.086734727 -0.019475877 4294967295
1.358 -0.41760892 -0.01974082 4294967295
1.3586665 -0.43410712 -0.017899454 4294967295
1.3585999 -0.46665138 -0.017140508 4294967295
1.3581818 -0.49042159 -0.018661201 4294967295
1.3564444 -0.5272783 -0.019122601 4294967295
1.3559999 -0.55543786 -0.017543733 4294967295
1.3649564 -0.58730912 -0.016985059 4294967295
1.3634483 -0.61450702 -0.015671432 4294967295
1.3635415 -0.64349777 -0.015994012 4294967295
1.3615999 -0.67111319 -0.018319011 4294967295
1.3597856 -0.83032143 -0.016386032 4294967295
1.3644643 -0.85666102 -0.013700426 4294967295
1.3618362 -0.88773638 -0.010005951 4294967295
1.3739089 -0.90499252 0.0017534494 4294967295
1.375 1.2025877 -0.020117044 4294967295
1.3770911 1.1848073 -0.021226943 4294967295
1.3715835 1.1550241 -0.021423876 4294967295
1.3745 1.135967 -0.020714104 4294967295
1.372 1.0214649 -0.022570014 4294967295
1.370706 1.0064864 -0.025519371 4294967295
1.3615832 0.98260456 -0.022199869 4294967295
1.3743334 0.94053853 -0.02144599 4294967295
1.3720833 0.91643178 -0.022677779 4294967295
1.3736668 0.89810234 -0.020651281 4294967295
1.3731428 0.72511548 -0.024392068 4294967295
1.3647059 0.70919734 -0.03246963 4294967295
1.3604 0.67850029 -0.039632857 4294967295
1.352 0.64763534 -0.033040404 4294967295
1.37525 0.42504558 -0.021010458 4294967295
1.3664348 0.40599871 -0.023770452 4294967295
1.3638946 0.37418306 -0.023740411 4294967295
1.36575 0.34287602 -0.02320236 4294967295
1.3650556 0.31779274 -0.024824381 4294967295
1.3671052 0.28340167 -0.028848112 4294967295
1.3635486 0.25555968 -0.024374664 4294967295
1.3635454 0.2260558 -0.023510635 4294967295
1.3722001 0.1940517 -0.022200823 4294967295
1.3637273 0.15994333 -0.022872984 4294967295
1.3649379 0.13435778 -0.023663402 4294967295
1.3679544 0.10933934 -0.022512794 4294967295
1.3648001 0.072087981 -0.022746205 4294967295
1.3664999 0.043386858 -0.023813188 4294967295
1.3710001 0.014169362 -0.021726727 4294967295
1.3781999 -0.0081273895 -0.024571717 4294967295
1.3640001 -0.045578733 -0.022125542 4294967295
1.3675556 -0.074710764 -0.022829235 4294967295
1.3686154 -0.10307866 -0.022977054 4294967295
1.364875 -0.13510515 -0.025430083 4294967295
1.3653333 -0.16483939 -0.027393758 4294967295
1.3654348 -0.19523399 -0.026674032 4294967295
1.3631816 -0.22353302 -0.025666237 4294967295
1.3601 -0.25573298 -0.026886821 4294967295
1.3631333 -0.28528082 -0.025988758 4294967295
1.3629472 -0.31594133 -0.025520325 4294967295
1.3642999 -0.34355396 -0.023661494 4294967295
1.36725 -0.37446854 -0.023417234 4294967295
1.3671665 -0.40695727 -0.022585213 4294967295
1.3751249 -0.43604651 -0.021359503 4294967295
1.3753333 -0.46442023 -0.020247996 4294967295
1.3733636 -0.49559879 -0.021205485 4294967295
1.375 -0.52334416 -0.023939252 4294967295
1.3756 -0.55546141 -0.022905648 4294967295
1.375 -0.57277775 -0.020117044 4294967295
1.37 -0.68190181 -0.021310449 4294967295
1.3659444 -0.70435929 -0.024996281 4294967295
1.3687 -0.73490775 -0.024621844 4294967295
1.3713332 -0.76585698 -0.02768904 4294967295
1.3668336 -0.79872543 -0.026422918 4294967295
1.3719999 -0.820768 -0.023709536 4294967295
1.4070001 -0.93322784 1.3013957 4294967295
1.3997726 -0.92674559 1.2776439 4294967295
1.3902264 -0.93505627 1.2859151 4294967295
1.3958728 -0.92527258 1.2554884 4294967295
1.3850001 -0.93251264 1.2575605 4294967295
1.3918595 -0.92400682 1.2257161 4294967295
1.381 -0.93093842 1.2367593 4294967295
1.3907754 -0.91536844 1.1947927 4294967295
1.390747 -0.92001814 1.1654384 4294967295
1.3917689 -0.92432022 1.1352694 4294967295
1.3920354 -0.92486143 1.1044364 4294967295
1.409 -0.93019867 1.0943739 4294967295
1.3930337 -0.92400533 1.0734477 4294967295
1.382875 -0.93099731 1.0805156 4294967295
1.3912499 -0.92445284 1.0475819 4294967295
1.3878573 -0.93183106 1.0374353 4294967295
1.3987273 0.51392597 1.0084732 4294967295
1.4045999 0.50009859 1.0062221 4294967295
1.3924257 -0.92217708 1.0143976 4294967295
1.3834 -0.93191165 1.0280888 4294967295
1.388 0.51190776 0.99886262 4294967295
1.3913598 0.49433535 0.99382889 4294967295
1.3917059 0.46444526 0.98181933 4294967295
1.3961999 0.44721642 0.97318411 4294967295
1.3912097 -0.91327423 0.98449522 4294967295
1.3883061 0.45813984 0.95346498 4294967295
1.3917367 0.44522312 0.95884496 4294967295
1.3916236 -0.91420174 0.95470703 4294967295
1.3823333 0.78083384 0.91351676 4294967295
1.3918537 0.77097869 0.92134488 4294967295
1.3849355 0.48812342 0.91726249 4294967295
1.3951609 0.46743315 0.92328739 4294967295
1.409 0.44937024 0.92274511 4294967295
1.3920459 -0.91498381 0.92481023 4294967295
1.3839523 0.78525966 0.89279985 4294967295
1.3953075 0.77751946 0.89611411 4294967295
1.3896298 0.51651633 0.88907373 4294967295
1.3876904 0.49347559 0.89452231 4294967295
1.4020466 0.47429714 0.89574671 4294967295
1.3930999 -0.92059547 0.89713514 4294967295
1.3840002 -0.93335843 0.89325345 4294967295
1.3841759 0.7892862 0.86378652 4294967295
1.3943889 0.77630389 0.86437637 4294967295
1.3923334 0.51539683 0.86521465 4294967295
1.3910854 0.49397352 0.86509502 4294967295
1.3996191 0.47319371 0.8660996 4294967295
1.392536 -0.92266226 0.86518157 4294967295
1.3854495 0.78848726 0.83556974 4294967295
1.3926842 0.77732319 0.8397612 4294967295
1.3950429 0.52180332 0.83462143 4294967295
1.3951433 0.49482453 0.83471173 4294967295
1.3999696 0.47512668 0.83644247 4294967295
1.3931946 -0.92075825 0.83579284 4294967295
1.3884249 0.7855441 0.80539942 4294967295
1.3940006 0.51967359 0.8081845 4294967295
1.3948979 0.49487373 0.80393189 4294967295
1.3993102 0.4750466 0.80394298 4294967295
1.3933148 -0.92508 0.80379152 4294967295
1.3839999 0.84553891 0.76536477 4294967295
1.3819166 0.83430564 0.76671255 4294967295
1.3889669 0.78809935 0.77435452 4294967295
1.3965001 0.51302034 0.77255994 4294967295
1.3946227 0.494084 0.77426732 4294967295
1.3980474 0.47228423 0.77549899 4294967295
1.3922713 -0.92483979 0.77513146 4294967295
1.3814999 -0.93127543 0.77385008 4294967295
1.3833127 0.84577912 0.7535255 4294967295
1.3816001 0.83448744 0.75431645 4294967295
1.3879259 0.78545624 0.74652731 4294967295
1.3926667 0.77804935 0.73659009 4294967295
1.3907306 0.51837778 0.73955673 4294967295
1.3904746 0.49431449 0.74477476 4294967295
1.3915998 0.47303873 0.74423856 4294967295
1.3921963 -0.92270416 0.74482864 4294967295
1.3884616 0.78526133 0.71278071 4294967295
1.3958148 0.77728099 0.71919703 4294967295
1.3893334 0.54087532 0.70812726 4294967295
1.3901682 0.52453947 0.71534443 4294967295
1.390197 0.49498326 0.71577734 4294967295
1.3909421 0.47153595 0.71438622 4294967295
1.3900257 -0.92600435 0.71641821 4294967295
1.4058001 -0.93134356 0.71146119 4294967295
1.3914027 0.78793043 0.68445921 4294967295
1.393 0.54122728 0.69677985 4294967295
1.3896778 0.52125108 0.68887883 4294967295
1.3877127 0.49478006 0.68444031 4294967295
1.3933682 0.47210523 0.68474519 4294967295
1.3922812 -0.9246242 0.68199146 4294967295
1.4066668 -0.9319219 0.69525439 4294967295
1.3890895 0.78674936 0.65680361 4294967295
1.3874167 0.51276737 0.65689903 4294967295
1.3881178 0.49499547 0.65466177 4294967295
1.392784 0.47213101 0.6553067 4294967295
1.39282 -0.92019904 0.65546423 4294967295
1.3830589 -0.93251324 0.64926779 4294967295
1.3867428 0.78478289 0.62510949 4294967295
1.3871112 0.4891732 0.62505329 4294967295
1.3941064 0.47330052 0.62514269 4294967295
1.3935785 -0.92202055 0.62622923 4294967295
1.3840001 -0.93135399 0.63623261 4294967295
1.3874197 0.78523356 0.59409797 4294967295
1.3942221 0.77747452 0.58335972 4294967295
1.3853734 0.48966533 0.59434891 4294967295
1.3905554 0.47179505 0.5953238 4294967295
1.3930626 -0.92636156 0.59411216 4294967295
1.3813334 -0.93116313 0.58633167 4294967295
1.3857073 0.78444594 0.56418031 4294967295
1.3909117 0.77303857 0.56923509 4294967295
1.4069999 0.51075745 0.55818385 4294967295
1.3884289 0.49144629 0.56426936 4294967295
1.3914889 0.47282669 0.56422067 4294967295
1.3928354 -0.92087537 0.56499702 4294967295
1.381 -0.93093842 0.57990736 4294967295
1.3883573 0.78318423 0.53661638 4294967295
1.3886731 0.48948896 0.53525639 4294967295
1.388975 0.47221896 0.53740096 4294967295
1.3936166 -0.92599165 0.53513455 4294967295
1.3827143 -0.93117589 0.52911001 4294967295
1.3901221 0.78387439 0.50533098 4294967295
1.397 0.51036859 0.50929332 4294967295
1.3865361 0.49282297 0.51181364 4294967295
1.3844402 0.47275591 0.50426376 4294967295
1.3919591 -0.9229396 0.50821239 4294967295
1.3918977 0.7827363 0.4741441 4294967295
1.391 0.7792747 0.47706571 4294967295
1.3826551 0.4712764 0.47046191 4294967295
1.392593 -0.92376775 0.47224855 4294967295
1.3816667 -0.93138784 0.46453023 4294967295
1.3911666 0.78741932 0.44477695 4294967295
1.3812824 0.49024573 0.44038686 4294967295
1.3827111 0.4730657 0.44524512 4294967295
1.3917236 -0.92653245 0.44606599 4294967295
1.3870001 -0.93197936 0.45033553 4294967295
1.3909068 0.7888062 0.41545379 4294967295
1.3839999 0.51204151 0.40342611 4294967295
1.3817089 0.49720806 0.41177648 4294967295
1.3816564 0.47220433 0.41263652 4294967295
1.3912543 -0.92127156 0.41426492 4294967295
1.3886451 0.78355515 0.38568169 4294967295
1.3885 0.77867746 0.38371718 4294967295
1.3832142 0.51289582 0.38332206 4294967295
1.3831122 0.49567232 0.38424581 4294967295
1.382951 0.47377402 0.38465524 4294967295
1.3910552 -0.9191227 0.38499725 4294967295
1.391 0.78776491 0.35442638 4294967295
1.3830626 0.51309705 0.35396612 4294967295
1.3831242 0.49567914 0.35536397 4294967295
1.3845111 0.47367331 0.35519314 4294967295
1.3918854 -0.9154219 0.35548949 4294967295
1.388 0.84844273 0.33063024 4294967295
1.3892221 0.78327394 0.33333784 4294967295
1.38475 0.77657241 0.32064518 4294967295
1.3829547 0.51369691 0.32374132 4294967295
1.381977 0.49988726 0.32910708 4294967295
1.3881248 0.47510114 0.32477647 4294967295
1.3921251 -0.90967828 0.32576442 4294967295
1.3816154 0.78166085 0.29685628 4294967295
1.3835884 0.77663183 0.29506963 4294967295
1.3814445 0.51216412 0.29572916 4294967295
1.3842312 0.49486801 0.29255158 4294967295
1.3910944 0.4726837 0.29570347 4294967295
1.3911501 -0.90986001 0.29388839 4294967295
1.3815 0.77395248 0.27702731 4294967295
1.3867499 0.51318985 0.2633608 4294967295
1.3902985 0.49463904 0.26452217 4294967295
1.3977693 0.47696173 0.26443839 4294967295
1.3929139 -0.91865373 0.26594588 4294967295
1.3903823 0.78554291 0.23030379 4294967295
1.3855 0.77779841 0.24417493 4294967295
1.38425 0.5137403 0.2347981 4294967295
1.3847028 0.49631056 0.23677522 4294967295
1.3904078 0.47041705 0.23805812 4294967295
1.3918471 -0.91583037 0.23462301 4294967295
1.3905555 0.78491861 0.21468812 4294967295
1.3837 0.77614784 0.20312622 4294967295
1.39015 0.51496172 0.20323032 4294967295
1.3842826 0.49965397 0.20370674 4294967295
1.3927389 -0.91333789 0.20478919 4294967295
1.3824668 0.78240508 0.17196852 4294967295
1.3859526 0.77720702 0.17447701 4294967295
1.3960249 0.51931959 0.17216271 4294967295
1.3864222 0.50065345 0.17705908 4294967295
1.3810004 0.46243247 0.17137751 4294967295
1.3919185 -0.910851 0.17769361 4294967295
1.3855202 0.78197467 0.14574993 4294967295
1.3891335 0.77885872 0.14475235 4294967295
1.3838753 0.52167696 0.14446649 4294967295
1.3823891 0.50645727 0.14394659 4294967295
1.3856573 0.46285245 0.14057678 4294967295
1.3932188 -0.9180463 0.14407116 4294967295
1.3852273 0.78303707 0.11085743 4294967295
1.3858 0.7780745 0.11625576 4294967295
1.3897144 0.54248184 0.11205107 4294967295
1.3896378 0.52497268 0.11398724 4294967295
1.3826084 0.49656624 0.11301965 4294967295
1.3873284 0.47054556 0.11501279 4294967295
1.3924413 -0.90793943 0.11414954 4294967295
1.388 0.85595888 0.075140059 4294967295
1.3882819 0.78714913 0.086329579 4294967295
1.4035 0.54530281 0.094052464 4294967295
1.3954679 0.5207122 0.086479604 4294967295
1.3841954 0.49389061 0.084877402 4294967295
1.3912998 0.47346172 0.086201876 4294967295
1.3905501 -0.92153418 0.084301502 4294967295
1.4054998 -0.93114901 0.073882937 4294967295
1.3918499 0.85225981 0.05770576 4294967295
1.3831111 0.83333349 0.045868844 4294967295
1.3899285 0.79385465 0.05289036 4294967295
1.391 0.5198257 0.054978639 4294967295
1.3837252 0.49428385 0.055407882 4294967295
1.3961612 0.47660908 0.055480242 4294967295
1.3885 -0.92712522 0.060771137 4294967295
1.4044999 -0.93211055 0.062817574 4294967295
1.3920001 0.84913164 0.019465446 4294967295
1.3836112 0.83363628 0.031077415 4294967295
1.3894136 0.78847617 0.024755627 4294967295
1.3953333 0.77954072 0.011825979 4294967295
1.3985 0.5417366 0.01121664 4294967295
1.3922982 0.52362496 0.021285474 4294967295
1.3831296 0.49446559 0.027163893 4294967295
1.3954411 0.47740698 0.022823334 4294967295
1.3864999 -0.91855949 0.016649187 4294967295
1.4069998 -0.93214267 0.016280234 4294967295
1.3922433 1.2107756 -0.015258849 4294967295
1.3979026 1.1855949 -0.017704904 4294967295
1.3967576 1.155463 -0.017156601 4294967295
1.3928001 1.1258881 -0.012645602 4294967295
1.3940729 1.0961963 -0.012994528 4294967295
1.3926665 1.0647341 -0.012843251 4294967295
1.3904468 1.0325656 -0.012984514 4294967295
1.3925372 1.0041722 -0.013331473 4294967295
1.392085 0.97605234 -0.014784694 4294967295
1.386 0.95815283 -0.019609094 4294967295
1.3985454 0.90531623 -0.01843524 4294967295
1.3930713 0.88299274 -0.011631668 4294967295
1.3872941 0.85899431 -0.00012391806 4294967295
1.3881539 0.78260398 0.0059581399 4294967295
1.3913126 0.76677084 -0.0046642423 4294967295
1.3911177 0.74343979 -0.017512739 4294967295
1.4069999 0.54666674 0.0097512603 4294967295
1.3830668 0.52666998 0.0077351332 4294967295
1.38125 0.48939088 0.008674264 4294967295
1.3903561 0.46558115 -0.0023970604 4294967295
1.3925115 0.43688005 -0.015630782 4294967295
1.391 -0.47778106 -0.01994729 4294967295
1.3924444 -0.49389631 -0.019787192 4294967295
1.3896316 -0.58921742 -0.018557131 4294967295
1.3925427 -0.61440414 -0.015910923 4294967295
1.3923215 -0.64387947 -0.017788708 4294967295
1.391 -0.66819513 -0.01994729 4294967295
1.3913447 -0.8566379 -0.016617358 4294967295
1.3919448 -0.8861379 -0.0093489289 4294967295
1.3916069 -0.90773839 0.00070208311 4294967295
1.3839999 1.204037 -0.020441175 4294967295
1.3849092 1.1845247 -0.021087408 4294967295
1.3840669 1.1575288 -0.02174902 4294967295
1.3839999 1.1382091 -0.020441175 4294967295
1.3822502 1.0111595 -0.022695601 4294967295
1.3949313 0.94573027 -0.023577988 4294967295
1.3929089 0.91827077 -0.022870958 4294967295
1.3839999 0.89737546 -0.020441175 4294967295
1.3937407 0.72904617 -0.028555095 4294967295
1.3916365 0.70565128 -0.04484421 4294967295
1.3841667 0.67696607 -0.046198308 4294967295
1.3874 0.42379519 -0.021110415 4294967295
1.3935748 0.40547046 -0.024968684 4294967295
1.3937896 0.37413085 -0.025432885 4294967295
1.3928462 0.34501863 -0.022879839 4294967295
1.3946997 0.31314307 -0.025936604 4294967295
1.3930533 0.28648907 -0.025567234 4294967295
1.3926666 0.25586429 -0.025079608 4294967295
1.3925712 0.224996 -0.025734127 4294967295
1.3939202 0.19602919 -0.024692476 4294967295
1.39175 0.16264835 -0.026679218 4294967295
1.3925 0.13420981 -0.022752821 4294967295
1.3936251 0.10805161 -0.022297204 4294967295
1.3917729 0.076199338 -0.026397943 4294967295
1.3921303 0.046136446 -0.027254999 4294967295
1.3928261 0.013983254 -0.02429229 4294967295
1.3942856 -0.014670638 -0.027216733 4294967295
1.3917999 -0.040493209 -0.028970122 4294967295
1.3923532 -0.07756196 -0.027493298 4294967295
1.3916956 -0.10648113 -0.026102483 4294967295
1.3932592 -0.13428117 -0.028710604 4294967295
1.3955554 -0.16591495 -0.031414032 4294967295
1.3931161 -0.19470242 -0.026459277 4294967295
1.3916667 -0.22418082 -0.026283443 4294967295
1.3916004 -0.25276721 -0.033565223 4294967295
1.3925309 -0.28655097 -0.029916644 4294967295
1.3941139 -0.31460777 -0.027156532 4294967295
1.3923514 -0.34460402 -0.025343895 4294967295
1.3930624 -0.37373409 -0.026184201 4294967295
1.3902221 -0.40432912 -0.025846124 4294967295
1.3944335 -0.43472993 -0.022988856 4294967295
1.3946087 -0.46387526 -0.021754384 4294967295
1.3920001 -0.4957059 -0.021390855 4294967295
1.3951428 -0.52304602 -0.025394201 4294967295
1.3947726 -0.55493551 -0.026111066 4294967295
1.3957999 -0.57852578 -0.021790743 4294967295
1.409 -0.6555925 -0.020396173 4294967295
1.3932109 -0.67627972 -0.02146554 4294967295
1.3928649 -0.7059586 -0.025012136 4294967295
1.3949311 -0.73316848 -0.027479529 4294967295
1.3951178 -0.76314884 -0.031048775 4294967295
1.3895453 -0.79996103 -0.030071735 4294967295
1.3913429 -0.82490182 -0.024677753 4294967295
1.4047499 -0.84754181 -0.021208167 4294967295
1.403 0.69159657 -0.050646961 4294967295
1.4069999 0.67561364 -0.05227387 4294967295
1.4365455 -0.92717177 1.3098309 4294967295
1.4292144 -0.93404895 1.3108151 4294967295
1.4260567 -0.92307246 1.2835455 4294967295
1.4185715 -0.93180847 1.2952833 4294967295
1.4248533 -0.92773682 1.256197 4294967295
1.4336001 -0.9304722 1.2454326 4294967295
1.4238948 -0.92660189 1.2203679 4294967295
1.4308823 -0.93155223 1.2317865 4294967295
1.4291514 -0.92167914 1.1943053 4294967295
1.427881 -0.92638779 1.1667356 4294967295
1.4300001 -0.93078518 1.1526978 4294967295
1.4223844 -0.92883098 1.133548 4294967295
1.4287583 -0.93099678 1.1363646 4294967295
1.42665 -0.92840064 1.1094683 4294967295
1.4275483 -0.93088698 1.1022545 4294967295
1.4291247 -0.92521852 1.0745108 4294967295
1.4215 -0.93017948 1.0895576 4294967295
1.4349999 0.49428624 1.0317249 4294967295
1.4217142 -0.92724138 1.0561819 4294967295
1.4295526 -0.93493038 1.0449631 4294967295
1.4223514 0.49239558 1.0162437 4294967295
1.4316667 0.4759692 1.0045186 4294967295
1.4271873 -0.92115927 1.0123625 4294967295
1.429 -0.93107617 1.0262644 4294967295
1.424 0.46105018 0.99177217 4294967295
1.4273254 -0.91539377 0.98383641 4294967295
1.4258056 -0.91370171 0.95510399 4294967295
1.4314286 0.78175181 0.91800129 4294967295
1.4274783 0.77649534 0.92882514 4294967295
1.4122857 0.45369419 0.91408765 4294967295
1.4123999 0.44652233 0.9161787 4294967295
1.4266999 -0.91292167 0.92414701 4294967295
1.4279581 0.78450501 0.89613354 4294967295
1.415 0.77958792 0.90804493 4294967295
1.4230268 0.46748832 0.89935923 4294967295
1.414 0.44604379 0.90941101 4294967295
1.4284858 -0.92039752 0.89591473 4294967295
1.4298124 0.7864995 0.86690283 4294967295
1.4271305 0.471118 0.8626461 4294967295
1.427804 -0.92309427 0.86520416 4294967295
1.4243332 0.78913033 0.83953738 4294967295
1.4267827 0.4748908 0.83620578 4294967295
1.4261862 -0.92219967 0.83664745 4294967295
1.4301667 -0.93089265 0.82261133 4294967295
1.4292941 0.79896444 0.80495834 4294967295
1.4256923 0.47580278 0.80958188 4294967295
1.4280739 -0.9281441 0.80098897 4294967295
1.4295909 -0.93171823 0.80982345 4294967295
1.4276189 0.79488623 0.77403343 4294967295
1.4150001 0.46660233 0.7800051 4294967295
1.4281349 -0.92748427 0.77655232 4294967295
1.4299091 -0.93012279 0.76812106 4294967295
1.4261361 0.78886783 0.74580175 4294967295
1.4288166 -0.92534542 0.74496573 4294967295
1.428087 0.78620982 0.71304345 4294967295
1.424 0.4690102 0.70235425 4294967295
1.43125 -0.92740989 0.72818601 4294967295
1.4279766 -0.93599886 0.71531433 4294967295
1.4243045 0.78886777 0.68636644 4294967295
1.4277647 0.47054541 0.6869629 4294967295
1.4263749 -0.92085606 0.68033588 4294967295
1.4274118 -0.93375468 0.69413453 4294967295
1.4243999 0.79445058 0.65384185 4294967295
1.4269 0.47295085 0.64908063 4294967295
1.4260226 -0.91810054 0.65449297 4294967295
1.4272221 0.79790288 0.62496221 4294967295
1.4254166 0.47307009 0.62597114 4294967295
1.4268364 -0.92147541 0.62432963 4294967295
1.4276 0.79247087 0.59680855 4294967295
1.4247999 0.47258273 0.59071827 4294967295
1.4275441 -0.92535311 0.59483701 4294967295
1.419 -0.93020421 0.59472507 4294967295
1.426625 0.78969133 0.5603919 4294967295
1.4213998 0.77783239 0.57175416 4294967295
1.427 0.47414309 0.56286776 4294967295
1.4275966 -0.91797137 0.56541669 4294967295
1.4252 0.79511976 0.53321022 4294967295
1.423 0.51656562 0.52890366 4294967295
1.432 0.47331801 0.54889488 4294967295
1.4283547 -0.92540789 0.53546464 4294967295
1.4265001 -0.93016493 0.54050958 4294967295
1.4282631 0.79438525 0.50538123 4294967295
1.4296215 -0.9262054 0.50912023 4294967295
1.4288499 -0.93185043 0.49860612 4294967295
1.42616 0.78969258 0.47704589 4294967295
1.4287169 -0.92478693 0.4741534 4294967295
1.4281 -0.93120062 0.48652518 4294967295
1.4287895 0.79816961 0.44657823 4294967295
1.4286522 -0.92656237 0.45471576 4294967295
1.4274002 -0.93404078 0.44050825 4294967295
1.4259374 0.79801363 0.41582125 4294967295
1.4261363 -0.92539459 0.40815565 4294967295
1.4295554 -0.93361759 0.422809 4294967295
1.4222 0.7947672 0.39166614 4294967295
1.4275801 -0.92176819 0.38452971 4294967295
1.4276248 0.79784524 0.35587129 4294967295
1.4330001 0.47697333 0.34443843 4294967295
1.427341 -0.9197014 0.35446817 4294967295
1.4274615 0.79382956 0.33353394 4294967295
1.4277778 0.47706649 0.32204652 4294967295
1.4275714 -0.91743499 0.32523215 4294967295
1.4285332 0.47304764 0.29450762 4294967295
1.4270601 -0.90878439 0.29339644 4294967295
1.4267778 0.47684696 0.26361886 4294967295
1.4281194 -0.91721302 0.26588652 4294967295
1.4216001 0.79046774 0.22412843 4294967295
1.4266999 0.4702262 0.24127626 4294967295
1.4277585 -0.917476 0.23583636 4294967295
1.4272858 0.79344118 0.21623179 4294967295
1.4280803 -0.91400671 0.20616466 4294967295
1.4135 0.52951491 0.17957267 4294967295
1.4267778 -0.91424656 0.17538831 4294967295
1.431 0.78840303 0.15377516 4294967295
1.4307142 -0.92471653 0.14470905 4294967295
1.4283636 -0.93092674 0.13787961 4294967295
1.4241763 0.46585417 0.11158919 4294967295
1.4287894 -0.92256927 0.11762974 4294967295
1.4206249 0.7942214 0.08265996 4294967295
1.4212726 0.54711223 0.080402792 4294967295
1.4145555 0.53574526 0.079576612 4294967295
1.4280372 0.47015142 0.085573643 4294967295
1.4304117 -0.92010999 0.090874285 4294967295
1.4277998 -0.93597066 0.075754702 4294967295
1.4257779 0.88366807 0.051084965 4294967295
1.4299091 0.80619413 0.055428356 4294967295
1.4328749 0.5504936 0.064783096 4294967295
1.41825 0.53787541 0.066557318 4294967295
1.4265383 0.47467509 0.05576992 4294967295
1.429857 -0.94193804 0.056089461 4294967295
1.431 0.87671995 0.024282247 4294967295
1.4156666 0.86535686 0.018649995 4294967295
1.425611 0.79921263 0.023782104 4294967295
1.4253685 0.54876906 0.017026305 4294967295
1.4129999 0.53729075 0.023965359 4294967295
1.4284185 0.47596431 0.024577856 4294967295
1.4342498 -0.94853067 0.036473155 4294967295
1.433875 1.2349455 -0.014541864 4294967295
1.428 1.2143893 -0.014757574 4294967295
1.4275639 1.1848665 -0.015092373 4294967295
1.4271425 1.1546326 -0.011909068 4294967295
1.4284687 1.124419 -0.013658762 4294967295
1.4291481 1.0953666 -0.015212536 4294967295
1.4275 1.0635813 -0.013160348 4294967295
1.4271796 1.0348562 -0.011633515 4294967295
1.4288647 1.0040359 -0.010705829 4294967295
1.4288751 0.9791528 -0.016499102 4294967295
1.4366 0.94381875 -0.015647292 4294967295
1.4292895 0.91399521 -0.012969971 4294967295
1.4250001 0.88955235 -0.0020319223 4294967295
1.428353 0.78673875 0.0016239882 4294967295
1.4268215 0.7687071 -0.013383269 4294967295
1.4323334 0.55872613 0.0083196759 4294967295
1.4285688 0.46372187 -0.0029234886 4294967295
1.428692 0.44020742 -0.015944183 4294967295
1.4344167 0.30965924 -0.018216252 4294967295
1.4363847 0.28813466 -0.017054081 4294967295
1.4380001 0.26510763 -0.01817292 4294967295
1.4253123 -0.62100965 -0.01795274 4294967295
1.4272939 -0.63992548 -0.018041253 4294967295
1.4134998 -0.86593664 -0.018842459 4294967295
1.4272854 -0.88819677 -0.014625132 4294967295
1.428115 -0.91386664 -0.0063074827 4294967295
1.4349998 -0.93404096 -0.0037324429 4294967295
1.4259566 0.96727848 -0.021848798 4294967295
1.4259751 0.94706744 -0.023905635 4294967295
1.4210001 0.92560101 -0.021694601 4294967295
1.4312 0.7543028 -0.021596432 4294967295
1.4299015 0.73659611 -0.031162918 4294967295
1.4281334 0.42585871 -0.021974206 4294967295
1.4294616 0.40553579 -0.02601397 4294967295
1.4279023 0.37555116 -0.023902595 4294967295
1.427111 0.34503725 -0.022353768 4294967295
1.423846 0.31751367 -0.02137357 4294967295
1.4249164 0.28444201 -0.021613955 4294967295
1.4298444 0.25540999 -0.027042508 4294967295
1.4273711 0.22463515 -0.026947498 4294967295
1.4285953 0.1940608 -0.027498662 4294967295
1.430487 0.16567954 -0.030062914 4294967295
1.4268966 0.13496877 -0.024391055 4294967295
1.4292067 0.10443078 -0.026643515 4294967295
1.4308889 0.072345093 -0.031999409 4294967295
1.4304845 0.046480626 -0.031937182 4294967295
1.4288572 0.015254952 -0.03036797 4294967295
1.4288888 -0.01431391 -0.034275353 4294967295
1.4258666 -0.04677939 -0.038103163 4294967295
1.4295651 -0.075494133 -0.035046995 4294967295
1.4269259 -0.10442504 -0.030568421 4294967295
1.427174 -0.13567151 -0.032968163 4294967295
1.4287249 -0.16694796 -0.032497585 4294967295
1.4265954 -0.19403861 -0.024441183 4294967295
1.4280696 -0.22494549 -0.024989069 4294967295
1.4305317 -0.25530326 -0.035474777 4294967295
1.4292042 -0.28498924 -0.03245461 4294967295
1.427125 -0.3152619 -0.025422454 4294967295
1.4256387 -0.34495205 -0.025101364 4294967295
1.4268109 -0.37540558 -0.026576579 4294967295
1.4289765 -0.40565094 -0.028186977 4294967295
1.4290998 -0.43449157 -0.026985288 4294967295
1.4283998 -0.46389171 -0.025964737 4294967295
1.4266537 -0.49535033 -0.024353027 4294967295
1.4286786 -0.52421868 -0.026149571 4294967295
1.4301249 -0.55423838 -0.032775044 4294967295
1.42836 -0.5851739 -0.027944028 4294967295
1.430923 -0.60832906 -0.021901309 4294967295
1.4295555 -0.65446341 -0.021269381 4294967295
1.4274762 -0.67488587 -0.024941862 4294967295
1.4291923 -0.70704812 -0.026468277 4294967295
1.426389 -0.73481756 -0.025939226 4294967295
1.4308236 -0.76435357 -0.031187892 4294967295
1.4278665 -0.79353362 -0.041309297 4294967295
1.4284409 -0.82487106 -0.033106804 4294967295
1.4287497 -0.85392821 -0.024847746 4294967295
1.4311665 -0.87343484 -0.020592749 4294967295
1.4321666 0.72591174 -0.053088963 4294967295
1.4292856 0.70807701 -0.057070434 4294967295
1.4654999 -0.92895633 1.3327491 4294967295
1.451975 -0.92560661 1.3151724 4294967295
1.4472942 -0.92406082 1.2873644 4294967295
1.4630001 -0.93495214 1.2803359 4294967295
1.4428333 -0.92910147 1.2604816 4294967295
1.4560498 -0.9343828 1.2507029 4294967295
1.4544286 -0.92609149 1.2184398 4294967295
1.4536874 -0.93247068 1.2339858 4294967295
1.4558337 -0.92441475 1.1957142 4294967295
1.451 -0.926624 1.1675677 4294967295
1.462625 -0.93335438 1.1561081 4294967295
1.44475 -0.92865598 1.1223526 4294967295
1.4535515 -0.93306959 1.1380821 4294967295
1.4502103 -0.92736071 1.1039785 4294967295
1.4679999 -0.9316833 1.1150213 4294967295
1.45386 -0.92267275 1.0727021 4294967295
1.4512501 0.49482387 1.0341473 4294967295
1.4582195 -0.92750996 1.0477357 4294967295
1.4473547 -0.93242681 1.0441389 4294967295
1.4496666 0.48547724 1.0212359 4294967295
1.4502001 0.47055969 1.0081993 4294967295
1.4533529 -0.92165941 1.015831 4294967295
1.4460001 0.4578017 0.99650162 4294967295
1.4535279 -0.91741586 0.98519266 4294967295
1.4613 0.7772783 0.94514394 4294967295
1.4532189 -0.9178521 0.95548987 4294967295
1.4588124 0.78425229 0.91963726 4294967295
1.449059 0.77795762 0.92916381 4294967295
1.4522414 -0.91341019 0.92504203 4294967295
1.4523809 0.79038262 0.89589047 4294967295
1.4552727 0.47302511 0.89496231 4294967295
1.4515799 -0.9158445 0.89394659 4294967295
1.4462223 0.79156601 0.86460698 4294967295
1.4521875 0.47197956 0.86432499 4294967295
1.4522309 -0.92164761 0.86662006 4294967295
1.4506364 0.80166388 0.83474195 4294967295
1.4665 0.48131874 0.83369935 4294967295
1.4485455 0.476641 0.83582354 4294967295
1.4527501 -0.92525893 0.83384442 4294967295
1.466 -0.93041396 0.8250919 4294967295
1.4679999 0.81219405 0.80166841 4294967295
1.4485713 0.80480582 0.80802107 4294967295
1.4665 0.48131874 0.81669253 4294967295
1.4426666 0.47684366 0.81354535 4294967295
1.4516591 -0.9262529 0.80402148 4294967295
1.466 -0.93041396 0.81318712 4294967295
1.4515001 0.80064607 0.7739495 4294967295
1.451245 -0.92445034 0.77528727 4294967295
1.4561666 0.79690117 0.74586737 4294967295
1.4526528 -0.92039484 0.74429619 4294967295
1.451 0.79268885 0.70833641 4294967295
1.459 0.47547203 0.70515561 4294967295
1.4537144 -0.92643368 0.72567683 4294967295
1.4522272 -0.93411368 0.71117949 4294967295
1.451 0.7970612 0.68862844 4294967295
1.4613999 0.47625419 0.68850017 4294967295
1.4532562 -0.92237699 0.68392336 4294967295
1.4538335 -0.93217796 0.69830239 4294967295
1.467 0.8116408 0.65284097 4294967295
1.4457778 0.80175793 0.65652716 4294967295
1.466 0.47775325 0.64651996 4294967295
1.4540311 -0.92184722 0.65675449 4294967295
1.4505999 0.80593288 0.63340235 4294967295
1.4547999 0.4761107 0.63440913 4294967295
1.4536999 -0.92281157 0.62353623 4294967295
1.466 0.81108749 0.60400283 4294967295
1.4531666 0.795555 0.58922464 4294967295
1.4400001 0.47596225 0.58246678 4294967295
1.4524468 -0.91919398 0.5946101 4294967295
1.4457142 0.79219896 0.56354243 4294967295
1.4416666 0.47651315 0.57083571 4294967295
1.4519442 -0.91178554 0.56533015 4294967295
1.4455999 0.80180979 0.53171653 4294967295
1.45226 -0.91950333 0.5366292 4294967295
1.4498334 0.80017227 0.50410789 4294967295
1.4529767 -0.92470425 0.50423759 4294967295
1.4535714 0.79600948 0.47682133 4294967295
1.4531639 -0.9196524 0.47544968 4294967295
1.4509999 0.80334121 0.4460246 4294967295
1.4545264 -0.92172951 0.4473255 4294967295
1.4512353 -0.93328363 0.43439305 4294967295
1.4485 0.80140543 0.41061965 4294967295
1.4480834 -0.9268651 0.40613991 4294967295
1.454926 -0.93385082 0.41981453 4294967295
1.4486001 0.8021155 0.39732733 4294967295
1.4532001 -0.92184275 0.38513231 4294967295
1.4515294 0.8036648 0.35217541 4294967295
1.4553334 0.48103037 0.34676531 4294967295
1.4548485 -0.92137122 0.3542046 4294967295
1.4528 0.80040395 0.33259374 4294967295
1.4557499 0.48116806 0.32645386 4294967295
1.448 0.47860646 0.31068563 4294967295
1.4525001 -0.91880697 0.3250277 4294967295
1.466 0.48115462 0.30128092 4294967295
1.4447143 0.47512469 0.29680833 4294967295
1.4530456 -0.90944582 0.29525328 4294967295
1.4520953 0.47625488 0.26373234 4294967295
1.4500302 -0.91209531 0.26300076 4294967295
1.442 0.79446346 0.22121942 4294967295
1.4523847 0.47096312 0.24240348 4294967295
1.4508237 -0.91197157 0.23418492 4294967295
1.451 0.79773057 0.21599564 4294967295
1.4525139 -0.91084921 0.20596141 4294967295
1.45175 -0.91581541 0.17374155 4294967295
1.4515896 -0.92055064 0.14411777 4294967295
1.4529999 0.80726624 0.12791765 4294967295
1.4512223 0.46693948 0.10782823 4294967295
1.4528863 -0.9224394 0.11585501 4294967295
1.4544334 0.46721038 0.08435154 4294967295
1.45412 -0.92501283 0.085797191 4294967295
1.4469999 -0.93512636 0.071346819 4294967295
1.454 0.90734559 0.041627437 4294967295
1.45 0.81424081 0.046560287 4294967295
1.442 0.80784625 0.060626477 4294967295
1.4559999 0.47221938 0.055211544 4294967295
1.4554542 -0.9431774 0.054220766 4294967295
1.4634001 0.90540254 0.023935109 4294967295
1.4473333 0.88975435 0.017523646 4294967295
1.4577777 0.81592298 0.02893576 4294967295
1.44275 0.80157089 0.015198231 4294967295
1.4535635 0.46473336 0.023487598 4294967295
1.4568285 -0.94714791 0.031282634 4294967295
1.4674999 -0.96371031 0.018454552 4294967295
1.4649999 1.2626054 -0.016379893 4294967295
1.4524667 1.2439291 -0.01301837 4294967295
1.4497598 1.214051 -0.011930406 4294967295
1.4515001 1.1866283 -0.011111975 4294967295
1.4516399 1.1560766 -0.0097904205 4294967295
1.4529668 1.1257739 -0.01342082 4294967295
1.4526801 1.0942175 -0.012861192 4294967295
1.4518386 1.0649714 -0.0097435713 4294967295
1.4517499 1.0353316 -0.0071794391 4294967295
1.4538711 1.0037862 -0.010278881 4294967295
1.4510553 0.97477329 -0.012186229 4294967295
1.4516573 0.94485307 -0.0098782778 4294967295
1.4512309 0.91580337 -0.0048303008 4294967295
1.44475 0.89569545 0.0044538379 4294967295
1.466 0.81108749 0.0087631345 4294967295
1.4538096 0.79130578 -0.0041729212 4294967295
1.4534284 0.76363254 -0.017087519 4294967295
1.4532572 0.737252 -0.01759243 4294967295
1.4497499 0.45703626 0.0021771193 4294967295
1.4548571 0.43523967 -0.0095831752 4294967295
1.4547081 0.40619639 -0.013735831 4294967295
1.4538825 0.37569633 -0.016477764 4294967295
1.4580976 0.34332216 -0.016919494 4294967295
1.4541476 0.31453726 -0.01084131 4294967295
1.453431 0.28376415 -0.0083336234 4294967295
1.4521632 0.25507909 -0.0067097545 4294967295
1.4562056 0.22628273 -0.0099546909 4294967295
1.4564923 0.19467756 -0.010130048 4294967295
1.4588233 0.1707665 -0.014795005 4294967295
1.4675001 0.12925012 -0.018998861 4294967295
1.4595715 0.10206876 -0.016553998 4294967295
1.4586055 0.077156238 -0.016246021 4294967295
1.4662727 0.047935385 -0.019163311 4294967295
1.4683332 0.01519646 -0.019304931 4294967295
1.469 -0.0069562085 -0.019549727 4294967295
1.4550003 -0.19873826 -0.019257724 4294967295
1.4526153 -0.21595706 -0.019214809 4294967295
1.469 -0.42618087 -0.019549727 4294967295
1.4504 -0.623698 -0.018089175 4294967295
1.4529308 -0.64404052 -0.016881764 4294967295
1.4616666 -0.66483909 -0.018541515 4294967295
1.4634999 -0.86767399 -0.019211769 4294967295
1.4540474 -0.8844766 -0.016204774 4294967295
1.4543748 -0.91350418 -0.0086795688 4294967295
1.45425 -0.94468546 -0.0035033822 4294967295
1.4639999 -0.96650869 0.0060638189 4294967295
1.464 1.2719362 -0.021109998 4294967295
1.4506154 0.72571129 -0.034266651 4294967295
1.4399999 0.40580028 -0.022262514 4294967295
1.443 0.35140359 -0.020044267 4294967295
1.4405715 0.24648142 -0.023909628 4294967295
1.4424763 0.2272048 -0.022236466 4294967295
1.4415264 0.19481707 -0.021427214 4294967295
1.4472725 0.16401149 -0.022435963 4294967295
1.451457 0.13499129 -0.021550059 4294967295
1.4462856 0.10594188 -0.022459745 4294967295
1.4428788 0.075485557 -0.023744941 4294967295
1.4510405 0.044201072 -0.024538934 4294967295
1.4499631 0.01501285 -0.024302125 4294967295
1.4555557 -0.015421786 -0.029599667 4294967295
1.4583 -0.047517456 -0.041652143 4294967295
1.4547776 -0.07325954 -0.034271002 4294967295
1.4532311 -0.10646889 -0.030597806 4294967295
1.4532366 -0.13508132 -0.031300545 4294967295
1.4519362 -0.16480213 -0.026298523 4294967295
1.4505 -0.18396199 -0.020728469 4294967295
1.4521767 -0.23171562 -0.020682275 4294967295
1.4496202 -0.25614855 -0.024304807 4294967295
1.4513094 -0.28297526 -0.025049388 4294967295
1.4510385 -0.31425983 -0.022648752 4294967295
1.4538213 -0.34370288 -0.02310729 4294967295
1.4562999 -0.37629765 -0.025451899 4294967295
1.4530573 -0.40521461 -0.022630215 4294967295
1.4524597 -0.43353704 -0.023375392 4294967295
1.4526333 -0.46568263 -0.024642289 4294967295
1.4537693 -0.49547231 -0.023877144 4294967295
1.4522644 -0.52546489 -0.022001147 4294967295
1.4524679 -0.55605286 -0.027640581 4294967295
1.454023 -0.58402246 -0.02735889 4294967295
1.4560951 -0.60975909 -0.022996664 4294967295
1.454037 -0.67728186 -0.023400307 4294967295
1.4561054 -0.70601219 -0.026173949 4294967295
1.452108 -0.73398846 -0.021607101 4294967295
1.4527893 -0.7654416 -0.023413002 4294967295
1.4550354 -0.79449558 -0.032223403 4294967295
1.4543034 -0.82220548 -0.035822213 4294967295
1.4537805 -0.85474873 -0.023812175 4294967295
1.4629999 -0.87080508 -0.020740449 4294967295
1.455579 0.728333 -0.056912005 4294967295
1.4542857 0.7057628 -0.065720737 4294967295
1.441 0.68859535 -0.062759519 4294967295
1.4868479 -0.92441332 1.3414063 4294967295
1.483294 -0.92901349 1.3234488 4294967295
1.4882693 -0.9331094 1.312345 4294967295
1.4985 -0.92844093 1.2716671 4294967295
1.4879348 -0.93913466 1.2849666 4294967295
1.4905428 -0.92542571 1.253 4294967295
1.4804251 -0.93594915 1.2556505 4294967295
1.4859078 -0.92232454 1.2239475 4294967295
1.4768333 -0.93157297 1.2356744 4294967295
1.4861758 -0.92165321 1.1948352 4294967295
1.4881665 -0.92575336 1.172087 4294967295
1.483737 -0.93403214 1.1591462 4294967295
1.498 -0.92986953 1.1237032 4294967295
1.484979 -0.93546838 1.1356699 4294967295
1.4886 -0.92493224 1.1027262 4294967295
1.4769413 -0.93089938 1.1083679 4294967295
1.4850465 -0.91915327 1.0747057 4294967295
1.4875716 0.49487889 1.040863 4294967295
1.4851265 -0.9213137 1.0452245 4294967295
1.4827499 0.48320898 1.0263927 4294967295
1.49225 0.470292 1.0196865 4294967295
1.4865385 -0.92054141 1.0159724 4294967295
1.4860001 -0.91740894 0.98443925 4294967295
1.4867727 0.77551699 0.94559658 4294967295
1.4865714 -0.92181885 0.95642912 4294967295
1.4855652 0.78614819 0.91957492 4294967295
1.4909317 0.77328789 0.92837358 4294967295
1.471 0.47255674 0.9114567 4294967295
1.4864445 -0.91837639 0.92437565 4294967295
1.4893076 0.79879272 0.89913964 4294967295
1.4926666 0.48066488 0.90106338 4294967295
1.4860768 0.4781864 0.89344716 4294967295
1.4862963 -0.91938156 0.8946383 4294967295
1.4921666 0.81228745 0.85650718 4294967295
1.4840909 0.80669123 0.86985826 4294967295
1.484 0.48017612 0.85293984 4294967295
1.486941 0.47685787 0.86515987 4294967295
1.4860578 -0.92607367 0.86526394 4294967295
1.4869999 0.81742865 0.8350805 4294967295
1.4867499 0.48329458 0.83579338 4294967295
1.471 0.47938269 0.84661031 4294967295
1.4888606 -0.92786413 0.83649659 4294967295
1.4774286 -0.93031293 0.82820517 4294967295
1.4855715 0.81746906 0.80666196 4294967295
1.4859999 0.48427102 0.81891084 4294967295
1.4863877 -0.92474538 0.80294371 4294967295
1.4776 -0.93125439 0.81447589 4294967295
1.4881176 0.81274998 0.77687001 4294967295
1.4753332 0.80825984 0.7699697 4294967295
1.4859669 -0.92479444 0.77526152 4294967295
1.4974999 0.8111431 0.75347394 4294967295
1.4842306 0.80659628 0.7462272 4294967295
1.4860321 -0.91884291 0.74423057 4294967295
1.4839523 0.80477458 0.71519655 4294967295
1.499 0.48155171 0.70327598 4294967295
1.4861587 -0.92210698 0.71679473 4294967295
1.4770501 -0.9326213 0.70949811 4294967295
1.4913335 0.81354958 0.68679738 4294967295
1.4855 0.80808973 0.69645375 4294967295
1.494 0.48109475 0.694592 4294967295
1.4866154 -0.9231056 0.68504208 4294967295
1.474 -0.93035793 0.6967994 4294967295
1.4857777 0.818569 0.65380377 4294967295
1.4890001 0.48092449 0.65199274 4294967295
1.487 0.47940323 0.65614146 4294967295
1.4872499 -0.92546487 0.66052115 4294967295
1.4874001 -0.9310925 0.64594495 4294967295
1.4847223 0.81971622 0.62574035 4294967295
1.4853333 0.48060754 0.63612825 4294967295
1.479 0.47855827 0.6287685 4294967295
1.486214 -0.9270792 0.61846304 4294967295
1.4869374 -0.93160933 0.63301623 4294967295
1.487375 0.81686145 0.60350114 4294967295
1.4855555 0.80428159 0.58636272 4294967295
1.4915 0.48490837 0.59450972 4294967295
1.4960001 -0.89912122 0.58142507 4294967295
1.4851598 -0.91515541 0.59380347 4294967295
1.4905 0.8185904 0.55353004 4294967295
1.4861429 0.80301398 0.57115924 4294967295
1.4899001 0.4858833 0.56388724 4294967295
1.495 -0.89852172 0.57444549 4294967295
1.485387 -0.90888953 0.56441456 4294967295
1.4822857 0.81812078 0.53663516 4294967295
1.4960001 0.48752993 0.54671532 4294967295
1.4861921 -0.91635501 0.53477478 4294967295
1.4863334 0.81447214 0.50842291 4294967295
1.471 0.80702788 0.49507427 4294967295
1.4871536 -0.92274112 0.50621784 4294967295
1.471 -0.93017435 0.50531322 4294967295
1.4871668 0.80783284 0.46835774 4294967295
1.4857578 -0.91711396 0.47440293 4294967295
1.4852 0.81300551 0.44315168 4294967295
1.471 0.80702788 0.4575316 4294967295
1.4851294 -0.91718596 0.44519639 4294967295
1.474 -0.93207139 0.43004474 4294967295
1.4814285 0.81322289 0.42080259 4294967295
1.491102 -0.92535579 0.41578281 4294967295
1.48 -0.93447614 0.41485977 4294967295
1.471 0.81044084 0.39609814 4294967295
1.4864281 -0.92298245 0.38511986 4294967295
1.482 -0.93025309 0.39861009 4294967295
1.4835882 0.81187993 0.34724462 4294967295
1.4910001 0.48935989 0.34425259 4294967295
1.4869014 -0.92271799 0.35488772 4294967295
1.4823332 0.81094873 0.33782524 4294967295
1.4869999 0.80889255 0.3319141 4294967295
1.4930835 0.48830605 0.32206428 4294967295
1.4874357 -0.91880095 0.32490081 4294967295
1.4887646 0.48374027 0.2964623 4294967295
1.482 0.47952899 0.28170133 4294967295
1.4847287 -0.91184938 0.29749808 4294967295
1.4839998 0.48017612 0.25727782 4294967295
1.486421 0.47894841 0.26465723 4294967295
1.4864724 -0.91809028 0.26422662 4294967295
1.4848334 0.47555506 0.24479896 4294967295
1.4863268 -0.91609329 0.23498604 4294967295
1.484 0.81071693 0.21251708 4294967295
1.4871218 -0.91518003 0.20657748 4294967295
1.4880399 -0.92227608 0.17301574 4294967295
1.479 0.81141692 0.14149091 4294967295
1.4904886 -0.91977531 0.1441876 4294967295
1.4985 0.82211399 0.12259448 4294967295
1.4842501 0.47336352 0.10571942 4294967295
1.499 -0.89918876 0.10333207 4294967295
1.4887084 -0.91522878 0.11490911 4294967295
1.4832034 0.46030569 0.085624337 4294967295
1.4861407 0.43496996 0.082719058 4294967295
1.4889187 0.40515366 0.082484424 4294967295
1.4887186 0.37479198 0.080511391 4294967295
1.4880323 0.34471774 0.08178407 4294967295
1.4869276 0.31497782 0.082079679 4294967295
1.4852434 0.28406152 0.083334386 4294967295
1.4868937 0.25534979 0.084156245 4294967295
1.4880713 0.22525603 0.084602624 4294967295
1.4871806 0.19510826 0.084663987 4294967295
1.4860682 0.16544414 0.081718445 4294967295
1.4877665 0.13649236 0.08091861 4294967295
1.4901998 0.10568704 0.079468489 4294967295
1.4916251 0.073530167 0.080365777 4294967295
1.4916382 0.04598603 0.079654723 4294967295
1.4925113 0.015442112 0.079170644 4294967295
1.4951023 -0.016468216 0.07925418 4294967295
1.4955206 -0.045247756 0.080012798 4294967295
1.4947016 -0.073817104 0.079040319 4294967295
1.4944857 -0.1055048 0.076702297 4294967295
1.4978889 -0.1343343 0.074873924 4294967295
1.4989998 -0.15689792 0.071285397 4294967295
1.4986 -0.20285125 0.071107268 4294967295
1.4986402 -0.2244159 0.073599041 4294967295
1.499 -0.25577065 0.071740746 4294967295
1.4986335 -0.28688413 0.075501353 4294967295
1.4966519 -0.31440073 0.078170925 4294967295
1.4982307 -0.33719736 0.074266136 4294967295
1.4983685 -0.56232214 0.076337248 4294967295
1.4970834 -0.58301616 0.077044755 4294967295
1.499 -0.60008627 0.070291668 4294967295
1.499 -0.65747225 0.070291668 4294967295
1.499 -0.66790605 0.070291668 4294967295
1.4988749 -0.80304337 0.071633369 4294967295
1.4967824 -0.82643723 0.073828161 4294967295
1.4979997 -0.85514683 0.074068516 4294967295
1.49582 -0.88800001 0.081206918 4294967295
1.4885765 -0.91669041 0.085281402 4294967295
1.4762307 -0.93057656 0.085030019 4294967295
1.4883333 0.82573456 0.051067293 4294967295
1.4773867 0.46121776 0.05422166 4294967295
1.4806546 0.43442926 0.055183858 4294967295
1.4840505 0.40460941 0.054297984 4294967295
1.4830005 0.37490997 0.054461151 4294967295
1.4819381 0.34524009 0.054617286 4294967295
1.4827535 0.31464171 0.054523855 4294967295
1.479614 0.28499785 0.055108637 4294967295
1.4804937 0.25575402 0.055234611 4294967295
1.4861486 0.2260309 0.054764003 4294967295
1.4874438 0.19485018 0.054773301 4294967295
1.487782 0.16442223 0.054795146 4294967295
1.4894049 0.13500033 0.054487914 4294967295
1.4916737 0.10523944 0.055006653 4294967295
1.4913065 0.074653491 0.054760754 4294967295
1.4925148 0.044870198 0.055345356 4294967295
1.492771 0.015143025 0.055187583 4294967295
1.4936169 -0.015743785 0.054582626 4294967295
1.4954792 -0.044973068 0.054607391 4294967295
1.4954791 -0.074544981 0.055894971 4294967295
1.4955004 -0.1059202 0.056329966 4294967295
1.4965298 -0.13530369 0.05469647 4294967295
1.4956799 -0.16497569 0.053945303 4294967295
1.4946419 -0.19553937 0.053869218 4294967295
1.4959719 -0.22471401 0.055286169 4294967295
1.4982291 -0.255344 0.054684281 4294967295
1.4987115 -0.28740147 0.053535044 4294967295
1.497931 -0.31467095 0.05497086 4294967295
1.4987814 -0.34343112 0.059815496 4294967295
1.4989066 -0.37307319 0.053746372 4294967295
1.4989604 -0.4051716 0.050479949 4294967295
1.4989568 -0.4290503 0.048530489 4294967295
1.4985714 -0.56663513 0.063465714 4294967295
1.4981147 -0.58314806 0.060822219 4294967295
1.499 -0.65747225 0.066813737 4294967295
1.499 -0.66686267 0.066118151 4294967295
1.4981908 -0.80004591 0.05662781 4294967295
1.495541 -0.82424313 0.057498068 4294967295
1.4971765 -0.85450751 0.058642715 4294967295
1.4956626 -0.88699836 0.055770308 4294967295
1.4886734 -0.91537064 0.054924548 4294967295
1.4797592 -0.93881238 0.051907629 4294967295
1.4951111 0.94051391 0.024433643 4294967295
1.4826249 0.92176837 0.01929915 4294967295
1.4866428 0.82767886 0.023021251 4294967295
1.475816 0.45751923 0.029946119 4294967295
1.4785987 0.43477097 0.025043309 4294967295
1.4779725 0.40511477 0.024755716 4294967295
1.4795176 0.37574318 0.024643391 4294967295
1.4778508 0.34446055 0.025209427 4294967295
1.4815063 0.31437007 0.023990631 4294967295
1.4822539 0.28468582 0.024016738 4294967295
1.4823462 0.25555238 0.023444176 4294967295
1.4858915 0.22579083 0.024803162 4294967295
1.4866663 0.19474792 0.025706232 4294967295
1.486111 0.1653644 0.025889099 4294967295
1.4865923 0.13609612 0.025730193 4294967295
1.4884298 0.10483668 0.02516818 4294967295
1.491449 0.074422963 0.024290204 4294967295
1.4967831 0.044621438 0.025212169 4294967295
1.4941761 0.015793858 0.025357485 4294967295
1.4950972 -0.015760789 0.024625808 4294967295
1.49612 -0.045550704 0.024992198 4294967295
1.4979274 -0.071138851 0.022845477 4294967295
1.4980645 -0.10985091 0.019673347 4294967295
1.4956716 -0.13405986 0.026227534 4294967295
1.4948616 -0.16488472 0.024705231 4294967295
1.4931655 -0.19588007 0.025271535 4294967295
1.4958413 -0.22611621 0.025517493 4294967295
1.4984866 -0.25587621 0.026453406 4294967295
1.4948251 -0.2860907 0.026287377 4294967295
1.4966671 -0.31515154 0.026746601 4294967295
1.4986669 -0.38205048 0.024032205 4294967295
1.4988004 -0.40535501 0.02497226 4294967295
1.4988775 -0.43286631 0.0271945 4294967295
1.4990003 -0.46398914 0.029105574 4294967295
1.4990003 -0.49874645 0.028316557 4294967295
1.4980005 -0.52446634 0.021345884 4294967295
1.4986533 -0.55254674 0.019942284 4294967295
1.499 -0.57458144 0.014644742 4294967295
1.4990002 -0.76441866 0.022643864 4294967295
1.4989998 -0.78789485 0.035512328 4294967295
1.4951277 -0.89235264 0.024586558 4294967295
1.4844104 -0.91391021 0.025333136 4294967295
1.4776551 -0.93993014 0.02331531 4294967295
1.4769999 -0.96627182 0.012268424 4294967295
1.4956666 1.2959821 -0.018933594 4294967295
1.4884498 1.2734858 -0.016321063 4294967295
1.4858844 1.2448971 -0.015392542 4294967295
