# .PCD v0.7 - Point Cloud Data file format
VERSION 0.7
FIELDS x y z rgb
SIZE 4 4 4 4
TYPE F F F U
COUNT 1 1 1 1
WIDTH 1069
HEIGHT 1
VIEWPOINT 0 0 0 1 0 0 0
POINTS 1069
DATA ascii
-2.4017394 0.84861428 -0.57924896 4278190080
-2.375823 0.8487972 -0.57362521 4278190080
-2.3590994 0.8521198 -0.57025087 4278190080
-2.342382 0.85533613 -0.56687665 4278190080
-2.3302412 0.86013317 -0.56462717 4278190080
-2.3135307 0.86315352 -0.56125283 4278190080
-2.2922695 0.86434829 -0.55675381 4278190080
-2.2482657 0.85673124 -0.54663104 4278190080
-2.2361686 0.86107248 -0.5443815 4278190080
-2.2240689 0.8653397 -0.54213202 4278190080
-2.1229613 0.86895877 -0.52076173 4278190080
-2.0628936 0.8612355 -0.50726461 4278190080
-2.0060043 0.84571958 -0.49376756 4278190080
-2.0030401 0.85271657 -0.49376756 4278190080
-2.0000515 0.85970318 -0.49376756 4278190080
-1.9702233 0.8550427 -0.48701903 4278190080
-1.9449149 0.85213917 -0.48139521 4278190080
-1.9241067 0.85104018 -0.4768962 4278190080
-1.90333 0.84980643 -0.47239718 4278190080
-1.8781441 0.84643638 -0.46677345 4278190080
-1.8574395 0.84491867 -0.46227443 4278190080
-1.8323412 0.84123355 -0.45665064 4278190080
-1.8117119 0.83943188 -0.45215163 4278190080
-1.795531 0.83956003 -0.44877735 4278190080
-1.7793715 0.83958554 -0.44540307 4278190080
-1.7632335 0.83950901 -0.44202879 4278190080
-1.7471184 0.83932966 -0.43865454 4278190080
-1.7266419 0.83692318 -0.43415552 4278190080
-1.7105803 0.83652431 -0.43078128 4278190080
-1.6945429 0.83602357 -0.427407 4278190080
-1.6785296 0.83542162 -0.42403275 4278190080
-1.6625415 0.83471769 -0.42065847 4278190080
-1.6465789 0.83391231 -0.41728419 4278190080
-1.6306425 0.83300585 -0.41390991 4278190080
-1.6147326 0.83199835 -0.41053566 4278190080
-1.6031724 0.83313698 -0.40828615 4278190080
-1.5873092 0.83194304 -0.40491188 4278190080
-1.5757813 0.83292532 -0.40266237 4278190080
-1.5599668 0.83154553 -0.39928812 4278190080
-1.5441811 0.83006561 -0.39591384 4278190080
-1.5284249 0.82848614 -0.39253959 4278190080
-1.5126988 0.82680643 -0.38916534 4278190080
-1.5012698 0.82737857 -0.3869158 4278190080
-1.4898556 0.8278811 -0.38466629 4278190080
-1.4784563 0.82831407 -0.38241678 4278190080
-1.4670719 0.82867801 -0.38016728 4278190080
-1.4514698 0.82656139 -0.376793 4278190080
-1.4401256 0.82677168 -0.37454349 4278190080
-1.4245811 0.82447249 -0.37116924 4278190080
-1.4301106 0.83435023 -0.37341875 4278190080
-1.4270428 0.83958638 -0.37341875 4278190080
-1.4366746 0.85201776 -0.376793 4278190080
-1.4336919 0.85702747 -0.376793 4278190080
-1.4016284 0.84418219 -0.36891973 4278190080
-1.3820149 0.83895713 -0.36442071 4278190080
-1.3624549 0.83360583 -0.35992166 4278190080
-1.3469515 0.83092016 -0.35654742 4278190080
-1.3316306 0.82789987 -0.35317314 4278190080
-1.3204756 0.82736987 -0.35092363 4278190080
-1.3094853 0.82654309 -0.34867412 4278190080
-1.3024813 0.82849449 -0.34754938 4278190080
-1.2913783 0.82777768 -0.34529987 4278190080
-1.2802963 0.82699353 -0.34305036 4278190080
-1.2692356 0.82614213 -0.34080085 4278190080
-1.2581966 0.82522368 -0.33855134 4278190080
-1.2471793 0.8242386 -0.33630183 4278190080
-1.2361845 0.8231864 -0.33405232 4278190080
-1.2292579 0.82478201 -0.33292755 4278190080
-1.2182993 0.82361066 -0.33067802 4278190080
-1.2073638 0.82237309 -0.32842851 4278190080
-1.1964518 0.82106954 -0.32617903 4278190080
-1.1855639 0.81969959 -0.32392952 4278190080
-1.1786978 0.82104826 -0.32280475 4278190080
-1.1678491 0.81956053 -0.32055524 4278190080
-1.1610031 0.82081956 -0.3194305 4278190080
-1.1541624 0.82204115 -0.31830573 4278190080
-1.147184 0.82342482 -0.31718099 4278190080
-1.1403549 0.82456952 -0.31605622 4278190080
-1.1335316 0.82567692 -0.31493148 4278190080
-1.1267147 0.8267464 -0.31380671 4278190080
-1.123822 0.83067429 -0.31380671 4278190080
-1.117008 0.83168256 -0.31268197 4278190080
-1.1179955 0.83849961 -0.31380671 4278190080
-1.1150616 0.84239727 -0.31380671 4278190080
-1.1082374 0.84333414 -0.31268197 4278190080
-1.0975536 0.84126991 -0.31043246 4278190080
-1.0907542 0.84211862 -0.30930769 4278190080
-1.0839621 0.8429302 -0.30818295 4278190080
-1.0771775 0.84370494 -0.30705819 4278190080
-1.0704011 0.84444231 -0.30593345 4278190080
-1.0674469 0.8481735 -0.30593345 4278190080
-1.0644798 0.85189438 -0.30593345 4278190080
-1.0577066 0.85254753 -0.30480868 4278190080
-1.0509417 0.85316402 -0.30368394 4278190080
-1.0441855 0.85374349 -0.30255917 4278190080
-1.0374382 0.85428613 -0.3014344 4278190080
-1.0306998 0.85479224 -0.30030963 4278190080
-1.0239707 0.85526168 -0.29918489 4278190080
-1.0135224 0.85255879 -0.29693538 4278190080
-0.99938858 0.84664404 -0.2935611 4278190080
-0.99272096 0.84696525 -0.29243636 4278190080
-0.96389222 0.8282004 -0.28456309 4278190080
-0.98678392 0.85387498 -0.29243636 4278190080
-0.95441383 0.83170885 -0.28343832 4278190080
-0.93305331 0.81913048 -0.27781457 4278190080
-0.80911517 0.87652248 -0.26656699 4278190080
-0.77018166 0.84612197 -0.25531945 4278190080
-0.79677886 0.88119423 -0.26544222 4278190080
-0.79369807 0.88397008 -0.26544222 4278190080
-0.7841233 0.87946242 -0.26319271 4278190080
-0.77136034 0.87125111 -0.25981846 4278190080
-0.76188105 0.86662048 -0.25756896 4278190080
-0.75244331 0.86193454 -0.25531945 4278190080
-0.74304789 0.85719323 -0.25306994 4278190080
-0.73369485 0.85239685 -0.25082043 4278190080
-0.72740096 0.8513763 -0.24969567 4278190080
-0.71812129 0.84648007 -0.24744616 4278190080
-0.70888478 0.84152955 -0.24519666 4278190080
-0.7028172 0.84026182 -0.24407187 4278190080
-0.69676727 0.83896208 -0.24294712 4278190080
-0.69383436 0.8413893 -0.24294712 4278190080
-0.69397956 0.84757555 -0.24407187 4278190080
-0.69101679 0.84999281 -0.24407187 4278190080
-0.68498558 0.84860873 -0.24294712 4278190080
-0.68201929 0.85099459 -0.24294712 4278190080
-0.67601097 0.849558 -0.24182236 4278190080
-0.67002124 0.84808975 -0.24069761 4278190080
-0.6670568 0.85042334 -0.24069761 4278190080
-0.66393524 0.8528626 -0.24069761 4278190080
-0.65797496 0.85132021 -0.23957285 4278190080
-0.65499932 0.85361177 -0.23957285 4278190080
-0.64906347 0.85201746 -0.2384481 4278190080
-0.64314669 0.85039216 -0.23732334 4278190080
-0.63724905 0.84873623 -0.23619859 4278190080
-0.63137102 0.8470493 -0.23507385 4278190080
-0.62551254 0.84533173 -0.2339491 4278190080
-0.62255806 0.84750998 -0.2339491 4278190080
-0.61959594 0.84967792 -0.2339491 4278190080
-0.61376935 0.84788924 -0.23282434 4278190080
-0.61080593 0.85002655 -0.23282434 4278190080
-0.60500604 0.84818721 -0.23169959 4278190080
-0.60204166 0.85029387 -0.23169959 4278190080
-0.59626865 0.84840423 -0.23057483 4278190080
-0.59051591 0.8464849 -0.22945008 4278190080
-0.58478415 0.84453565 -0.22832532 4278190080
-0.57907319 0.84255677 -0.22720057 4278190080
-0.57338321 0.84054828 -0.22607581 4278190080
-0.57044572 0.84254462 -0.22607581 4278190080
-0.56750107 0.84453082 -0.22607581 4278190080
-0.56454968 0.8465066 -0.22607581 4278190080
-0.55890244 0.84440953 -0.22495106 4278190080
-0.5559516 0.84635526 -0.22495106 4278190080
-0.55018586 0.84430563 -0.2238263 4278190080
-0.54194427 0.83803898 -0.22157678 4278190080
-0.53901571 0.83992559 -0.22157678 4278190080
-0.53346366 0.83769262 -0.22045203 4278190080
-0.53053612 0.83954978 -0.22045203 4278190080
-0.52760237 0.84139657 -0.22045203 4278190080
-0.5246622 0.84323305 -0.22045203 4278190080
-0.52171558 0.84505934 -0.22045203 4278190080
-0.51621783 0.84272087 -0.21932727 4278190080
-0.51327288 0.84451783 -0.21932727 4278190080
-0.50780612 0.84213227 -0.21820252 4278190080
-0.50236231 0.83971888 -0.21707776 4278190080
-0.49942815 0.84146732 -0.21707776 4278190080
-0.49648789 0.84320545 -0.21707776 4278190080
-0.49354133 0.84493351 -0.21707776 4278190080
-0.48814645 0.84243578 -0.21595301 4278190080
-0.48520288 0.84413457 -0.21595301 4278190080
-0.4822534 0.84582311 -0.21595301 4278190080
-0.47675243 0.84334397 -0.21482825 4278190080
-0.47142303 0.84075356 -0.2137035 4278190080
-0.46848544 0.84239399 -0.2137035 4278190080
-0.46318913 0.83975816 -0.21257874 4278190080
-0.45791674 0.83709586 -0.21145399 4278190080
-0.454992 0.83868915 -0.21145399 4278190080
-0.45206168 0.84027225 -0.21145399 4278190080
-0.44927272 0.84176672 -0.21145399 4278190080
-0.44633171 0.84332985 -0.21145399 4278190080
-0.44564915 0.84919655 -0.21257874 4278190080
-0.44253361 0.8508243 -0.21257874 4278190080
-0.43732807 0.84803385 -0.21145399 4278190080
-0.43436524 0.84955519 -0.21145399 4278190080
-0.43139714 0.85106623 -0.21145399 4278190080
-0.42623606 0.84821385 -0.21032923 4278190080
-0.42110041 0.84533578 -0.20920448 4278190080
-0.41814712 0.84680051 -0.20920448 4278190080
-0.41304693 0.8438791 -0.20807971 4278190080
-0.40995109 0.84538734 -0.20807971 4278190080
-0.40699768 0.8468132 -0.20807971 4278190080
-0.40403932 0.84822869 -0.20807971 4278190080
-0.39899632 0.8452282 -0.20695496 4278190080
-0.39604354 0.84661579 -0.20695496 4278190080
-0.39103678 0.84357315 -0.2058302 4278190080
-0.38808984 0.84493291 -0.2058302 4278190080
-0.38312015 0.84184819 -0.20470545 4278190080
-0.38017926 0.84318042 -0.20470545 4278190080
-0.37723374 0.84450233 -0.20470545 4278190080
-0.3742834 0.84581405 -0.20470545 4278190080
-0.36937281 0.84265339 -0.20358069 4278190080
-0.36642921 0.84393758 -0.20358069 4278190080
-0.36155644 0.84073597 -0.20245594 4278190080
-0.35671049 0.83751065 -0.20133118 4278190080
-0.35189128 0.83426189 -0.20020643 4278190080
-0.34897709 0.83548516 -0.20020643 4278190080
-0.34419659 0.83219624 -0.19908167 4278190080
-0.34128964 0.83339256 -0.19908167 4278190080
-0.33654797 0.83006394 -0.19795692 4278190080
-0.33546305 0.83575499 -0.19908167 4278190080
-0.33254373 0.83692086 -0.19908167 4278190080
-0.33140349 0.8426103 -0.20020643 4278190080
-0.33007941 0.84835964 -0.20133118 4278190080
-0.3271161 0.84950662 -0.20133118 4278190080
-0.32588363 0.85519582 -0.20245594 4278190080
-0.3211776 0.85176957 -0.20133118 4278190080
-0.31820244 0.85288548 -0.20133118 4278190080
-0.31353617 0.84942067 -0.20020643 4278190080
-0.309046 0.84587967 -0.19908167 4278190080
-0.30277953 0.83778971 -0.19683217 4278190080
-0.29821339 0.83425397 -0.19570743 4278190080
-0.29353079 0.83074778 -0.19458267 4278190080
-0.29062897 0.83176738 -0.19458267 4278190080
-0.28772384 0.83277678 -0.19458267 4278190080
-0.28639004 0.8383863 -0.19570743 4278190080
-0.28502059 0.84399664 -0.19683217 4278190080
-0.28207281 0.84498638 -0.19683217 4278190080
-0.27912134 0.84596592 -0.19683217 4278190080
-0.27616671 0.84693503 -0.19683217 4278190080
-0.27306083 0.84794152 -0.19683217 4278190080
-0.2700991 0.84888959 -0.19683217 4278190080
-0.26713434 0.84982723 -0.19683217 4278190080
-0.2641663 0.8507545 -0.19683217 4278190080
-0.26119503 0.8516714 -0.19683217 4278190080
-0.25822061 0.85257798 -0.19683217 4278190080
-0.25524279 0.8534742 -0.19683217 4278190080
-0.25088251 0.84968752 -0.19570743 4278190080
-0.24655178 0.84588081 -0.19458267 4278190080
-0.24090374 0.83737236 -0.19233315 4278190080
-0.23664874 0.83352154 -0.19120839 4278190080
-0.23373759 0.83434254 -0.19120839 4278190080
-0.22952595 0.83045757 -0.19008364 4278190080
-0.22662577 0.83125371 -0.19008364 4278190080
-0.22372282 0.83203971 -0.19008364 4278190080
-0.22206573 0.83752465 -0.19120839 4278190080
-0.21899447 0.83833301 -0.19120839 4278190080
-0.21606685 0.83909231 -0.19120839 4278190080
-0.2131366 0.83984137 -0.19120839 4278190080
-0.21020353 0.84058028 -0.19120839 4278190080
-0.20843352 0.8460393 -0.19233315 4278190080
-0.20433041 0.84202725 -0.19120839 4278190080
-0.20138976 0.84273541 -0.19120839 4278190080
-0.19844666 0.84343326 -0.19120839 4278190080
-0.19440235 0.83937454 -0.19008364 4278190080
-0.19147103 0.84004807 -0.19008364 4278190080
-0.18747173 0.83595747 -0.18895888 4278190080
-0.18455237 0.83660686 -0.18895888 4278190080
-0.1805979 0.8324849 -0.18783413 4278190080
-0.17769115 0.83311015 -0.18783413 4278190080
-0.17378218 0.8289572 -0.18670937 4278190080
-0.17074287 0.82958853 -0.18670937 4278190080
-0.16688038 0.82540429 -0.18558462 4278190080
-0.16399844 0.82598174 -0.18558462 4278190080
-0.16111405 0.82654923 -0.18558462 4278190080
-0.1582277 0.8271066 -0.18558462 4278190080
-0.15533985 0.82765383 -0.18558462 4278190080
-0.15244968 0.82819104 -0.18558462 4278190080
-0.1494133 0.82874423 -0.18558462 4278190080
-0.14651936 0.82926077 -0.18558462 4278190080
-0.14362408 0.82976711 -0.18558462 4278190080
-0.14154075 0.83506674 -0.18670937 4278190080
-0.13862522 0.83555567 -0.18670937 4278190080
-0.13570757 0.83603454 -0.18670937 4278190080
-0.13278826 0.83650315 -0.18670937 4278190080
-0.12986778 0.83696157 -0.18670937 4278190080
-0.12694526 0.83740979 -0.18670937 4278190080
-0.12402166 0.83784777 -0.18670937 4278190080
-0.12039953 0.83345383 -0.18558462 4278190080
-0.11680961 0.82904482 -0.18445987 4278190080
-0.11310832 0.82464075 -0.18333511 4278190080
-0.11022893 0.82503057 -0.18333511 4278190080
-0.10734862 0.82541025 -0.18333511 4278190080
-0.10446657 0.82577997 -0.18333511 4278190080
-0.10158369 0.82613957 -0.18333511 4278190080
-0.099276826 0.8313266 -0.18445987 4278190080
-0.096229315 0.83168489 -0.18445987 4278190080
-0.093325429 0.83201575 -0.18445987 4278190080
-0.09094701 0.83717978 -0.18558462 4278190080
-0.088170283 0.83747673 -0.18558462 4278190080
-0.084607534 0.83294743 -0.18445987 4278190080
-0.082175165 0.83808625 -0.18558462 4278190080
-0.079249017 0.838368 -0.18558462 4278190080
-0.076322354 0.8386395 -0.18558462 4278190080
-0.073394313 0.8389008 -0.18558462 4278190080
-0.070465378 0.83915192 -0.18558462 4278190080
-0.067536026 0.83939278 -0.18558462 4278190080
-0.064605407 0.83962339 -0.18558462 4278190080
-0.061674453 0.83984381 -0.18558462 4278190080
-0.058402453 0.83519399 -0.18445987 4278190080
-0.055341046 0.83540243 -0.18445987 4278190080
-0.052424431 0.83559054 -0.18445987 4278190080
-0.049507625 0.8357684 -0.18445987 4278190080
-0.046589769 0.83593613 -0.18445987 4278190080
-0.043525722 0.83610129 -0.18445987 4278190080
-0.040606741 0.83624816 -0.18445987 4278190080
-0.037687264 0.83638477 -0.18445987 4278190080
-0.034767773 0.83651125 -0.18445987 4278190080
-0.031847414 0.83662748 -0.18445987 4278190080
-0.028927114 0.83673358 -0.18445987 4278190080
-0.026006013 0.83682942 -0.18445987 4278190080
-0.023084596 0.83691514 -0.18445987 4278190080
-0.020046014 0.83212018 -0.18333511 4278190080
-0.017141074 0.83218509 -0.18333511 4278190080
-0.014236367 0.83223987 -0.18333511 4278190080
-0.011331043 0.83228445 -0.18333511 4278190080
-0.0084255822 0.83231896 -0.18333511 4278190080
-0.0055204616 0.83234328 -0.18333511 4278190080
-0.002630135 0.83722931 -0.18445987 4278190080
0.00029208907 0.83723342 -0.18445987 4278190080
0.0033610219 0.83722669 -0.18445987 4278190080
0.0063197622 0.84208161 -0.18558462 4278190080
0.0092057483 0.83718282 -0.18445987 4278190080
0.012127738 0.83714563 -0.18445987 4278190080
0.015050027 0.83709818 -0.18445987 4278190080
0.017825896 0.83704364 -0.18445987 4278190080
0.020627063 0.83210599 -0.18333511 4278190080
0.023393534 0.82715899 -0.18221036 4278190080
0.026269365 0.82219833 -0.1810856 4278190080
0.028966812 0.81723279 -0.17996083 4278190080
0.031629916 0.81225854 -0.17883608 4278190080
0.034671336 0.81701064 -0.17996083 4278190080
0.037523195 0.81688464 -0.17996083 4278190080
0.040374167 0.81674874 -0.17996083 4278190080
0.043482602 0.82146788 -0.1810856 4278190080
0.046624474 0.82617521 -0.18221036 4278190080
0.04979929 0.83087057 -0.18333511 4278190080
0.052699443 0.83069164 -0.18333511 4278190080
0.056069873 0.83535385 -0.18445987 4278190080
0.058985639 0.83515298 -0.18445987 4278190080
0.061900239 0.83494204 -0.18445987 4278190080
0.064437374 0.82986361 -0.18333511 4278190080
0.067333929 0.82963365 -0.18333511 4278190080
0.07022921 0.82939357 -0.18333511 4278190080
0.073552087 0.83399636 -0.18445987 4278190080
0.076462559 0.83373457 -0.18445987 4278190080
0.079372548 0.83346254 -0.18445987 4278190080
0.081802778 0.82833213 -0.18333511 4278190080
0.084693432 0.82804155 -0.18333511 4278190080
0.087583497 0.82774091 -0.18333511 4278190080
0.090616606 0.82741433 -0.18333511 4278190080
0.093504444 0.82709295 -0.18333511 4278190080
0.096390702 0.82676154 -0.18333511 4278190080
0.098695159 0.82158297 -0.18221036 4278190080
0.10156216 0.82123345 -0.18221036 4278190080
0.10442835 0.82087392 -0.18221036 4278190080
0.10729328 0.82050437 -0.18221036 4278190080
0.11029974 0.82010561 -0.18221036 4278190080
0.1131615 0.81971568 -0.18221036 4278190080
0.11602233 0.81931561 -0.18221036 4278190080
0.11888174 0.81890565 -0.18221036 4278190080
0.12245601 0.82330453 -0.18333511 4278190080
0.12532932 0.82287204 -0.18333511 4278190080
0.12820064 0.8224296 -0.18333511 4278190080
0.13107085 0.82197702 -0.18333511 4278190080
0.13393946 0.82151449 -0.18333511 4278190080
0.13600527 0.81623638 -0.18221036 4278190080
0.13885382 0.81575668 -0.18221036 4278190080
0.14253449 0.82006693 -0.18333511 4278190080
0.14539637 0.81956434 -0.18333511 4278190080
0.14999197 0.82863969 -0.18558462 4278190080
0.15288328 0.82811111 -0.18558462 4278190080
0.15681979 0.83233279 -0.18670937 4278190080
0.15972395 0.83178031 -0.18670937 4278190080
0.16169117 0.82643652 -0.18558462 4278190080
0.16457473 0.82586712 -0.18558462 4278190080
0.16648792 0.82051301 -0.18445987 4278190080
0.16935121 0.81992686 -0.18445987 4278190080
0.17221199 0.81933075 -0.18445987 4278190080
0.17608985 0.82348871 -0.18558462 4278190080
0.17896304 0.82286912 -0.18558462 4278190080
0.18197811 0.82220757 -0.18558462 4278190080
0.18484677 0.82156742 -0.18558462 4278190080
0.18648505 0.81620044 -0.18445987 4278190080
0.18947521 0.81551147 -0.18445987 4278190080
0.1923209 0.81484509 -0.18445987 4278190080
0.19516423 0.81416875 -0.18445987 4278190080
0.19915695 0.81821626 -0.18558462 4278190080
0.20201202 0.81751603 -0.18558462 4278190080
0.2060494 0.82153147 -0.18670937 4278190080
0.20891599 0.82080716 -0.18670937 4278190080
0.21178006 0.82007283 -0.18670937 4278190080
0.21464108 0.81932867 -0.18670937 4278190080
0.21749994 0.81857437 -0.18670937 4278190080
0.22049859 0.81777173 -0.18670937 4278190080
0.2246367 0.82169646 -0.18783413 4278190080
0.22750333 0.82090735 -0.18783413 4278190080
0.23168512 0.82479852 -0.18895888 4278190080
0.23456296 0.82398468 -0.18895888 4278190080
0.23743752 0.82316101 -0.18895888 4278190080
0.24030963 0.82232708 -0.18895888 4278190080
0.24456121 0.82615477 -0.19008364 4278190080
0.24744372 0.82529604 -0.19008364 4278190080
0.25032321 0.82442719 -0.19008364 4278190080
0.25463092 0.82820523 -0.19120839 4278190080
0.25766459 0.8272664 -0.19120839 4278190080
0.26055092 0.82636189 -0.19120839 4278190080
0.26343402 0.82544732 -0.19120839 4278190080
0.26631352 0.82452279 -0.19120839 4278190080
0.26919019 0.82358813 -0.19120839 4278190080
0.27053341 0.81801808 -0.19008364 4278190080
0.2718415 0.81244862 -0.18895888 4278190080
0.27481735 0.81144685 -0.18895888 4278190080
0.2776483 0.81048256 -0.18895888 4278190080
0.28047547 0.80950856 -0.18895888 4278190080
0.28491068 0.81312227 -0.19008364 4278190080
0.29100156 0.821307 -0.19233315 4278190080
0.29550949 0.82487267 -0.1934579 4278190080
0.2983872 0.82383609 -0.1934579 4278190080
0.30126086 0.82278961 -0.1934579 4278190080
0.30244026 0.817164 -0.19233315 4278190080
0.305291 0.81610322 -0.19233315 4278190080
0.30655634 0.81042212 -0.19120839 4278190080
0.3111231 0.81389773 -0.19233315 4278190080
0.31571743 0.8173514 -0.1934579 4278190080
0.32211137 0.82532126 -0.19570743 4278190080
0.32677716 0.82872415 -0.19683217 4278190080
0.32966813 0.82757837 -0.19683217 4278190080
0.3343738 0.83094215 -0.19795692 4278190080
0.33543754 0.82525676 -0.19683217 4278190080
0.33831635 0.82408077 -0.19683217 4278190080
0.34119061 0.82289487 -0.19683217 4278190080
0.34406117 0.82169884 -0.19683217 4278190080
0.34882483 0.82497996 -0.19795692 4278190080
0.35184604 0.82369596 -0.19795692 4278190080
0.35471889 0.82246292 -0.19795692 4278190080
0.35758781 0.82121962 -0.19795692 4278190080
0.36045241 0.81996632 -0.19795692 4278190080
0.36133605 0.81425017 -0.19683217 4278190080
0.36602512 0.81749392 -0.19795692 4278190080
0.37088305 0.8206507 -0.19908167 4278190080
0.37374514 0.8193512 -0.19908167 4278190080
0.376746 0.8179757 -0.19908167 4278190080
0.38165224 0.82107365 -0.20020643 4278190080
0.38658512 0.82414705 -0.20133118 4278190080
0.38945931 0.82279277 -0.20133118 4278190080
0.39232922 0.82142818 -0.20133118 4278190080
0.39519432 0.82005364 -0.20133118 4278190080
0.39805415 0.81866926 -0.20133118 4278190080
0.4009096 0.81727469 -0.20133118 4278190080
0.40174061 0.81143385 -0.20020643 4278190080
0.40674764 0.81438494 -0.20133118 4278190080
0.40972966 0.81288874 -0.20133118 4278190080
0.41242307 0.81152552 -0.20133118 4278190080
0.41525349 0.81008089 -0.20133118 4278190080
0.42031589 0.81295419 -0.20245594 4278190080
0.42315125 0.81148201 -0.20245594 4278190080
0.42598101 0.81000012 -0.20245594 4278190080
0.43123069 0.81273675 -0.20358069 4278190080
0.43406478 0.81122667 -0.20358069 4278190080
0.43689403 0.80970651 -0.20358069 4278190080
0.4420459 0.81245607 -0.20470545 4278190080
0.44487935 0.81090802 -0.20470545 4278190080
0.44770741 0.80935007 -0.20470545 4278190080
0.45052961 0.80778247 -0.20470545 4278190080
0.4533467 0.8062048 -0.20470545 4278190080
0.45615786 0.80461758 -0.20470545 4278190080
0.46138141 0.80725002 -0.2058302 4278190080
0.46906108 0.81407702 -0.20807971 4278190080
0.47434661 0.81664765 -0.20920448 4278190080
0.47733647 0.81490368 -0.20920448 4278190080
0.48265532 0.81742752 -0.21032923 4278190080
0.48550591 0.81573766 -0.21032923 4278190080
0.48835012 0.81403816 -0.21032923 4278190080
0.49118885 0.8123284 -0.21032923 4278190080
0.49402115 0.81060904 -0.21032923 4278190080
0.49684787 0.80887955 -0.21032923 4278190080
0.49966854 0.80714017 -0.21032923 4278190080
0.50520289 0.80943638 -0.21145399 4278190080
0.50802547 0.80766785 -0.21145399 4278190080
0.51084137 0.80588973 -0.21145399 4278190080
0.51102889 0.7999959 -0.21032923 4278190080
0.51645499 0.80230385 -0.21145399 4278190080
0.51925254 0.8004961 -0.21145399 4278190080
0.52470934 0.80275655 -0.21257874 4278190080
0.53018773 0.80498892 -0.2137035 4278190080
0.53852373 0.81115794 -0.21595301 4278190080
0.54406089 0.81332248 -0.21707776 4278190080
0.54689676 0.81141829 -0.21707776 4278190080
0.54972553 0.80950451 -0.21707776 4278190080
0.55254805 0.80758053 -0.21707776 4278190080
0.55536342 0.80564702 -0.21707776 4278190080
0.55817246 0.80370343 -0.21707776 4278190080
0.56376767 0.80574179 -0.21820252 4278190080
0.56938344 0.80775112 -0.21932727 4278190080
0.5721997 0.80575854 -0.21932727 4278190080
0.57500857 0.80375648 -0.21932727 4278190080
0.57781088 0.80174434 -0.21932727 4278190080
0.5807454 0.79962122 -0.21932727 4278190080
0.58353323 0.79758906 -0.21932727 4278190080
0.58934355 0.79936635 -0.22045203 4278190080
0.59185183 0.79751098 -0.22045203 4278190080
0.59768885 0.79923773 -0.22157678 4278190080
0.60340607 0.80103809 -0.22270153 4278190080
0.60914361 0.80280793 -0.2238263 4278190080
0.61194241 0.80067658 -0.2238263 4278190080
0.61770517 0.80239624 -0.22495106 4278190080
0.62348777 0.80408508 -0.22607581 4278190080
0.62928921 0.80574358 -0.22720057 4278190080
0.63209814 0.8035419 -0.22720057 4278190080
0.63489932 0.80133045 -0.22720057 4278190080
0.64073116 0.80291754 -0.22832532 4278190080
0.64353013 0.80067593 -0.22832532 4278190080
0.64938611 0.80221158 -0.22945008 4278190080
0.65540147 0.80360126 -0.23057483 4278190080
0.66129464 0.80507344 -0.23169959 4278190080
0.664101 0.80276 -0.23169959 4278190080
0.67001736 0.80418015 -0.23282434 4278190080
0.67282057 0.80183631 -0.23282434 4278190080
0.67876011 0.80320382 -0.2339491 4278190080
0.684717 0.80453992 -0.23507385 4278190080
0.69069183 0.80584383 -0.23619859 4278190080
0.69668365 0.80711615 -0.23732334 4278190080
0.70269316 0.80835599 -0.2384481 4278190080
0.70871979 0.8095637 -0.23957285 4278190080
0.71154112 0.8070851 -0.23957285 4278190080
0.71772951 0.80811447 -0.24069761 4278190080
0.72054613 0.80560404 -0.24069761 4278190080
0.72661453 0.80670375 -0.24182236 4278190080
0.72942579 0.80416268 -0.24182236 4278190080
0.73222858 0.80161148 -0.24182236 4278190080
0.73832023 0.80263644 -0.24294712 4278190080
0.74111766 0.80005419 -0.24294712 4278190080
0.74390602 0.79746217 -0.24294712 4278190080
0.7500205 0.79841167 -0.24407187 4278190080
0.75615114 0.79932785 -0.24519666 4278190080
0.75893646 0.79668373 -0.24519666 4278190080
0.76508558 0.79754525 -0.24632141 4278190080
0.77124995 0.79837352 -0.24744616 4278190080
0.77403182 0.79567677 -0.24744616 4278190080
0.77694327 0.7928341 -0.24744616 4278190080
0.77970576 0.7901175 -0.24744616 4278190080
0.7824592 0.78739083 -0.24744616 4278190080
0.78520268 0.78465503 -0.24744616 4278190080
0.79139513 0.78534085 -0.24857092 4278190080
0.79760194 0.78599298 -0.24969567 4278190080
0.80395985 0.78647131 -0.25082043 4278190080
0.81368887 0.79044974 -0.25306994 4278190080
0.82710153 0.79760724 -0.25644419 4278190080
0.8473323 0.81171089 -0.26206797 4278190080
0.82192177 0.7818855 -0.25306994 4278190080
0.81048018 0.76562941 -0.24857092 4278190080
0.81314754 0.76279593 -0.24857092 4278190080
0.8077243 0.7471754 -0.24519666 4278190080
1.1247965 0.82111835 -0.31268197 4278190080
1.1276561 0.81718683 -0.31268197 4278190080
1.086998 0.78195095 -0.30030963 4278190080
1.1135098 0.79513872 -0.30705819 4278190080
1.1043547 0.78279483 -0.30368394 4278190080
1.1070803 0.77893549 -0.30368394 4278190080
1.1057985 0.77227658 -0.30255917 4278190080
1.1124911 0.77118784 -0.30368394 4278190080
1.1151766 0.76729959 -0.30368394 4278190080
1.1218715 0.76614946 -0.30480868 4278190080
1.1327384 0.76749814 -0.30705819 4278190080
1.1394529 0.76625848 -0.30818295 4278190080
1.142121 0.76227617 -0.30818295 4278190080
1.1488366 0.76097488 -0.30930769 4278190080
1.1514857 0.75696045 -0.30930769 4278190080
1.1500407 0.75027418 -0.30818295 4278190080
1.1526525 0.74625558 -0.30818295 4278190080
1.1593493 0.74486071 -0.30930769 4278190080
1.1619425 0.74080902 -0.30930769 4278190080
1.1686381 0.73935366 -0.31043246 4278190080
1.1794643 0.74045026 -0.31268197 4278190080
1.1861767 0.73890495 -0.31380671 4278190080
1.1970371 0.73988259 -0.31605622 4278190080
1.2037657 0.73824638 -0.31718099 4278190080
1.214659 0.73910528 -0.3194305 4278190080
1.2214024 0.73737848 -0.32055524 4278190080
1.2323276 0.73811764 -0.32280475 4278190080
1.2392136 0.73608351 -0.32392952 4278190080
1.2501698 0.73670048 -0.32617903 4278190080
1.2569398 0.73479056 -0.32730377 4278190080
1.2679261 0.7352863 -0.32955328 4278190080
1.2789308 0.73571497 -0.33180282 4278190080
1.2899541 0.73607498 -0.33405232 4278190080
1.300995 0.73636764 -0.33630183 4278190080
1.3163022 0.73897636 -0.33967608 4278190080
1.3273867 0.73911703 -0.34192559 4278190080
1.3384879 0.73918992 -0.3441751 4278190080
1.3454614 0.73661894 -0.34529987 4278190080
1.3565875 0.73656696 -0.34754938 4278190080
1.36344 0.73413646 -0.34867412 4278190080
1.3745893 0.73396254 -0.35092363 4278190080
1.3857542 0.73371893 -0.35317314 4278190080
1.3969337 0.73340696 -0.35542265 4278190080
1.4081283 0.73302513 -0.35767215 4278190080
1.4193369 0.73257405 -0.35992166 4278190080
1.4305593 0.73205435 -0.3621712 4278190080
1.4417955 0.73146439 -0.36442071 4278190080
1.4530444 0.73080564 -0.36667022 4278190080
1.4643067 0.73007637 -0.36891973 4278190080
1.4755815 0.72927737 -0.37116924 4278190080
1.486868 0.72840935 -0.37341875 4278190080
1.4981668 0.72747052 -0.37566826 4278190080
1.5094765 0.72646242 -0.37791777 4278190080
1.5207978 0.72538334 -0.38016728 4278190080
1.5321299 0.7242341 -0.38241678 4278190080
1.5480105 0.72481149 -0.38579103 4278190080
1.5593694 0.7235049 -0.38804054 4278190080
1.5752916 0.72388685 -0.39141485 4278190080
1.5954176 0.72673714 -0.39591384 4278190080
1.6112663 0.72717637 -0.39928812 4278190080
1.62269 0.72552431 -0.40153763 4278190080
1.6385757 0.72577518 -0.40491188 4278190080
1.6500219 0.72396564 -0.40716138 4278190080
1.6659435 0.7240268 -0.41053566 4278190080
1.6774101 0.7220602 -0.41278517 4278190080
1.6888837 0.72002143 -0.41503468 4278190080
1.7048513 0.71980727 -0.41840896 4278190080
1.720838 0.71948934 -0.42178324 4278190080
1.7368431 0.71906847 -0.42515749 4278190080
1.7528657 0.71854556 -0.42853177 4278190080
1.768906 0.71791852 -0.43190601 4278190080
1.7849628 0.71718913 -0.43528026 4278190080
1.8055632 0.71815592 -0.43977928 4278190080
1.8217835 0.71688551 -0.44315356 4278190080
1.8424338 0.71759409 -0.44765261 4278190080
1.858565 0.71641475 -0.45102683 4278190080
1.87471 0.71513259 -0.45440114 4278190080
1.8908687 0.7137453 -0.45777535 4278190080
1.9116043 0.71395952 -0.46227443 4278190080
1.936934 0.71572506 -0.46789819 4278190080
1.9622993 0.71732247 -0.47352198 4278190080
1.9968616 0.72206575 -0.48139521 4278190080
2.0040822 0.71638221 -0.48252001 4278190080
2.0157573 0.71262956 -0.48476952 4278190080
2.0227079 0.70754963 -0.48589423 4278190080
2.0251656 0.70048434 -0.48589423 4278190080
2.0598664 0.70444691 -0.49376756 4278190080
2.0853891 0.70505375 -0.49939135 4278190080
2.1109405 0.70549196 -0.50501508 4278190080
2.1318941 0.70423108 -0.50951409 4278190080
2.1528647 0.70283246 -0.51401311 4278190080
2.1739736 0.7009173 -0.51851219 4278190080
2.1949749 0.69924027 -0.52301121 4278190080
2.215991 0.69742388 -0.52751023 4278190080
2.237021 0.6954692 -0.53200924 4278190080
2.2627206 0.69480741 -0.537633 4278190080
2.2837811 0.6925596 -0.54213202 4278190080
2.3328557 0.69855964 -0.5533796 4278190080
2.3259361 0.68764919 -0.55113012 4278190080
2.318969 0.67679566 -0.54888058 4278190080
2.2417319 0.64577162 -0.52975976 4278190080
2.1689939 0.61662632 -0.51176363 4278190080
2.1242251 0.59589332 -0.50051606 4278190080
2.1263952 0.58810288 -0.50051606 4278190080
2.123735 0.57939523 -0.49939135 4278190080
2.1258445 0.57160664 -0.49939135 4278190080
2.1230192 0.56330436 -0.49826658 4278190080
2.1249726 0.55589092 -0.49826658 4278190080
2.1221826 0.54725307 -0.49714184 4278190080
2.1240797 0.53984261 -0.49714184 4278190080
2.1212254 0.53124082 -0.49601707 4278190080
2.1136069 0.52149862 -0.49376756 4278190080
2.1106803 0.51296771 -0.49264282 4278190080
2.088768 0.49992645 -0.48701903 4278190080
2.1236939 0.50045514 -0.49489233 4278190080
2.1396654 0.49634123 -0.49826658 4278190080
2.1603837 0.49320623 -0.5027656 4278190080
2.1811056 0.48993373 -0.50726461 4278190080
2.1780455 0.48126566 -0.50613987 4278190080
2.1749511 0.47262609 -0.50501508 4278190080
2.1718235 0.46401286 -0.50389034 4278190080
2.1734302 0.4564285 -0.50389034 4278190080
2.1702385 0.44785509 -0.5027656 4278190080
2.2195361 0.44995591 -0.51401311 4278190080
2.421772 0.48216027 -0.56125283 4278190080
2.3996158 0.46861106 -0.55562913 4278190080
2.4012365 0.46023273 -0.55562913 4278190080
2.3932528 0.45004684 -0.5533796 4278190080
2.3996 0.44257447 -0.55450433 4278190080
2.3963363 0.43332818 -0.5533796 4278190080
2.3978343 0.42496026 -0.5533796 4278190080
2.399303 0.41658846 -0.5533796 4278190080
2.4007428 0.40821025 -0.5533796 4278190080
2.4021528 0.39982837 -0.5533796 4278190080
2.3987253 0.39065722 -0.5522548 4278190080
2.4000745 0.38228121 -0.5522548 4278190080
2.4013941 0.37390184 -0.5522548 4278190080
2.3978684 0.36478391 -0.55113012 4278190080
2.399127 0.35641235 -0.55113012 4278190080
2.4003565 0.34803516 -0.55113012 4278190080
2.396733 0.33897144 -0.55000532 4278190080
2.3979015 0.33060399 -0.55000532 4278190080
2.3942125 0.3215827 -0.54888058 4278190080
2.3904896 0.31259245 -0.54775578 4278190080
2.3867333 0.30363083 -0.54663104 4278190080
2.3877785 0.29529721 -0.54663104 4278190080
2.3839579 0.2863802 -0.5455063 4278190080
2.384943 0.27805638 -0.5455063 4278190080
2.3907399 0.27027774 -0.54663104 4278190080
2.3917146 0.26151249 -0.54663104 4278190080
2.3926127 0.25316304 -0.54663104 4278190080
2.393482 0.2448092 -0.54663104 4278190080
2.3943219 0.23645367 -0.54663104 4278190080
2.3951325 0.22809397 -0.54663104 4278190080
2.3910246 0.2197043 -0.5455063 4278190080
2.3918138 0.21093963 -0.5455063 4278190080
2.387681 0.20217779 -0.5443815 4278190080
2.3883722 0.19384275 -0.5443815 4278190080
2.3890343 0.18550409 -0.5443815 4278190080
2.3896673 0.17716317 -0.5443815 4278190080
2.3853819 0.16889359 -0.54325676 4278190080
2.3859849 0.16014995 -0.54325676 4278190080
2.3865294 0.15182109 -0.54325676 4278190080
2.3870449 0.14348912 -0.54325676 4278190080
2.3875077 0.13557251 -0.54325676 4278190080
2.3879883 0.12682129 -0.54325676 4278190080
2.3884165 0.11848439 -0.54325676 4278190080
2.3888156 0.11014729 -0.54325676 4278190080
2.3891857 0.10180759 -0.54325676 4278190080
2.3895264 0.093466647 -0.54325676 4278190080
2.389838 0.085125841 -0.54325676 4278190080
2.3901207 0.076782718 -0.54325676 4278190080
2.3903742 0.068439938 -0.54325676 4278190080
2.3905985 0.060095049 -0.54325676 4278190080
2.3907936 0.051749427 -0.54325676 4278190080
2.3860886 0.043316018 -0.54213202 4278190080
2.3862252 0.034986243 -0.54213202 4278190080
2.3814614 0.026602894 -0.54100728 4278190080
2.3815398 0.018289374 -0.54100728 4278190080
2.3815892 0.0099756299 -0.54100728 4278190080
2.3816094 0.0016630325 -0.54100728 4278190080
2.3816006 -0.0066507007 -0.54100728 4278190080
2.3815629 -0.014963999 -0.54100728 4278190080
2.3814962 -0.023277113 -0.54100728 4278190080
2.3862717 -0.031654563 -0.54213202 4278190080
2.3861468 -0.039984014 -0.54213202 4278190080
2.3859925 -0.048312977 -0.54213202 4278190080
2.3858094 -0.056641351 -0.54213202 4278190080
2.3855972 -0.064969033 -0.54213202 4278190080
2.3853559 -0.073295929 -0.54213202 4278190080
2.3850856 -0.08162193 -0.54213202 4278190080
2.3799021 -0.090178691 -0.54100728 4278190080
2.3795729 -0.098485544 -0.54100728 4278190080
2.3792145 -0.10679121 -0.54100728 4278190080
2.3788273 -0.11509556 -0.54100728 4278190080
2.3784111 -0.12339852 -0.54100728 4278190080
2.3828301 -0.13196938 -0.54213202 4278190080
2.382355 -0.14028619 -0.54213202 4278190080
2.3818765 -0.1481856 -0.54213202 4278190080
2.3813448 -0.156499 -0.54213202 4278190080
2.3759239 -0.16447406 -0.54100728 4278190080
2.3753352 -0.17276657 -0.54100728 4278190080
2.3746862 -0.18147144 -0.54100728 4278190080
2.3740382 -0.18975955 -0.54100728 4278190080
2.3733613 -0.19804533 -0.54100728 4278190080
2.3775091 -0.20675075 -0.54213202 4278190080
2.3767729 -0.21504855 -0.54213202 4278190080
2.3760078 -0.22334372 -0.54213202 4278190080
2.3752136 -0.23163618 -0.54213202 4278190080
2.3743906 -0.2399258 -0.54213202 4278190080
2.3735385 -0.24821252 -0.54213202 4278190080
2.3726578 -0.25649619 -0.54213202 4278190080
2.3765898 -0.26531729 -0.54325676 4278190080
2.3756492 -0.27361155 -0.54325676 4278190080
2.3746796 -0.28190243 -0.54325676 4278190080
2.3736811 -0.29018986 -0.54325676 4278190080
2.3726537 -0.29847381 -0.54325676 4278190080
2.3764288 -0.30737901 -0.5443815 4278190080
2.3753414 -0.31567246 -0.5443815 4278190080
2.3742251 -0.323962 -0.5443815 4278190080
2.3730798 -0.33224761 -0.5443815 4278190080
2.3767281 -0.34122154 -0.5455063 4278190080
2.3755226 -0.3495158 -0.5455063 4278190080
2.3694704 -0.35707977 -0.5443815 4278190080
2.3682096 -0.36534864 -0.5443815 4278190080
2.3669198 -0.37361297 -0.5443815 4278190080
2.4061406 -0.3948831 -0.46652797 4278190080
2.4047475 -0.40327972 -0.46652797 4278190080
2.4033253 -0.4116714 -0.46652797 4278190080
2.4067085 -0.42090359 -0.46748206 4278190080
2.4052246 -0.42930201 -0.46748206 4278190080
2.4037113 -0.43769521 -0.46748206 4278190080
2.4021688 -0.44608307 -0.46748206 4278190080
2.4005971 -0.45446548 -0.46748206 4278190080
2.4038153 -0.46377212 -0.46843606 4278190080
2.4021816 -0.47216016 -0.46843606 4278190080
2.4005189 -0.48054245 -0.46843606 4278190080
2.3988268 -0.48891893 -0.46843606 4278190080
2.3971057 -0.49728942 -0.46843606 4278190080
2.4001577 -0.50666761 -0.46939012 4278190080
2.3983743 -0.51504266 -0.46939012 4278190080
2.3965619 -0.52341139 -0.46939012 4278190080
2.3995116 -0.53283775 -0.47034416 4278190080
2.3976371 -0.54121035 -0.47034416 4278190080
2.3957331 -0.54957634 -0.47034416 4278190080
2.3985803 -0.55904979 -0.47129822 4278190080
2.3966143 -0.56741899 -0.47129822 4278190080
2.394619 -0.57578135 -0.47129822 4278190080
2.3925946 -0.58413661 -0.47129822 4278190080
2.3905411 -0.59248471 -0.47129822 4278190080
2.393218 -0.60202301 -0.47225225 4278190080
2.3909955 -0.61079055 -0.47225225 4278190080
2.3936 -0.62036437 -0.47320631 4278190080
2.3914201 -0.62871581 -0.47320631 4278190080
2.3939531 -0.63832408 -0.47416034 4278190080
2.3917103 -0.64667666 -0.47416034 4278190080
2.3942866 -0.65590107 -0.47511441 4278190080
2.3918664 -0.6646722 -0.47511441 4278190080
2.3895319 -0.67301732 -0.47511441 4278190080
2.3871679 -0.68135422 -0.47511441 4278190080
2.3847752 -0.68968284 -0.47511441 4278190080
2.387063 -0.69938308 -0.47606841 4278190080
2.3847308 -0.707295 -0.47606841 4278190080
2.3822474 -0.71561491 -0.47606841 4278190080
2.3844306 -0.72535467 -0.4770225 4278190080
2.3817561 -0.73408914 -0.4770225 4278190080
2.3838644 -0.74386054 -0.4779765 4278190080
2.3812532 -0.7521773 -0.4779765 4278190080
2.3834212 -0.76156354 -0.47893056 4278190080
2.3806138 -0.77029413 -0.47893056 4278190080
2.382575 -0.78012651 -0.47988459 4278190080
2.3798373 -0.78843856 -0.47988459 4278190080
2.3817244 -0.7983008 -0.48083866 4278190080
2.3789234 -0.80660963 -0.48083866 4278190080
2.3807359 -0.81650096 -0.48179269 4278190080
2.3825083 -0.82641476 -0.48274675 4278190080
2.3796091 -0.83472627 -0.48274675 4278190080
2.3813064 -0.84466839 -0.48370078 4278190080
2.3783436 -0.85297549 -0.48370078 4278190080
2.379966 -0.86294538 -0.48465484 4278190080
2.3769393 -0.87124771 -0.48465484 4278190080
2.3738835 -0.87953949 -0.48465484 4278190080
2.3753951 -0.8895418 -0.48560888 4278190080
2.3722756 -0.89782798 -0.48560888 4278190080
2.3738699 -0.90744239 -0.48656294 4278190080
2.370688 -0.91572326 -0.48656294 4278190080
2.3720491 -0.92577732 -0.48751694 4278190080
2.368803 -0.93405169 -0.48751694 4278190080
2.3700881 -0.94413102 -0.48847103 4278190080
2.3667779 -0.95239842 -0.48847103 4278190080
2.367986 -0.96250248 -0.48942509 4278190080
2.3646119 -0.97076237 -0.48942509 4278190080
2.3657427 -0.98089033 -0.4903791 4278190080
2.3668315 -0.99103796 -0.49133319 4278190080
2.3678784 -1.0012052 -0.49228719 4278190080
2.364193 -1.0098771 -0.49228719 4278190080
2.3651602 -1.0200673 -0.49324125 4278190080
2.3614056 -1.0287293 -0.49324125 4278190080
2.3626556 -1.0381171 -0.49419528 4278190080
2.3590174 -1.046358 -0.49419528 4278190080
2.3598304 -1.0565919 -0.49514934 4278190080
2.3606002 -1.066844 -0.49610338 4278190080
2.3613274 -1.0771146 -0.49705744 4278190080
2.3620114 -1.0874029 -0.49801147 4278190080
2.3582013 -1.0956414 -0.49801147 4278190080
2.3588066 -1.10595 -0.49896553 4278190080
2.3549316 -1.114177 -0.49896553 4278190080
2.3554573 -1.1245049 -0.49991953 4278190080
2.3559396 -1.1348501 -0.50087363 4278190080
2.3563783 -1.1452124 -0.50182766 4278190080
2.3567734 -1.1555916 -0.50278169 4278190080
2.3571243 -1.1659874 -0.50373572 4278190080
2.3574319 -1.1763998 -0.50468981 4278190080
2.3533111 -1.1846216 -0.50468981 4278190080
2.3535378 -1.1950511 -0.50564378 4278190080
2.3493519 -1.2032591 -0.50564378 4278190080
2.3494983 -1.2137053 -0.50659788 4278190080
2.3495998 -1.224167 -0.50755191 4278190080
2.3496575 -1.2346442 -0.50850594 4278190080
2.3496702 -1.2451366 -0.50945997 4278190080
2.3496385 -1.2556443 -0.51041406 4278190080
2.3495617 -1.2661667 -0.5113681 4278190080
2.3451276 -1.2743605 -0.5113681 4278190080
2.3449693 -1.2848973 -0.51232213 4278190080
2.3447661 -1.2954485 -0.51327622 4278190080
2.3445175 -1.3060138 -0.51423025 4278190080
2.344224 -1.3165933 -0.51518428 4278190080
2.3396139 -1.3247682 -0.51518428 4278190080
2.3392377 -1.3353601 -0.51613832 4278190080
2.3388162 -1.3459656 -0.51709241 4278190080
2.3383491 -1.3565843 -0.51804638 4278190080
2.3378363 -1.3672161 -0.51900047 4278190080
2.337518 -1.377453 -0.5199545 4278190080
2.3369155 -1.3881106 -0.52090853 4278190080
2.3362668 -1.3987807 -0.52186257 4278190080
2.3353262 -1.409871 -0.52281666 4278190080
2.3345835 -1.4205654 -0.52377069 4278190080
2.3337946 -1.431272 -0.52472472 4278190080
2.3332109 -1.4415829 -0.52567875 4278190080
2.3323312 -1.4523131 -0.52663285 4278190080
2.3314047 -1.4630544 -0.52758682 4278190080
2.3301744 -1.4742138 -0.52854091 4278190080
2.3291526 -1.4849772 -0.52949494 4278190080
2.3280845 -1.4957515 -0.53044897 4278190080
2.3313525 -1.5087968 -0.5323571 4278190080
2.3301826 -1.5196066 -0.53331113 4278190080
2.3289659 -1.5304266 -0.53426516 4278190080
2.3277018 -1.5412564 -0.53521919 4278190080
2.3263907 -1.5520964 -0.53617328 4278190080
2.3250318 -1.5629456 -0.53712732 4278190080
2.3236258 -1.5738045 -0.53808135 4278190080
2.3221722 -1.5846726 -0.53903544 4278190080
2.3206711 -1.5955493 -0.53998947 4278190080
2.3191221 -1.6064352 -0.5409435 4278190080
2.3175254 -1.6173295 -0.54189754 4278190080
2.3158808 -1.6282322 -0.54285163 4278190080
2.3181934 -1.6419801 -0.54475969 4278190080
2.3164432 -1.6529127 -0.54571372 4278190080
2.3146446 -1.6638535 -0.54666775 4278190080
2.3127978 -1.6748016 -0.54762179 4278190080
2.311197 -1.6853538 -0.54857588 4278190080
2.3089592 -1.6967199 -0.54952991 4278190080
2.3109126 -1.7106094 -0.55143797 4278190080
2.3088622 -1.7215997 -0.55239207 4278190080
2.3109901 -1.7351407 -0.55430013 4278190080
2.3088341 -1.7461573 -0.55525416 4278190080
2.2988205 -1.7512319 -0.55430013 4278190080
2.2965872 -1.7622334 -0.55525416 4278190080
2.2919745 -1.7842536 -0.55716223 4278190080
0.82194352 -0.66797537 -0.19844134 4278190080
0.86518425 -0.70814508 -0.2098899 4278190080
0.79074955 -0.65184361 -0.19176304 4278190080
2.2964098 -2.0025804 -0.58482951 4278190080
2.3225963 -2.0397327 -0.59341598 4278190080
2.2934029 -2.0283182 -0.58769166 4278190080
2.3046348 -2.0526333 -0.59246194 4278190080
2.2901483 -2.0541112 -0.59055382 4278190080
2.2829642 -2.0620928 -0.59055382 4278190080
2.2757521 -2.0700493 -0.59055382 4278190080
2.2721317 -2.0812957 -0.59150785 4278190080
2.2756758 -2.0991979 -0.59437001 4278190080
2.2899103 -2.1271713 -0.60009426 4278190080
2.2681339 -2.1217396 -0.59627813 4278190080
2.2714314 -2.1397405 -0.59914023 4278190080
2.2425835 -2.1273887 -0.59341598 4278190080
0.62206757 -0.63279963 -0.16504978 4278190080
0.62788343 -0.64769918 -0.16791192 4278190080
0.78977388 -0.8858 -0.22324651 4278190080
0.83239031 -0.93985403 -0.23660316 4278190080
0.80317402 -0.91326892 -0.22897078 4278190080
0.77092546 -0.88279486 -0.22038439 4278190080
2.0354743 -2.3976026 -0.60391045 4278190080
2.0092354 -2.4004633 -0.60104829 4278190080
1.9851583 -2.3885889 -0.59627813 4278190080
1.9830563 -2.4030752 -0.59818619 4278190080
1.9653239 -2.3985929 -0.59532404 4278190080
1.9507444 -2.397824 -0.59341598 4278190080
1.9361943 -2.3969827 -0.59150785 4278190080
1.9216738 -2.3960688 -0.58959979 4278190080
1.9071834 -2.3950832 -0.58769166 4278190080
1.8931414 -2.3936951 -0.5857836 4278190080
1.8787118 -2.3925683 -0.58387554 4278190080
1.867331 -2.3952408 -0.58292145 4278190080
1.8529505 -2.3939817 -0.58101338 4278190080
1.8415921 -2.3965433 -0.58005935 4278190080
1.807036 -2.3858662 -0.5743351 4278190080
0.50017124 -0.68490106 -0.15741742 4278190080
0.47761202 -0.65882635 -0.1507391 4278190080
1.6972446 -2.4113548 -0.56574863 4278190080
1.6831951 -2.4092176 -0.56384057 4278190080
1.6640062 -2.3986549 -0.56002438 4278190080
1.6417055 -2.3842363 -0.55525416 4278190080
1.6250647 -2.3777959 -0.55239207 4278190080
1.6084892 -2.3712685 -0.54952991 4278190080
1.5974611 -2.3727973 -0.54857588 4278190080
1.5837151 -2.3701971 -0.54666775 4278190080
1.5700068 -2.3675301 -0.54475969 4278190080
1.5563365 -2.3647962 -0.54285163 4278190080
1.5480725 -2.3702142 -0.54285163 4278190080
1.5371197 -2.371485 -0.54189754 4278190080
1.5265912 -2.3724418 -0.5409435 4278190080
1.5235837 -2.3860295 -0.54285163 4278190080
1.4994833 -2.3664577 -0.53712732 4278190080
1.4886012 -2.3675225 -0.53617328 4278190080
1.4694531 -2.3736839 -0.53521919 4278190080
1.3952054 -2.401057 -0.5323571 4278190080
1.3593339 -2.376415 -0.52472472 4278190080
1.3364977 -2.3555324 -0.51900047 4278190080
1.3306743 -2.3644605 -0.5199545 4278190080
1.3200204 -2.3648055 -0.51900047 4278190080
1.3070034 -2.3608108 -0.51709241 4278190080
1.2963922 -2.3610563 -0.51613832 4278190080
1.2798774 -2.3700492 -0.51613832 4278190080
1.1337416 -2.367362 -0.50278169 4278190080
1.1170533 -2.3535688 -0.49896553 4278190080
1.106742 -2.3530121 -0.49801147 4278190080
1.0943745 -2.3479638 -0.49610338 4278190080
1.0861721 -2.3517694 -0.49610338 4278190080
1.0779561 -2.3555467 -0.49610338 4278190080
1.0697272 -2.3592951 -0.49610338 4278190080
1.0534407 -2.3451061 -0.49228719 4278190080
1.0432526 -2.344285 -0.49133319 4278190080
0.39849776 -0.93880188 -0.190809 4278190080
0.39331639 -0.93566257 -0.18985495 4278190080
0.36741376 -0.88265491 -0.17840642 4278190080
0.96580768 -2.3666399 -0.48942509 4278190080
0.94379407 -2.3596532 -0.48656294 4278190080
0.92832416 -2.3446794 -0.48274675 4278190080
0.91476154 -2.3341963 -0.47988459 4278190080
0.9052403 -2.3326414 -0.47893056 4278190080
0.89533269 -2.3312051 -0.4779765 4278190080
0.88718969 -2.3343163 -0.4779765 4278190080
0.87730843 -2.3328049 -0.4770225 4278190080
0.86916023 -2.3358531 -0.4770225 4278190080
0.85760993 -2.3296609 -0.47511441 4278190080
0.84947282 -2.3326402 -0.47511441 4278190080
0.82328379 -2.3107731 -0.46939012 4278190080
0.73136848 -2.3877265 -0.4779765 4278190080
0.16170779 -0.53459018 -0.10112876 4278190080
0.16826865 -0.5633685 -0.10685304 4278190080
0.15884441 -0.54567927 -0.10303685 4278190080
0.15693861 -0.54623044 -0.10303685 4278190080
0.16975847 -0.59871691 -0.11353134 4278190080
0.18365043 -0.65599346 -0.12497988 4278190080
0.1931197 -0.69920957 -0.13356629 4278190080
0.20228928 -0.74249923 -0.1421527 4278190080
0.18313912 -0.68158072 -0.12975012 4278190080
0.17573047 -0.66323811 -0.12593393 4278190080
0.16597126 -0.63535482 -0.12020966 4278190080
0.15640895 -0.60741174 -0.11448539 4278190080
0.14704375 -0.57941008 -0.10876112 4278190080
0.15227084 -0.60846233 -0.11448539 4278190080
0.57781446 -2.3436086 -0.46175775 4278190080
0.56847209 -2.3408418 -0.46080372 4278190080
0.55344766 -2.3141708 -0.45507947 4278190080
0.54761636 -2.3256435 -0.45698753 4278190080
0.53838688 -2.3227594 -0.45603347 4278190080
0.53136706 -2.3294098 -0.45698753 4278190080
0.52215791 -2.3264616 -0.45603347 4278190080
0.51403368 -2.32827 -0.45603347 4278190080
0.50590348 -2.33005 -0.45603347 4278190080
0.49674249 -2.3270018 -0.45507947 4278190080
0.48760861 -2.3239181 -0.45412537 4278190080
0.47949377 -2.3256059 -0.45412537 4278190080
0.47039849 -2.3224552 -0.45317137 4278190080
0.46228886 -2.3240831 -0.45317137 4278190080
0.45323285 -2.3208654 -0.45221731 4278190080
0.44553402 -2.3223555 -0.45221731 4278190080
0.4374249 -2.3238966 -0.45221731 4278190080
0.42841908 -2.3205829 -0.45126328 4278190080
0.419442 -2.3172345 -0.45030922 4278190080
0.4096359 -2.3090191 -0.44840112 4278190080
0.3998926 -2.3007636 -0.44649303 4278190080
0.38691759 -2.2731142 -0.44076878 4278190080
0.38543397 -2.3131821 -0.44840112 4278190080
0.37972662 -2.329046 -0.45126328 4278190080
0.37468573 -2.349745 -0.45507947 4278190080
0.36648145 -2.3510387 -0.45507947 4278190080
0.35827267 -2.3523035 -0.45507947 4278190080
0.34974715 -2.348624 -0.45412537 4278190080
0.3415466 -2.3498304 -0.45412537 4278190080
0.33265319 -2.346149 -0.45317137 4278190080
0.32378966 -2.3424339 -0.45221731 4278190080
0.3149558 -2.3386858 -0.45126328 4278190080
0.30551431 -2.3300378 -0.44935519 4278190080
0.2973789 -2.3310902 -0.44935519 4278190080
0.28621966 -2.3077598 -0.44458494 4278190080
0.27915314 -2.3135691 -0.445539 4278190080
0.062057767 -0.69809544 -0.12879607 4278190080
0.061708175 -0.72275954 -0.13356629 4278190080
0.056381729 -0.68872809 -0.12688798 4278190080
0.050255153 -0.63998061 -0.11734753 4278190080
0.045083717 -0.60099703 -0.10971517 4278190080
0.042635459 -0.59625512 -0.10876112 4278190080
0.13527456 -2.3460853 -0.44935519 4278190080
0.12708418 -2.3465433 -0.44935519 4278190080
0.1190531 -2.3420498 -0.44840112 4278190080
