# .PCD v0.7 - Point Cloud Data file format
VERSION 0.7
FIELDS x y z rgb
SIZE 4 4 4 4
TYPE F F F U
COUNT 1 1 1 1
WIDTH 1148
HEIGHT 1
VIEWPOINT 0 0 0 1 0 0 0
POINTS 1148
DATA ascii
2.6286664 2.2050519 1.2849519 4294967295
2.6379285 2.1808107 1.286696 4294967295
2.6283333 0.51910388 1.2946525 4294967295
2.6329286 -0.92267489 1.286978 4294967295
2.6211252 -0.93146622 1.2828922 4294967295
2.6284213 2.2315795 1.2505879 4294967295
2.6321054 2.2096279 1.2635074 4294967295
2.6373332 -0.92626816 1.2595658 4294967295
2.6224446 -0.93083537 1.2557303 4294967295
2.6323752 2.2534285 1.2189915 4294967295
2.6240003 2.2458136 1.2304735 4294967295
2.6303637 -0.92482799 1.2227633 4294967295
2.6205001 -0.93048126 1.2355886 4294967295
2.6252003 2.25155 1.2027695 4294967295
2.6284704 2.235543 1.1947365 4294967295
2.6327276 2.2073631 1.1889647 4294967295
2.6265712 -0.92392635 1.1954644 4294967295
2.6280003 2.1928496 1.168895 4294967295
2.6192503 2.1875052 1.1608119 4294967295
2.6389999 -0.92787462 1.1794198 4294967295
2.6233335 -0.93114734 1.1646745 4294967295
2.6292777 2.196202 1.1312408 4294967295
2.6163335 2.1881089 1.1434004 4294967295
2.632 -0.92744195 1.1298457 4294967295
2.6202855 -0.93083853 1.1400007 4294967295
2.6221817 2.2272682 1.100816 4294967295
2.6314349 2.210536 1.1092911 4294967295
2.631 -0.92428571 1.1034071 4294967295
2.6290913 2.2336864 1.0741551 4294967295
2.6390002 2.2193115 1.0845144 4294967295
2.6316669 0.50755298 1.0686929 4294967295
2.630579 -0.92040068 1.0742004 4294967295
2.6283753 2.2564766 1.0387869 4294967295
2.6345792 2.2425928 1.0492916 4294967295
2.6129999 0.51204193 1.0456083 4294967295
2.6276999 -0.91534048 1.0455086 4294967295
2.6278145 2.2611423 1.0144842 4294967295
2.638 2.2398894 1.0139147 4294967295
2.6245387 -0.91574907 1.0165328 4294967295
2.6261427 2.2633054 0.98557496 4294967295
2.6381664 2.2407119 0.98469847 4294967295
2.6250002 -0.91198391 0.98710382 4294967295
2.6244583 2.2588203 0.95734155 4294967295
2.6364286 2.2411733 0.9524523 4294967295
2.627625 -0.91548437 0.95481819 4294967295
2.6275516 2.2331989 0.92744881 4294967295
2.6389999 2.2149382 0.91525906 4294967295
2.6222 0.51262254 0.92457479 4294967295
2.6335001 0.5068875 0.91836333 4294967295
2.6284165 -0.92261469 0.92724431 4294967295
2.6240947 2.2250237 0.89737386 4294967295
2.6357691 2.2128227 0.89401329 4294967295
2.6129999 0.51204193 0.90313709 4294967295
2.62725 0.50568306 0.89607668 4294967295
2.6270001 -0.91328025 0.89604497 4294967295
2.62568 2.2266068 0.86442184 4294967295
2.6381667 2.2175903 0.86907786 4294967295
2.6285999 0.50532866 0.86699247 4294967295
2.6312222 -0.90410525 0.86477304 4294967295
2.6282663 2.2316043 0.83524537 4294967295
2.6389999 2.2193115 0.83653569 4294967295
2.6230001 0.51400155 0.84069079 4294967295
2.6281495 -0.91001099 0.8327949 4294967295
2.6255558 2.224905 0.8139416 4294967295
2.6294668 2.2137141 0.80245554 4294967295
2.6303332 0.51136053 0.80496967 4294967295
2.628 0.50888395 0.79253447 4294967295
2.6343331 -0.91943389 0.80710435 4294967295
2.6229999 -0.9317106 0.80282867 4294967295
2.6279497 2.2069471 0.77424157 4294967295
2.6364999 0.51052988 0.77200305 4294967295
2.628 0.50888395 0.78338838 4294967295
2.6284666 -0.92171454 0.77672601 4294967295
2.6249168 2.2226753 0.73740244 4294967295
2.6318824 2.2133036 0.74766374 4294967295
2.6307499 0.52009326 0.74552006 4294967295
2.6259999 -0.92634094 0.75577044 4294967295
2.625 -0.93106353 0.74553227 4294967295
2.6340001 2.2212181 0.72287643 4294967295
2.6299999 2.215307 0.71377325 4294967295
2.62975 -0.94292676 0.71184468 4294967295
2.6340001 2.2212181 0.67093009 4294967295
2.6288462 2.2149792 0.68330467 4294967295
2.6305716 -0.95106512 0.6803146 4294967295
2.6284816 2.2305415 0.65140623 4294967295
2.6303332 2.2180858 0.66459703 4294967295
2.6163332 0.53697646 0.65170288 4294967295
2.6296921 -0.95509368 0.65284508 4294967295
2.6251252 2.2525468 0.61941028 4294967295
2.6326084 2.240994 0.62861228 4294967295
2.6129999 0.53629237 0.63941377 4294967295
2.6294546 -0.95445454 0.62739193 4294967295
2.6240001 -0.96621788 0.61759257 4294967295
2.6276999 2.2555146 0.59741056 4294967295
2.6385455 2.2456419 0.59661692 4294967295
2.6389999 0.53550565 0.58549559 4294967295
2.6331174 -0.97970068 0.60114682 4294967295
2.6253331 -1.0034014 0.59327179 4294967295
2.6155 -1.0227749 0.58794945 4294967295
2.6230001 2.2514939 0.57901269 4294967295
2.6305938 2.238719 0.56659937 4294967295
2.6277144 0.52101481 0.57390004 4294967295
2.6261427 0.49372399 0.56516337 4294967295
2.6283333 0.4662655 0.55779523 4294967295
2.6359999 0.43703446 0.55484128 4294967295
2.635 0.40631202 0.55482805 4294967295
2.6349998 0.37574148 0.55482805 4294967295
2.6315999 0.34472826 0.55478311 4294967295
2.6282001 0.31380096 0.55473816 4294967295
2.6242001 0.28285769 0.55590987 4294967295
2.6338 0.25458735 0.55971056 4294967295
2.6210001 0.22778784 0.55464303 4294967295
2.6265001 0.19474362 0.55573618 4294967295
2.6262219 0.16595905 0.55743337 4294967295
2.6279998 0.13694319 0.55779701 4294967295
2.6270001 0.10641102 0.55778378 4294967295
2.6256669 0.077927954 0.55572516 4294967295
2.63375 0.048626233 0.55481154 4294967295
2.6389999 -0.47477779 0.55488092 4294967295
2.6318333 -0.49484524 0.55478621 4294967295
2.628 -0.52462679 0.55473554 4294967295
2.6364999 -0.55079794 0.5548479 4294967295
2.6389999 -0.92481315 0.55488092 4294967295
2.6295557 -0.94555509 0.559506 4294967295
2.6284547 -0.97570878 0.57304138 4294967295
2.6205001 -0.99735564 0.57895643 4294967295
2.6267822 2.2262411 0.53723484 4294967295
2.6389999 2.2193115 0.53651214 4294967295
2.6129999 0.42110288 0.54847467 4294967295
2.618 0.036190741 0.54852915 4294967295
2.6293333 0.012969787 0.54764223 4294967295
2.627125 -0.01320206 0.54482931 4294967295
2.6256666 -0.047296174 0.53982365 4294967295
2.6279998 -0.076460287 0.53950363 4294967295
2.6275001 -0.10490612 0.54152602 4294967295
2.6284444 -0.13610007 0.54526585 4294967295
2.6301112 -0.16398132 0.5452801 4294967295
2.6308572 -0.19165438 0.54693544 4294967295
2.6292 -0.22290124 0.54865122 4294967295
2.6304002 -0.25352898 0.54866427 4294967295
2.62975 -0.28396752 0.54561573 4294967295
2.6304002 -0.31456152 0.54256129 4294967295
2.6273749 -0.34695047 0.54026043 4294967295
2.6297145 -0.37286592 0.53820342 4294967295
2.6292 -0.40591258 0.5364508 4294967295
2.6283751 -0.433979 0.54026324 4294967295
2.6261427 -0.46200305 0.54775178 4294967295
2.6205001 -0.55961245 0.54855639 4294967295
2.6316001 -0.58335853 0.54867738 4294967295
2.6340001 -0.61443883 0.54870349 4294967295
2.6277142 -0.64258093 0.54516071 4294967295
2.6278572 -0.67483538 0.53993791 4294967295
2.6262856 -0.70492446 0.53905672 4294967295
2.6316001 -0.73598593 0.5425716 4294967295
2.628 -0.7654745 0.54254073 4294967295
2.6289999 -0.79713404 0.54429871 4294967295
2.6294999 -0.82385516 0.54561508 4294967295
2.6270001 -0.85354447 0.54559129 4294967295
2.6239092 -0.88437188 0.54583782 4294967295
2.6240001 -0.91649634 0.54859453 4294967295
2.6259522 2.2242751 0.5053823 4294967295
2.6389999 2.2193115 0.51202041 4294967295
2.6303213 2.2372684 0.47499287 4294967295
2.6261578 2.2537141 0.44439295 4294967295
2.6383748 2.2463319 0.44621387 4294967295
2.6245 2.2527676 0.42681423 4294967295
2.6284611 2.2406745 0.41260406 4294967295
2.628 0.8747285 0.40230033 4294967295
2.628 0.85704607 0.40656853 4294967295
2.628 0.83204663 0.40839773 4294967295
2.6279676 2.2320285 0.38440165 4294967295
2.6389999 2.2193115 0.38343889 4294967295
2.6263332 0.87417376 0.38816315 4294967295
2.6293473 0.85766178 0.3826108 4294967295
2.6280737 2.2297409 0.35419494 4294967295
2.6389999 2.2193115 0.35282421 4294967295
2.6242306 0.85260087 0.35492885 4294967295
2.6272593 2.2313118 0.32286328 4294967295
2.6389999 2.2193115 0.32527107 4294967295
2.6227 0.84434777 0.32952237 4294967295
2.6213334 0.83803868 0.31340227 4294967295
2.6262352 2.2569444 0.29090482 4294967295
2.6356363 2.2409275 0.30300301 4294967295
2.6301363 2.2617607 0.26435664 4294967295
2.6268001 2.254745 0.24390361 4294967295
2.6301816 2.2379448 0.23245609 4294967295
2.6304002 2.2230554 0.21666178 4294967295
2.6279998 2.2166049 0.203439 4294967295
2.6340001 2.2212181 0.17285675 4294967295
2.6296248 2.2182753 0.17878294 4294967295
2.6330001 2.2226613 0.14778885 4294967295
2.6283333 2.2184558 0.13599402 4294967295
2.6213334 2.2257295 0.10661048 4294967295
2.6294777 2.2120764 0.11416158 4294967295
2.6255307 2.2330885 0.08411479 4294967295
2.6344995 2.2077379 0.08498928 4294967295
2.6217501 2.2539675 0.053314865 4294967295
2.6316249 2.2358027 0.054676354 4294967295
2.6381302 2.2073991 0.052154958 4294967295
2.6210999 2.2516804 0.025551707 4294967295
2.6332145 2.2384293 0.025675178 4294967295
2.6389999 2.2070656 0.025247544 4294967295
2.6389999 2.1783347 0.022657007 4294967295
2.6289167 2.252502 -0.0089486837 4294967295
2.6341331 2.2428906 0.0023239255 4294967295
2.6389999 2.1978815 0.0099401474 4294967295
2.6389999 2.1886969 0.0099401474 4294967295
2.6290555 2.2593851 -0.035578549 4294967295
2.6389999 2.2499263 -0.02373594 4294967295
2.6294498 2.2622025 -0.065683544 4294967295
2.6306 2.2537444 -0.083646894 4294967295
2.6298635 2.2426639 -0.098671675 4294967295
2.6307271 2.2361765 -0.12440258 4294967295
2.6389999 2.2193115 -0.12476432 4294967295
2.6311247 2.2397475 -0.15526211 4294967295
2.6272058 2.2323117 -0.184618 4294967295
2.6377499 2.2159643 -0.18795103 4294967295
2.6243119 2.2307105 -0.21592671 4294967295
2.6370771 2.2125132 -0.21465856 4294967295
2.6158574 2.2510014 -0.25089777 4294967295
2.6296175 2.2356217 -0.24503762 4294967295
2.6389999 2.2162499 -0.24722296 4294967295
2.6165714 2.2507491 -0.2771278 4294967295
2.6309116 2.2374458 -0.27503175 4294967295
2.6389999 2.2162502 -0.2747761 4294967295
2.628135 2.2358468 -0.30404747 4294967295
2.6389999 2.2193115 -0.29314488 4294967295
2.6279998 2.2300992 -0.33141643 4294967295
2.6389999 2.2193115 -0.33906686 4294967295
2.6553333 0.72774374 1.9987797 4294967295
2.655 -0.88421983 1.9965448 4294967295
2.6551664 0.72975981 1.9750654 4294967295
2.652 -0.88322073 1.9764102 4294967295
2.6552222 0.73456109 1.9480541 4294967295
2.6540999 -0.88945442 1.9467754 4294967295
2.6553636 0.73932731 1.915521 4294967295
2.655 -0.89653993 1.9287843 4294967295
2.6557779 -0.90501082 1.9175525 4294967295
2.6517501 0.73804408 1.8839927 4294967295
2.661 -0.89856601 1.8702282 4294967295
2.6534617 -0.90784585 1.8853344 4294967295
2.6534169 0.73953283 1.8545668 4294967295
2.6595457 -0.89245725 1.8515372 4294967295
2.6493001 -0.90383345 1.8519987 4294967295
2.6527777 0.79064792 1.81681 4294967295
2.6544006 0.7637226 1.8185208 4294967295
2.658 0.74595296 1.8286108 4294967295
2.6613333 -0.89593065 1.8271668 4294967295
2.6504998 -0.91099876 1.8230776 4294967295
2.6555452 0.79230446 1.7963289 4294967295
2.6605651 0.76585799 1.7953992 4294967295
2.6594443 -0.89392245 1.7940242 4294967295
2.6489165 -0.90831029 1.7985419 4294967295
2.6440003 2.2235165 1.7511806 4294967295
2.6523337 2.2029548 1.7573957 4294967295
2.655467 2.1748185 1.7667751 4294967295
2.6522667 2.1438973 1.7615792 4294967295
2.6482503 2.1211023 1.7531532 4294967295
2.6515002 2.0175757 1.751593 4294967295
2.6486003 1.9975615 1.7520906 4294967295
2.6440001 1.3830856 1.7511806 4294967295
2.6490908 1.3622727 1.7524265 4294967295
2.6517274 1.3362234 1.7525364 4294967295
2.6514671 1.3029099 1.7542409 4294967295
2.652 1.2743428 1.7581542 4294967295
2.6490002 1.2527934 1.7550379 4294967295
2.6507275 0.79310346 1.763532 4294967295
2.6610668 0.77088523 1.7706531 4294967295
2.6555264 -0.89053833 1.765617 4294967295
2.6464002 2.2230752 1.7387882 4294967295
2.654808 2.2105482 1.7360721 4294967295
2.6647503 2.1389539 1.7384303 4294967295
2.6529415 2.1144507 1.7346942 4294967295
2.6491253 2.0829916 1.7282047 4294967295
2.6547148 2.0565293 1.7350404 4294967295
2.6540003 2.0293779 1.7462511 4294967295
2.6574669 1.9919086 1.7397611 4294967295
2.6476254 1.9670277 1.7290605 4294967295
2.6440003 1.6836777 1.720508 4294967295
2.6440003 1.6683414 1.720508 4294967295
2.6440003 1.5916597 1.7235752 4294967295
2.6494451 1.572732 1.7298045 4294967295
2.6546404 1.5438517 1.7314811 4294967295
2.6547279 1.5152353 1.7326345 4294967295
2.6562505 1.4869372 1.7380009 4294967295
2.6530001 1.455492 1.7396556 4294967295
2.6535265 1.4240316 1.7335671 4294967295
2.6545386 1.3940324 1.7385433 4294967295
2.6612501 1.3673921 1.7468592 4294967295
2.6650002 1.3322359 1.7485927 4294967295
2.6629999 1.30158 1.7464336 4294967295
2.6637778 1.2753174 1.7439067 4294967295
2.6552005 1.2454098 1.7348177 4294967295
2.6464 1.2222419 1.7265053 4294967295
2.6470001 1.1420625 1.7218702 4294967295
2.6493332 1.1230826 1.7259959 4294967295
2.6507502 1.097559 1.7274013 4294967295
2.6528127 1.0653229 1.7294962 4294967295
2.6541502 1.0346051 1.7349533 4294967295
2.6539197 1.0040327 1.7373062 4294967295
2.6563158 0.97626686 1.7384087 4294967295
2.6591115 0.94368684 1.7414055 4294967295
2.6545792 0.9153319 1.7411766 4294967295
2.6533887 0.88488477 1.7394607 4294967295
2.6525602 0.85533184 1.7354504 4294967295
2.6458001 0.82663316 1.7268478 4294967295
2.6531429 0.79748237 1.7366736 4294967295
2.6551666 -0.89555871 1.744049 4294967295
2.6538751 -0.90307969 1.7303727 4294967295
2.6529169 2.2227929 1.7004436 4294967295
2.6544287 2.2164361 1.7146783 4294967295
2.6660001 2.1306772 1.7181258 4294967295
2.6626365 2.1122651 1.7132366 4294967295
2.6597371 2.0860395 1.7133529 4294967295
2.6594448 1.9608915 1.714484 4294967295
2.6558239 1.9351413 1.7088244 4294967295
2.6548953 1.9052254 1.6994994 4294967295
2.6539233 1.8785014 1.6956296 4294967295
2.6500003 1.856581 1.69249 4294967295
2.6547272 1.7515348 1.6979303 4294967295
2.6552145 1.7264553 1.707108 4294967295
2.6559999 1.6943926 1.7128506 4294967295
2.6557274 1.6636964 1.7064915 4294967295
2.6511505 1.6371756 1.7022099 4294967295
2.6482735 1.6051188 1.701214 4294967295
2.6551003 1.5767683 1.706646 4294967295
2.6627502 1.5511969 1.7158903 4294967295
2.6620002 1.2350042 1.7163217 4294967295
2.6572273 1.2137346 1.7060382 4294967295
2.6504004 1.1849778 1.7039672 4294967295
2.6536002 1.1553708 1.7041194 4294967295
2.6595333 1.129164 1.713154 4294967295
2.6605 1.0861624 1.718734 4294967295
2.6605 0.84233636 1.718734 4294967295
2.6567273 0.82320744 1.7145096 4294967295
2.6582856 0.80462396 1.7164137 4294967295
2.6545556 -0.90869802 1.7054592 4294967295
2.6552355 2.2253439 1.6759629 4294967295
2.6625004 2.2050877 1.6630135 4294967295
2.6660001 1.8646976 1.6871979 4294967295
2.6557274 1.8440598 1.6826855 4294967295
2.6564002 1.8148197 1.6743559 4294967295
2.6540003 1.7844566 1.678519 4294967295
2.6515002 1.7653421 1.6869951 4294967295
2.6620002 1.6287453 1.6854404 4294967295
2.6602311 1.6057011 1.6851385 4294967295
2.6606667 1.5872847 1.6869164 4294967295
2.6659999 1.202841 1.6871979 4294967295
2.6617777 1.1844636 1.6867156 4294967295
2.6659999 1.1626347 1.6871979 4294967295
2.6549335 -0.91416705 1.6741341 4294967295
2.6470003 2.2250123 1.651244 4294967295
2.6502924 2.2059977 1.6426611 4294967295
2.6592503 2.183887 1.6441431 4294967295
2.6659999 0.94717056 1.6480227 4294967295
2.6541252 -0.91239423 1.6438928 4294967295
2.6458001 2.2010834 1.6218777 4294967295
2.6530004 2.1801507 1.6135216 4294967295
2.655 0.58803284 1.6084614 4294967295
2.6659999 0.54098451 1.6005999 4294967295
2.6533334 0.5363524 1.6057287 4294967295
2.6550715 -0.9084298 1.6155249 4294967295
2.6470003 2.1922576 1.5744743 4294967295
2.6531432 2.1810639 1.5851223 4294967295
2.6553333 0.54498088 1.5839463 4294967295
2.6552501 -0.90482599 1.5849369 4294967295
2.6533756 2.1985457 1.5539191 4294967295
2.6562002 2.1869302 1.5658112 4294967295
2.658 0.53626841 1.5634295 4294967295
2.6594999 -0.89805949 1.5516918 4294967295
2.6502001 -0.90351814 1.5566951 4294967295
2.6509135 2.2004225 1.5281658 4294967295
2.6600001 2.182786 1.5199931 4294967295
2.6561816 -0.89300597 1.5226712 4294967295
2.648 -0.90236485 1.5308388 4294967295
2.6470003 2.1922576 1.4946349 4294967295
2.6554487 2.1751254 1.4962567 4294967295
2.652143 -0.89073473 1.4951971 4294967295
2.6500001 -0.90100002 1.4834427 4294967295
2.65925 2.2239921 1.4544096 4294967295
2.6563339 2.2038808 1.4684813 4294967295
2.6565003 2.1816349 1.4765588 4294967295
2.6557779 -0.9104898 1.4697943 4294967295
2.6635001 2.2522748 1.4234602 4294967295
2.6541669 2.2376971 1.4367192 4294967295
2.6551666 -0.91199517 1.4360414 4294967295
2.6538751 2.2522042 1.4040337 4294967295
2.6586668 2.2460918 1.4022274 4294967295
2.655 0.52643228 1.3990197 4294967295
2.6537147 -0.89522016 1.4003561 4294967295
2.6496668 -0.90293151 1.4136474 4294967295
2.6500003 2.2531562 1.3850675 4294967295
2.6539202 2.2343032 1.3745294 4294967295
2.6618001 2.2150121 1.366688 4294967295
2.655 0.63731325 1.3712995 4294967295
2.6539998 0.52130318 1.3752842 4294967295
2.6536999 -0.89301819 1.3739569 4294967295
2.6464002 2.2267575 1.3501203 4294967295
2.6533484 2.2059326 1.3457516 4294967295
2.6591432 2.1833642 1.3386983 4294967295
2.6574001 0.5207426 1.3443084 4294967295
2.6567142 -0.89711148 1.3467486 4294967295
2.6500001 -0.90100002 1.338954 4294967295
2.6470003 2.1983957 1.3288146 4294967295
2.6522946 2.1747258 1.3166628 4294967295
2.6575713 0.51812685 1.3126668 4294967295
2.661 -0.89856601 1.3269185 4294967295
2.6526923 -0.90474808 1.3135048 4294967295
2.6526003 2.1773961 1.2845693 4294967295
2.6530771 -0.91339982 1.2852097 4294967295
2.6503334 2.2308822 1.2457919 4294967295
2.6542919 2.2041843 1.2543085 4294967295
2.6550002 2.1875932 1.2676052 4294967295
2.6536667 -0.92121601 1.2543974 4294967295
2.6492002 2.2536993 1.2256136 4294967295
2.6556213 2.2360389 1.2260704 4294967295
2.6615715 2.2131453 1.2251976 4294967295
2.6543 -0.91908115 1.2263464 4294967295
2.6460004 2.2251937 1.2057257 4294967295
2.6540558 2.2039084 1.1968656 4294967295
2.6559999 -0.92152148 1.1959898 4294967295
2.6547146 2.1951165 1.165747 4294967295
2.6538749 -0.92924768 1.1661944 4294967295
2.6500001 -0.93174231 1.1637231 4294967295
2.6539378 2.1953018 1.1350365 4294967295
2.6537275 -0.922966 1.1338358 4294967295
2.6547601 2.2019925 1.1035253 4294967295
2.6546998 -0.91490656 1.1044967 4294967295
2.6470003 2.222965 1.0708719 4294967295
2.6555154 2.2070386 1.0750649 4294967295
2.6608 0.50411797 1.0725064 4294967295
2.6552501 -0.90944844 1.074121 4294967295
2.6490443 2.2298834 1.0437727 4294967295
2.6585 2.2097924 1.0461171 4294967295
2.6500001 0.50699556 1.053051 4294967295
2.6578333 -0.90879899 1.0443506 4294967295
2.6529546 2.2268317 1.0158654 4294967295
2.661 2.219291 1.0243938 4294967295
2.6515 -0.91278291 1.0174612 4294967295
2.6523812 2.2296679 0.9840796 4294967295
2.652 -0.91398615 0.98577619 4294967295
2.65324 2.2302825 0.95619273 4294967295
2.6620002 2.2139423 0.94583786 4294967295
2.6659999 0.50387108 0.944929 4294967295
2.6535714 -0.91628253 0.9526245 4294967295
2.6470001 2.222965 0.93268842 4294967295
2.6531541 2.2044437 0.92537212 4294967295
2.6600001 2.1883621 0.91851288 4294967295
2.656857 0.50037742 0.92410564 4294967295
2.6570001 -0.91878486 0.92500162 4294967295
2.6533749 2.2036815 0.89262825 4294967295
2.6583998 2.1875098 0.90424323 4294967295
2.6551666 0.49976599 0.89391685 4294967295
2.6546669 -0.90736711 0.89110804 4294967295
2.6524999 2.2214305 0.85661775 4294967295
2.6552725 2.2167397 0.86816132 4294967295
2.6551669 0.50387073 0.86209381 4294967295
2.6590002 -0.89789063 0.85744727 4294967295
2.6560001 -0.90127271 0.86588019 4294967295
2.6525002 2.2214305 0.83507788 4294967295
2.660125 2.2154727 0.83290082 4294967295
2.6564999 0.50823915 0.8355478 4294967295
2.65925 -0.8964287 0.84050751 4294967295
2.6532001 -0.90085095 0.83330536 4294967295
2.6538751 2.2137187 0.80637205 4294967295
2.6590002 0.50871742 0.80192327 4294967295
2.6529999 -0.90878665 0.8074286 4294967295
2.6547999 2.2075369 0.77519244 4294967295
2.658 0.51160032 0.77099609 4294967295
2.655 0.50795215 0.78609443 4294967295
2.6524999 -0.91723466 0.77660584 4294967295
2.6551664 2.2064466 0.7452985 4294967295
2.6570001 0.52065098 0.74829549 4294967295
2.655 -0.92734021 0.75837415 4294967295
2.655 -0.93502754 0.7429868 4294967295
2.655 2.2204471 0.71525377 4294967295
2.6570001 2.2138813 0.71711433 4294967295
2.6500001 0.53158939 0.72718298 4294967295
2.6659999 -0.94973898 0.7036916 4294967295
2.6558571 2.2211587 0.68186629 4294967295
2.6537144 2.218473 0.68525589 4294967295
2.655143 -0.95026433 0.68445343 4294967295
2.6501667 2.222034 0.65290296 4294967295
2.660111 2.217171 0.65048701 4294967295
2.6595001 0.53966558 0.65079975 4294967295
2.6555457 -0.94880205 0.65087712 4294967295
2.6489003 2.227627 0.61954027 4294967295
2.6574998 2.2157483 0.62664241 4294967295
2.6452003 0.53676385 0.6224789 4294967295
2.6543159 -0.94426441 0.62217182 4294967295
2.6440001 -0.96030533 0.61015779 4294967295
2.6534076 2.2307134 0.59542769 4294967295
2.6554 0.5351246 0.59328073 4294967295
2.6588333 -0.95334828 0.60140806 4294967295
2.6534004 -0.96945363 0.59282398 4294967295
2.6506476 2.2251136 0.57023662 4294967295
2.6573999 2.2105217 0.56211776 4294967295
2.658 0.51776099 0.57980013 4294967295
2.6543334 0.49343687 0.57253438 4294967295
2.6551666 0.46486527 0.56434166 4294967295
2.6573999 0.43441552 0.56128973 4294967295
2.6561999 0.40340796 0.56127113 4294967295
2.6561999 0.37260488 0.56127113 4294967295
2.6512501 0.34421951 0.56119418 4294967295
2.6510003 0.31651762 0.56119031 4294967295
2.652 0.28585482 0.56244296 4294967295
2.6616001 0.25480813 0.56630349 4294967295
2.6464 0.2238539 0.56111884 4294967295
2.6543334 0.19269982 0.56330395 4294967295
2.6598001 0.16328385 0.56749821 4294967295
2.6629999 0.13258491 0.56755537 4294967295
2.6659999 0.10490151 0.56760895 4294967295
2.6565001 0.075252958 0.56436855 4294967295
2.6551664 0.043891534 0.56023264 4294967295
2.6529999 0.01512955 0.55506599 4294967295
2.6596 -0.015692454 0.55515319 4294967295
2.6659999 -0.034273915 0.55523777 4294967295
2.6659999 -0.1115936 0.55523777 4294967295
2.6561999 -0.13274775 0.55510825 4294967295
2.6630001 -0.16399321 0.55519813 4294967295
2.6605999 -0.19468838 0.55516642 4294967295
2.6510003 -0.22475038 0.55503953 4294967295
2.6539998 -0.25580266 0.55507922 4294967295
2.6606667 -0.28114188 0.55516732 4294967295
2.6623333 -0.44190472 0.55518931 4294967295
2.6552856 -0.4662703 0.55774385 4294967295
2.6539998 -0.49594498 0.56123692 4294967295
2.6500001 -0.52594441 0.56117475 4294967295
2.6552501 -0.55624372 0.5597192 4294967295
2.6525002 -0.58491176 0.55505937 4294967295
2.655 -0.61317748 0.55509239 4294967295
2.6584001 -0.64481539 0.55513734 4294967295
2.6605999 -0.7934739 0.55516642 4294967295
2.655 -0.8226192 0.55509239 4294967295
2.655 -0.85341954 0.55509239 4294967295
2.652 -0.88321376 0.55505276 4294967295
2.6552501 -0.91510588 0.55818385 4294967295
2.6579001 -0.94870162 0.56932253 4294967295
2.6506665 -0.96578968 0.57758796 4294967295
2.6508334 2.222086 0.53453285 4294967295
2.6562381 2.2100234 0.53867114 4294967295
2.6440001 -0.024789291 0.54881251 4294967295
2.6529999 -0.046424571 0.54891056 4294967295
2.655 -0.077252872 0.54893237 4294967295
2.6488001 -0.10779525 0.54886478 4294967295
2.6440001 -0.17508531 0.54881251 4294967295
2.6440001 -0.29777592 0.54881251 4294967295
2.6476002 -0.31661838 0.54885173 4294967295
2.6525002 -0.34489593 0.54890513 4294967295
2.6535716 -0.37536982 0.54716408 4294967295
2.6575 -0.40411353 0.54588538 4294967295
2.6515 -0.43190321 0.54787177 4294967295
2.6440001 -0.65357876 0.54881251 4294967295
2.6542001 -0.67458719 0.54892361 4294967295
2.655 -0.70044911 0.54586512 4294967295
2.6596665 -0.73456919 0.54898322 4294967295
2.6500001 -0.76573408 0.54887789 4294967295
2.6440001 -0.78853846 0.54881251 4294967295
2.6510835 2.2217782 0.50429928 4294967295
2.6618891 2.2172832 0.50645781 4294967295
2.6508424 2.2260242 0.47346184 4294967295
2.6616361 2.2158866 0.47489548 4294967295
2.6542857 2.2385192 0.44555458 4294967295
2.6526194 2.2319224 0.41439176 4294967295
2.6595998 2.2125587 0.40520895 4294967295
2.6531565 2.208106 0.38309222 4294967295
2.655 0.84059501 0.37029082 4294967295
2.6534641 2.2083602 0.35587335 4294967295
2.6513331 0.84147894 0.35614115 4294967295
2.6544828 2.210218 0.32678542 4294967295
2.655 0.84059501 0.33641052 4294967295
2.6470001 2.2536728 0.28476101 4294967295
2.6504004 2.231348 0.29404742 4294967295
2.658154 2.2131131 0.29847574 4294967295
2.6474998 2.2556338 0.26680103 4294967295
2.6534998 2.2345772 0.26571369 4294967295
2.6612999 2.2164507 0.26495856 4294967295
2.6527405 2.2294769 0.23660398 4294967295
2.6626666 2.2186191 0.24424368 4294967295
2.656357 2.2220106 0.20292419 4294967295
2.661 2.219291 0.21560314 4294967295
2.6553333 2.2268779 0.1731284 4294967295
2.6546667 2.2290585 0.14379007 4294967295
2.6623333 2.2245183 0.12485647 4294967295
2.6530771 2.2079337 0.11044574 4294967295
2.6527224 2.1962917 0.084569693 4294967295
2.655 2.1896467 0.083848357 4294967295
2.6528749 2.1951861 0.05920586 4294967295
2.6561668 2.1808429 0.048738867 4294967295
2.6440001 2.1928439 0.039646387 4294967295
2.6485655 2.1706977 0.029198587 4294967295
2.655 2.1588464 0.025327832 4294967295
2.6470959 2.2322533 -0.0071289539 4294967295
2.6500006 2.2044935 -0.0066329837 4294967295
2.6536663 2.1789577 -0.00043064356 4294967295
2.6497774 2.2556942 -0.041329026 4294967295
2.6542222 2.2364337 -0.033835649 4294967295
2.6614735 2.2076495 -0.0330832 4294967295
2.6530869 2.257103 -0.065578938 4294967295
2.6645455 2.2402263 -0.05794394 4294967295
2.6659999 2.2172754 -0.050948501 4294967295
2.6553335 2.2515216 -0.083571196 4294967295
2.6544287 2.2335904 -0.094421744 4294967295
2.657526 2.2066486 -0.10071957 4294967295
2.6440001 2.2235165 -0.12598592 4294967295
2.6494379 2.2048249 -0.12596685 4294967295
2.6572499 2.1891868 -0.1230579 4294967295
2.6467693 2.225841 -0.15547669 4294967295
2.6550741 2.2047424 -0.15492451 4294967295
2.6519291 2.2073097 -0.18373555 4294967295
2.654737 2.2065952 -0.2145139 4294967295
2.6518095 2.2078011 -0.24508518 4294967295
2.6529233 2.2056663 -0.27494001 4294967295
2.6474288 2.2228863 -0.30934149 4294967295
2.6565518 2.2068405 -0.30375791 4294967295
2.6482854 2.2227287 -0.33331621 4294967295
2.6586666 2.2126269 -0.33429992 4294967295
2.658 2.213702 -0.35141891 4294967295
2.6725001 0.72832322 1.9985204 4294967295
2.677 -0.88533562 1.9901466 4294967295
2.6888332 0.73277438 1.974779 4294967295
2.6868 -0.88857669 1.9768062 4294967295
2.6833999 0.73751968 1.9438407 4294967295
2.6806667 -0.89483821 1.9486229 4294967295
2.688 -0.90144676 1.9400579 4294967295
2.6835001 0.7375471 1.915894 4294967295
2.6787498 -0.90688384 1.9141972 4294967295
2.677 0.73576069 1.8845578 4294967295
2.6854284 -0.89344788 1.8808397 4294967295
2.6806667 -0.90312821 1.8947169 4294967295
2.6847141 0.73965347 1.854665 4294967295
2.6853635 -0.88582325 1.8559467 4294967295
2.6847775 0.74619758 1.822058 4294967295
2.6792307 -0.89084661 1.8254361 4294967295
2.6829998 0.75296009 1.7910951 4294967295
2.6819999 0.74958026 1.8031001 4294967295
2.6833997 -0.8861919 1.7962911 4294967295
2.68325 2.1968443 1.7554265 4294967295
2.6781669 2.1781993 1.7587968 4294967295
2.6710002 2.159462 1.757556 4294967295
2.6896667 0.78292543 1.7537106 4294967295
2.6820002 0.7660442 1.7655613 4294967295
2.6844997 -0.8846904 1.7622367 4294967295
2.6880002 2.2230823 1.7238467 4294967295
2.6892505 2.2071567 1.735685 4294967295
2.6872501 2.1768918 1.734676 4294967295
2.6743333 2.1511292 1.7315218 4294967295
2.6710002 2.0727017 1.7203729 4294967295
2.6872907 2.0571506 1.7333026 4294967295
2.6898263 2.0254271 1.7331326 4294967295
2.6782858 2.0002339 1.7280756 4294967295
2.6740003 1.5321642 1.7217212 4294967295
2.6822498 1.5104244 1.7248875 4294967295
2.6825793 1.4861294 1.7301422 4294967295
2.6813636 1.4557831 1.730673 4294967295
2.6827271 1.4259653 1.7267584 4294967295
2.6848667 1.3940487 1.733243 4294967295
2.6840625 1.3658744 1.7449098 4294967295
2.6847692 1.333957 1.7452294 4294967295
2.6852 1.3049331 1.7412641 4294967295
2.6816671 1.2752234 1.7313569 4294967295
2.674 1.252985 1.7217212 4294967295
2.671 1.1121393 1.7203729 4294967295
2.6822 1.0931104 1.7216491 4294967295
2.6807272 1.0647211 1.7275652 4294967295
2.6860995 1.0355431 1.7315085 4294967295
2.6880002 1.0048711 1.7279959 4294967295
2.6849329 0.97382313 1.7303524 4294967295
2.6828094 0.9454276 1.7271348 4294967295
2.6823332 0.91597414 1.7295914 4294967295
2.6807141 0.88470793 1.7300525 4294967295
2.6861424 0.86112487 1.7235905 4294967295
2.6832497 0.79350674 1.7331218 4294967295
2.6822 -0.8957625 1.742821 4294967295
2.6871428 -0.9038192 1.7284927 4294967295
2.6858573 2.2288754 1.7043327 4294967295
2.6989999 2.2019298 1.7006018 4294967295
2.6908238 2.173295 1.7035613 4294967295
2.6810434 2.1437771 1.7018791 4294967295
2.6790528 2.1155787 1.6971453 4294967295
2.6791482 2.0836198 1.7003049 4294967295
2.6900942 2.0574555 1.7037839 4294967295
2.6990004 2.0280509 1.7070729 4294967295
2.6921539 1.9934933 1.7096769 4294967295
2.6829417 1.9666097 1.7019122 4294967295
2.6757274 1.9369676 1.6953981 4294967295
2.6801431 1.9047906 1.691608 4294967295
2.6935003 1.7745615 1.6929883 4294967295
2.6850717 1.7543136 1.699541 4294967295
2.6845 1.7250203 1.7072164 4294967295
2.6822858 1.6955895 1.7023053 4294967295
2.6766667 1.6754982 1.696004 4294967295
2.683929 1.5747658 1.7008139 4294967295
2.681143 1.5460184 1.713814 4294967295
2.6824 1.520172 1.7167778 4294967295
2.6851664 1.2447101 1.7069895 4294967295
2.6752501 1.2256321 1.6958957 4294967295
2.6767142 1.1455635 1.6945391 4294967295
2.6837695 1.1253401 1.7054986 4294967295
2.6872997 1.0983516 1.7152101 4294967295
2.6989999 0.96098214 1.6953834 4294967295
2.6989999 0.95096272 1.7003932 4294967295
2.6823332 0.84924436 1.7171638 4294967295
2.6832497 0.82461905 1.711857 4294967295
2.6764998 0.80393255 1.7135234 4294967295
2.6863635 -0.90711445 1.7051607 4294967295
2.6756003 2.2240121 1.6839509 4294967295
2.6833999 2.2034936 1.6786377 4294967295
2.6926506 2.1788111 1.6773213 4294967295
2.6990001 2.1476579 1.6891214 4294967295
2.6990004 1.9524877 1.687034 4294967295
2.6937227 1.9319938 1.6791776 4294967295
2.6951251 1.9112425 1.6811732 4294967295
2.6835833 1.8748976 1.6850146 4294967295
2.6800001 1.8471261 1.6771548 4294967295
2.6838572 1.8166808 1.6772203 4294967295
2.6822858 1.788065 1.6845428 4294967295
2.6710002 1.76904 1.6893871 4294967295
2.6990001 1.6811283 1.6891214 4294967295
2.6842728 1.661181 1.6866798 4294967295
2.6842501 1.6345476 1.6795999 4294967295
2.6844616 1.6049796 1.6804183 4294967295
2.6730003 1.5863758 1.6861266 4294967295
2.6935 1.2308655 1.6836078 4294967295
2.6860766 1.2152491 1.6844656 4294967295
2.683846 1.1864516 1.6825371 4294967295
2.6862779 1.1558688 1.6839377 4294967295
2.6989999 1.136322 1.6891214 4294967295
2.6989999 0.998555 1.6672039 4294967295
2.6934285 0.97061157 1.6724297 4294967295
2.687 0.94423246 1.6735456 4294967295
2.69625 0.9255932 1.6691629 4294967295
2.6802499 -0.90660483 1.6778849 4294967295
2.6812353 2.1786971 1.647018 4294967295
2.6990001 1.9253517 1.6546795 4294967295
2.6913002 1.9079864 1.6495676 4294967295
2.6871247 0.99650353 1.6465669 4294967295
2.6792276 0.97399652 1.6421126 4294967295
2.6804004 0.94470024 1.6452929 4294967295
2.6907496 0.92838258 1.6558793 4294967295
2.6821663 -0.90570283 1.6507058 4294967295
2.6990001 2.1946239 1.6077135 4294967295
2.6772225 2.1803586 1.6161859 4294967295
2.6764998 0.60831314 1.6079671 4294967295
2.6783333 0.53313303 1.6180189 4294967295
2.6824284 -0.90401649 1.6152443 4294967295
2.6933336 2.1983395 1.5783465 4294967295
2.6778004 2.1848381 1.5879866 4294967295
2.6823332 0.54221153 1.5864501 4294967295
2.6859999 -0.89765346 1.5806621 4294967295
2.6786668 -0.90245283 1.5953745 4294967295
2.6831541 2.1980047 1.5558252 4294967295
2.684818 -0.89469862 1.5549784 4294967295
2.6765001 2.1918471 1.5365466 4294967295
2.6838572 2.1822996 1.5251029 4294967295
2.6989999 0.80442864 1.5388299 4294967295
2.6822855 -0.88796175 1.5253954 4294967295
2.6990001 2.1946239 1.4824708 4294967295
2.6853333 2.1772692 1.4949028 4294967295
2.6823332 -0.89123976 1.496233 4294967295
2.6916666 -0.90683419 1.4840133 4294967295
2.6990001 2.250983 1.4511601 4294967295
2.6866667 2.2309859 1.4607524 4294967295
2.6851001 2.2038548 1.4700277 4294967295
2.6766672 2.1847448 1.4765724 4294967295
2.6831665 -0.91538179 1.4643521 4294967295
2.6831431 2.2573123 1.4305658 4294967295
2.6812003 2.2448454 1.4437695 4294967295
2.6819999 -0.89943457 1.4204042 4294967295
2.6812 -0.91035551 1.4363065 4294967295
2.6835556 2.2539835 1.4126227 4294967295
2.6854377 2.2369096 1.4013162 4294967295
2.6953332 2.2124794 1.399173 4294967295
2.6806667 0.52944261 1.4054385 4294967295
2.683857 -0.89292645 1.4032191 4294967295
2.6746004 2.2231829 1.3844106 4294967295
2.6836004 2.2057359 1.3751166 4294967295
2.6877501 0.52045387 1.3755809 4294967295
2.6847141 -0.89322126 1.3759105 4294967295
2.6860001 2.1933622 1.3490032 4294967295
2.6746001 2.1847103 1.3434508 4294967295
2.6851249 0.51760048 1.3443534 4294967295
2.6845 -0.89792472 1.346498 4294967295
2.6990001 2.1946239 1.3008687 4294967295
2.6841669 2.1835954 1.3173283 4294967295
2.6850002 0.51367545 1.3232799 4294967295
2.6819999 -0.89943457 1.3270638 4294967295
2.6822855 -0.9030773 1.3129195 4294967295
2.6877501 2.197932 1.2789059 4294967295
2.6766667 2.1847448 1.2881923 4294967295
2.6822999 -0.91259772 1.2835801 4294967295
2.6814616 2.2057166 1.2546299 4294967295
2.6803331 -0.91959792 1.256074 4294967295
2.6820002 2.209949 1.2243694 4294967295
2.6829998 -0.91844499 1.2246461 4294967295
2.6855001 2.2075105 1.1951756 4294967295
2.6795001 -0.92501312 1.1926517 4294967295
2.6989999 -0.93018425 1.1881502 4294967295
2.688 2.2074952 1.1635861 4294967295
2.6815002 -0.92724776 1.1589129 4294967295
2.6947498 -0.9302752 1.1698968 4294967295
2.6823752 2.2028787 1.1342376 4294967295
2.683125 -0.91769689 1.1344097 4294967295
2.6822667 2.1984255 1.1039295 4294967295
2.6806667 0.50664306 1.1027653 4294967295
2.6829998 -0.91220379 1.1063496 4294967295
2.6781337 2.1941984 1.076098 4294967295
2.6790004 2.1883039 1.0713135 4294967295
2.671 0.50481606 1.088261 4294967295
2.6822855 -0.90752637 1.0764265 4294967295
2.6880002 2.2230737 1.0357482 4294967295
2.6799288 2.2039816 1.0488505 4294967295
2.677 0.50595009 1.0584821 4294967295
2.6833999 -0.91110361 1.0460701 4294967295
2.6827693 2.2302568 1.0155784 4294967295
2.6849999 -0.91912961 1.0133427 4294967295
2.6851997 2.235723 0.98287559 4294967295
2.6916666 -0.92141175 0.98025411 4294967295
2.6837497 2.2296846 0.96177226 4294967295
2.6859999 2.2074013 0.94759917 4294967295
2.6859999 0.49933171 0.943959 4294967295
2.6862855 -0.91778058 0.95171815 4294967295
2.6878331 2.193821 0.92811948 4294967295
2.6778002 2.1873224 0.92071623 4294967295
2.6777999 0.4949148 0.92693663 4294967295
2.6862998 -0.91520017 0.92323411 4294967295
2.6850832 2.2030263 0.89396751 4294967295
2.677 2.1891575 0.90941572 4294967295
2.6795001 0.5002057 0.8880173 4294967295
2.6904998 -0.89915401 0.88327873 4294967295
2.6802499 -0.90660435 0.89900219 4294967295
2.6841667 2.2230155 0.86063546 4294967295
2.6784999 2.2152314 0.87545162 4294967295
2.6764998 0.5027442 0.86589897 4294967295
2.6809998 -0.89632773 0.86508369 4294967295
2.6837499 2.2226701 0.84812999 4294967295
2.6815 2.2159243 0.83185649 4294967295
2.6989999 0.51010799 0.83747029 4294967295
2.688 0.50802904 0.84241307 4294967295
2.6821668 -0.89637256 0.83859736 4294967295
2.6795001 -0.90169483 0.82274282 4294967295
2.6989999 2.2259345 0.80302852 4294967295
2.6776998 2.2164361 0.8063857 4294967295
2.6804998 -0.91032398 0.80523992 4294967295
2.6989999 2.2259345 0.78424209 4294967295
2.682375 2.2129889 0.77093571 4294967295
2.6819999 0.51311773 0.77324367 4294967295
2.6809998 -0.92086881 0.77625477 4294967295
2.6819999 -0.93054807 0.76079834 4294967295
2.6818333 2.2045031 0.74367326 4294967295
2.6989999 0.5226323 0.75606245 4294967295
2.684 -0.9416225 0.74228269 4294967295
2.6825652 2.2099168 0.71456951 4294967295
2.6904998 -0.95222449 0.72721827 4294967295
2.6848824 2.2248938 0.68556237 4294967295
2.6946664 2.2140095 0.69593573 4294967295
2.6831665 -0.95272768 0.68307561 4294967295
2.6849999 2.225585 0.65952325 4294967295
2.6764998 2.216687 0.64231569 4294967295
2.6989999 0.54141873 0.64334393 4294967295
2.6989999 0.39112738 0.64334393 4294967295
2.6934998 0.37283719 0.64872342 4294967295
2.6956151 0.34829217 0.64848602 4294967295
2.6989996 0.31806904 0.6443876 4294967295
2.6989999 0.28467098 0.64334393 4294967295
2.6989999 0.26275349 0.64334393 4294967295
2.6838181 -0.94531125 0.65396076 4294967295
2.6833634 2.2226393 0.6211372 4294967295
2.6783333 2.2171702 0.63411105 4294967295
2.6880908 0.52730769 0.62216181 4294967295
2.6923997 0.50385606 0.61430794 4294967295
2.6982665 0.40020388 0.62202424 4294967295
2.6887271 0.37546068 0.62443715 4294967295
2.6932802 0.34655133 0.62432373 4294967295
2.695792 0.31561458 0.62495291 4294967295
2.6983891 0.28564736 0.62870717 4294967295
2.6989996 0.26170978 0.63290703 4294967295
2.6989996 0.04984073 0.6141206 4294967295
2.6989996 -0.14115454 0.61516428 4294967295
2.6989999 -0.15367882 0.61516428 4294967295
2.6989999 -0.29770806 0.61829537 4294967295
2.6989999 -0.31649446 0.62768859 4294967295
2.6905234 -0.91802502 0.62185341 4294967295
2.6787271 -0.93391746 0.62548023 4294967295
2.6818666 2.2238159 0.59278166 4294967295
2.6819999 2.218137 0.58034009 4294967295
2.6777225 0.52368504 0.59681606 4294967295
2.6878262 0.49658626 0.59213644 4294967295
2.6990001 0.39321479 0.60368371 4294967295
2.6989999 0.37474945 0.59806383 4294967295
2.6989999 0.35066432 0.59710044 4294967295
2.6989999 0.090544641 0.58072251 4294967295
2.6978996 0.076109923 0.58821237 4294967295
2.6967998 0.054181047 0.58317792 4294967295
2.6990001 -0.13906716 0.60159636 4294967295
2.6942856 -0.92140639 0.60115194 4294967295
2.6825006 -0.94157922 0.59123349 4294967295
2.6834998 2.2100146 0.56480694 4294967295
2.677 0.48110572 0.57401651 4294967295
2.6841667 0.46371478 0.57105362 4294967295
2.6907499 0.43675113 0.56805092 4294967295
2.6855998 0.40787029 0.56795895 4294967295
2.6885715 0.37446243 0.56980121 4294967295
2.6824999 0.34516928 0.57102191 4294967295
2.6850998 0.31435347 0.57107854 4294967295
2.678 0.29023501 0.56938881 4294967295
2.671 0.25073189 0.56769824 4294967295
2.671 0.22594319 0.56769824 4294967295
2.6869998 0.19699191 0.57156235 4294967295
2.6901999 0.16516031 0.57428282 4294967295
2.6990001 0.14064178 0.57446039 4294967295
2.6953332 0.09668377 0.57438642 4294967295
2.6797998 0.074976273 0.57283354 4294967295
2.6828887 0.047799226 0.57068211 4294967295
2.683857 0.017976118 0.5634864 4294967295
2.6848333 -0.016871912 0.5627597 4294967295
2.6804442 -0.048274942 0.5588935 4294967295
2.6813998 -0.073031738 0.55669379 4294967295
2.6837499 -0.10065743 0.55937177 4294967295
2.6850832 -0.13471135 0.56640685 4294967295
2.6860001 -0.1633237 0.56277782 4294967295
2.6901999 -0.19686474 0.56179941 4294967295
2.6802001 -0.22721811 0.56164402 4294967295
2.6849999 -0.255678 0.56171858 4294967295
2.6924999 -0.2865712 0.56080228 4294967295
2.6833632 -0.31579864 0.559443 4294967295
2.6827142 -0.3448194 0.56124955 4294967295
2.6861665 -0.37314272 0.5607143 4294967295
2.683111 -0.40316543 0.55892873 4294967295
2.6872997 -0.4335925 0.56114364 4294967295
2.6823747 -0.46157798 0.56557393 4294967295
2.6824 -0.49501771 0.56790185 4294967295
2.677 -0.52509201 0.56780541 4294967295
2.68225 -0.55566621 0.56634986 4294967295
2.68225 -0.58525246 0.56167585 4294967295
2.6924 -0.61555296 0.56183356 4294967295
2.688 -0.64262706 0.56176519 4294967295
2.6859999 -0.67328954 0.55758953 4294967295
2.6989999 -0.69848502 0.55567396 4294967295
2.6989999 -0.74545109 0.55567396 4294967295
2.6805 -0.76519454 0.55542946 4294967295
2.6919999 -0.79971284 0.56182736 4294967295
2.6801 -0.82727772 0.56413966 4294967295
2.6816249 -0.85575116 0.56478763 4294967295
2.6796665 -0.88308179 0.56267941 4294967295
2.6803334 -0.91133499 0.56373346 4294967295
2.6873331 -0.93722349 0.57145602 4294967295
2.6817367 2.2067642 0.53677952 4294967295
2.671 -0.70983034 0.54910672 4294967295
2.6863635 2.2234254 0.50395066 4294967295
2.6850002 2.2174847 0.50563002 4294967295
2.6829429 2.2050045 0.47418267 4294967295
2.6967998 2.1865728 0.47430342 4294967295
2.6789134 2.228528 0.44055137 4294967295
2.6896663 2.2133663 0.45292687 4294967295
2.6788998 2.2279675 0.42239594 4294967295
2.6808751 2.214082 0.40926221 4294967295
2.6854444 2.2071254 0.38587436 4294967295
2.671 0.83946359 0.37558579 4294967295
2.6823845 2.2050335 0.35487527 4294967295
2.6824999 0.84151238 0.34850305 4294967295
2.671 0.83946359 0.36629003 4294967295
2.6844614 2.2086596 0.32646149 4294967295
2.6989999 0.8420015 0.33649907 4294967295
2.6795001 0.83901674 0.3315981 4294967295
2.6935 2.2245169 0.29314011 4294967295
2.6773748 2.2158563 0.29449424 4294967295
2.6824999 2.2216561 0.25360516 4294967295
2.675714 2.2164798 0.26802236 4294967295
2.679769 2.2220175 0.2345095 4294967295
2.6846666 2.227077 0.20718843 4294967295
2.6836662 2.2350659 0.17565396 4294967295
2.6798 2.2411876 0.14506927 4294967295
2.6989999 2.250983 0.12984842 4294967295
2.6877999 2.2316508 0.11774501 4294967295
2.6824999 2.2123201 0.1042262 4294967295
2.6856248 2.2024288 0.081926554 4294967295
2.6833332 2.1953673 0.061557084 4294967295
2.6808748 2.1806412 0.046943218 4294967295
2.6801 2.1699204 0.026875108 4294967295
2.688 2.1919162 -0.018240333 4294967295
2.6823332 2.1820965 -0.003613472 4294967295
2.67875 2.1979549 -0.036977589 4294967295
2.674715 2.2333853 -0.06966275 4294967295
2.6799235 2.2046764 -0.063499272 4294967295
2.6730001 2.2282591 -0.084489584 4294967295
2.6841431 2.2050569 -0.092782676 4294967295
2.6846251 2.1957624 -0.12461019 4294967295
2.6833997 2.2018423 -0.15614039 4294967295
2.683857 2.2067533 -0.18419117 4294967295
2.6808751 2.2094209 -0.21352255 4294967295
2.6989999 2.2259345 -0.2490111 4294967295
2.6808569 2.214519 -0.24161136 4294967295
2.6817999 2.2080061 -0.27708513 4294967295
2.6805885 2.1971915 -0.30612755 4294967295
2.6833997 2.2059863 -0.33316988 4294967295
2.6989999 2.2259345 -0.37112278 4294967295
2.6833332 2.2161064 -0.35556245 4294967295
2.7197499 0.73488969 2.0293951 4294967295
2.721 -0.89357406 2.0269365 4294967295
2.721 0.73522747 2.0143104 4294967295
2.7179999 -0.89258885 2.0063519 4294967295
2.71 0.73854285 1.961105 4294967295
2.7153332 -0.89590871 1.9755026 4294967295
2.7197499 0.74120003 1.9473703 4294967295
2.7145002 -0.90823591 1.9445918 4294967295
2.71 0.73854285 1.9171121 4294967295
2.721 -0.89988726 1.9069862 4294967295
2.7112498 -0.9060902 1.9145904 4294967295
2.7080002 0.73799783 1.8846334 4294967295
2.7146001 -0.88894385 1.8848178 4294967295
2.7112498 0.74359578 1.8501292 4294967295
2.7154999 -0.88467342 1.8553548 4294967295
2.7167501 0.74825424 1.8260431 4294967295
2.7112503 -0.88721853 1.8265226 4294967295
2.7185001 0.75347412 1.7953269 4294967295
2.704 0.74945521 1.8042146 4294967295
2.7147143 -0.8825056 1.793099 4294967295
2.7160001 0.78744 1.7563503 4294967295
2.714875 0.76664072 1.7700024 4294967295
2.7136667 -0.88696754 1.7636718 4294967295
2.7115002 2.2291546 1.7252005 4294967295
2.704 2.211237 1.7268384 4294967295
2.7053337 2.0519211 1.7378969 4294967295
2.7185004 1.5324332 1.7227976 4294967295
2.7130001 1.5117986 1.7239532 4294967295
2.714 1.4853593 1.7306966 4294967295
2.7128892 1.4547771 1.7293978 4294967295
2.7149999 1.4216158 1.730343 4294967295
2.7144003 1.3947172 1.734199 4294967295
2.712235 1.3647288 1.7403729 4294967295
2.7152221 1.3335462 1.7423428 4294967295
2.7155559 1.3049991 1.7333858 4294967295
2.7098002 1.2816913 1.7239674 4294967295
2.7132001 1.0868995 1.7267399 4294967295
2.714 1.0654824 1.7318223 4294967295
2.7128334 1.031998 1.7297262 4294967295
2.7168331 1.0030485 1.7273117 4294967295
2.7127001 0.97719556 1.7265148 4294967295
2.7121999 0.9354707 1.7225198 4294967295
2.7142224 0.9146288 1.7285923 4294967295
2.7144003 0.88458472 1.7279011 4294967295
2.7160001 0.86620975 1.7216916 4294967295
2.7164288 0.80061501 1.7326859 4294967295
2.7136667 -0.89746195 1.7458308 4294967295
2.7121999 -0.90326971 1.7325745 4294967295
2.7088006 2.2296031 1.711591 4294967295
2.7040005 2.2076521 1.7074198 4294967295
2.7160003 2.164336 1.6901838 4294967295
2.7140002 2.1438513 1.6903677 4294967295
2.7115002 2.1166909 1.6913818 4294967295
2.7128186 2.0851066 1.6922373 4294967295
2.7155004 2.0568171 1.6931121 4294967295
2.708941 2.0230246 1.6952647 4294967295
2.7070003 1.9964775 1.6941483 4294967295
2.704 1.9728348 1.6912873 4294967295
2.7176669 1.8062495 1.6909019 4294967295
2.7155001 1.7843205 1.6946902 4294967295
2.7145457 1.7549268 1.703866 4294967295
2.7155561 1.7236383 1.7039862 4294967295
2.7132003 1.7000346 1.695259 4294967295
2.7172503 1.5963502 1.6970267 4294967295
2.7147145 1.5739411 1.7112184 4294967295
2.7096672 1.5463173 1.7167851 4294967295
2.7142501 1.268696 1.7146128 4294967295
2.7122002 1.2538891 1.6986035 4294967295
2.7146113 1.1222399 1.7011211 4294967295
2.7145002 1.1019092 1.7115687 4294967295
2.721 0.99722463 1.6923379 4294967295
2.7148001 0.97670007 1.706458 4294967295
2.7118945 0.94038153 1.7076164 4294967295
2.7185001 0.92692429 1.6912608 4294967295
2.7122858 0.85064042 1.716444 4294967295
2.7147145 0.82260406 1.7130204 4294967295
2.7173336 -0.90602493 1.7065064 4294967295
2.7210002 2.193573 1.660772 4294967295
2.7125337 2.1741526 1.6769325 4294967295
2.7210002 2.0420566 1.6860247 4294967295
2.7195718 2.0211546 1.682707 4294967295
2.7163 1.9931531 1.6821139 4294967295
2.711072 1.964057 1.6754571 4294967295
2.7040002 1.9430345 1.6677607 4294967295
2.7109048 1.9032764 1.67689 4294967295
2.7160003 1.8744632 1.6838821 4294967295
2.7190001 1.8449841 1.6851677 4294967295
2.7125003 1.818563 1.6855191 4294967295
2.7210002 1.6916749 1.6860247 4294967295
2.7132003 1.6679301 1.6814117 4294967295
2.7125716 1.6374202 1.6779119 4294967295
2.7132003 1.6131694 1.6826744 4294967295
2.717 1.2408215 1.6827273 4294967295
2.7128892 1.2128043 1.6797431 4294967295
2.7154286 1.1819333 1.6800297 4294967295
2.7132857 1.1585099 1.6818171 4294967295
2.7124999 1.1357025 1.6855191 4294967295
2.721 1.0256339 1.6639285 4294967295
2.7142501 1.0097189 1.6768327 4294967295
2.704 0.97844678 1.6818767 4294967295
2.704 0.93139374 1.6850135 4294967295
2.7184999 0.92298293 1.6731248 4294967295
2.7082498 -0.90665948 1.6711209 4294967295
2.7156 2.1955128 1.6459123 4294967295
2.7040002 2.186142 1.6536448 4294967295
2.7185004 1.9518771 1.6565673 4294967295
2.708364 1.933167 1.6468914 4294967295
2.7129235 1.9091269 1.6481763 4294967295
2.721 1.0256339 1.6544588 4294967295
2.7098572 1.0088552 1.6435161 4294967295
2.7112501 0.98105198 1.6378126 4294967295
2.7165 0.94513702 1.6483823 4294967295
2.704 0.92512 1.6567817 4294967295
2.7185001 0.53271568 1.637651 4294967295
2.704 -0.90681249 1.6442342 4294967295
2.7132003 2.2011299 1.619729 4294967295
2.704 0.61770666 1.6222761 4294967295
2.7112498 0.54702288 1.6094937 4294967295
2.704 0.53614801 1.6222761 4294967295
2.721 -0.89988726 1.6039534 4294967295
2.7098 -0.90497994 1.6183476 4294967295
2.7130003 2.2069039 1.583662 4294967295
2.7160001 0.53852737 1.5767552 4294967295
2.7116668 -0.89469612 1.5803045 4294967295
2.704 -0.90053874 1.5971811 4294967295
2.7122858 2.2063174 1.5555252 4294967295
2.7165999 -0.89338386 1.5580685 4294967295
2.7155004 2.1954298 1.5277157 4294967295
2.7040002 2.186142 1.5156225 4294967295
2.71 -0.88996172 1.5241194 4294967295
2.7165005 2.1962395 1.4939723 4294967295
2.7040002 2.186142 1.4968014 4294967295
2.7185001 -0.89590389 1.5051959 4294967295
2.7193334 -0.91195083 1.4897256 4294967295
2.7197502 2.2572436 1.4567406 4294967295
2.7143574 2.2336383 1.4636478 4294967295
2.7147145 2.209198 1.4727676 4294967295
2.7122002 -0.91962504 1.4619935 4294967295
2.7130628 2.2615144 1.4343708 4294967295
2.7182229 2.2340782 1.429064 4294967295
2.7176669 2.2050712 1.4318562 4294967295
2.7197502 2.1862524 1.4236109 4294967295
2.7160001 0.53852737 1.4255173 4294967295
2.721 -0.89988726 1.4271842 4294967295
2.704 -0.90367562 1.430927 4294967295
2.7070005 2.2356625 1.4162359 4294967295
2.707 2.2020643 1.4052513 4294967295
2.7162354 2.1848979 1.405575 4294967295
2.7136669 0.52756363 1.4079328 4294967295
2.71 -0.89624935 1.4140923 4294967295
