# .PCD v0.7 - Point Cloud Data file format
VERSION 0.7
FIELDS x y z rgb
SIZE 4 4 4 4
TYPE F F F U
COUNT 1 1 1 1
WIDTH 1153
HEIGHT 1
VIEWPOINT 0 0 0 1 0 0 0
POINTS 1153
DATA ascii
2.8734004 1.9297622 1.4979949 4294967295
2.8580003 1.9116806 1.497167 4294967295
2.8599999 0.54717261 1.5022846 4294967295
2.8694 0.5303275 1.4939749 4294967295
2.852 -0.89689159 1.5039454 4294967295
2.8610001 -0.90469867 1.4904518 4294967295
2.8632004 2.2231576 1.4533322 4294967295
2.8635004 2.214469 1.4666123 4294967295
2.8634284 0.51744586 1.4651657 4294967295
2.8710001 -0.89620548 1.4505496 4294967295
2.8630002 -0.90432948 1.463897 4294967295
2.8569093 2.2253931 1.4381508 4294967295
2.8684707 2.2086892 1.4317226 4294967295
2.8594 0.51255131 1.436168 4294967295
2.86375 -0.89143538 1.4348998 4294967295
2.8537145 2.2305641 1.3957593 4294967295
2.8579357 2.2046864 1.405458 4294967295
2.8685002 2.1882393 1.4042616 4294967295
2.8628001 0.5144974 1.4080331 4294967295
2.8642502 -0.89575619 1.4134653 4294967295
2.8681998 -0.90996712 1.3977306 4294967295
2.8652861 2.2528868 1.3670148 4294967295
2.8667367 2.2382228 1.3805436 4294967295
2.8664448 2.2088375 1.3855119 4294967295
2.8610001 0.79296327 1.3709748 4294967295
2.8668001 0.51521623 1.3760124 4294967295
2.8618 -0.91855806 1.374506 4294967295
2.8636003 2.254473 1.3440499 4294967295
2.8770001 0.51704937 1.3590424 4294967295
2.8676665 -0.8873769 1.3352499 4294967295
2.8601668 -0.90940177 1.3485949 4294967295
2.8675003 2.2540038 1.3119082 4294967295
2.8606002 2.2476943 1.3184218 4294967295
2.8643334 0.52362436 1.3066132 4294967295
2.8710001 -0.86956066 1.3239865 4294967295
2.8627501 -0.87645489 1.3144659 4294967295
2.8614001 2.2569571 1.2847699 4294967295
2.858 0.51363468 1.2871908 4294967295
2.8646667 0.50596595 1.2756873 4294967295
2.863625 -0.89057302 1.292011 4294967295
2.8644001 -0.90344071 1.2769344 4294967295
2.8621252 2.2558651 1.254252 4294967295
2.8630002 0.49791744 1.2519816 4294967295
2.8663332 -0.89695913 1.2473105 4294967295
2.8644001 -0.90476978 1.2609986 4294967295
2.8710003 2.2545466 1.2373908 4294967295
2.864429 2.2446203 1.2214907 4294967295
2.8642001 0.49481267 1.2223916 4294967295
2.8740001 -0.86713171 1.2147985 4294967295
2.8640001 -0.88073045 1.2289968 4294967295
2.8631821 2.2314792 1.1943614 4294967295
2.8755 0.49676487 1.1951443 4294967295
2.8627501 -0.86041981 1.1921499 4294967295
2.8675003 2.2617686 1.1599984 4294967295
2.8626001 2.2379766 1.1741755 4294967295
2.8643334 -0.86531645 1.1736983 4294967295
2.8660002 -0.87302715 1.1580038 4294967295
2.8710003 2.2811916 1.1308115 4294967295
2.8633337 2.2739766 1.1347113 4294967295
2.8645 0.50151056 1.1260979 4294967295
2.8637145 -0.87683415 1.1368403 4294967295
2.8639998 2.2645314 1.1067328 4294967295
2.8707502 2.2443516 1.0957898 4294967295
2.869 0.51726937 1.1004331 4294967295
2.858 0.50700366 1.1147835 4294967295
2.8710001 -0.86956066 1.0908442 4294967295
2.8623333 -0.87135172 1.1035056 4294967295
2.8598182 2.2318673 1.0825845 4294967295
2.859143 2.2111006 1.0666866 4294967295
2.8629999 0.53180283 1.0759687 4294967295
2.8710001 -0.86956066 1.0741911 4294967295
2.8540001 -0.87103349 1.0675941 4294967295
2.8638184 2.2090304 1.0447073 4294967295
2.8656001 0.52563667 1.0458999 4294967295
2.866091 -0.8795464 1.0457319 4294967295
2.8697145 2.2268956 1.012593 4294967295
2.8564999 2.2166429 1.0233467 4294967295
2.8658001 0.51768613 1.0166488 4294967295
2.862875 -0.89366019 1.0211344 4294967295
2.8675001 -0.901766 1.0069807 4294967295
2.8615556 2.229413 0.98494458 4294967295
2.8643334 0.51254785 0.98982251 4294967295
2.8640001 0.50806803 0.97648793 4294967295
2.8668749 -0.90405089 0.98608267 4294967295
2.8643334 2.2227185 0.96767491 4294967295
2.866143 2.2136683 0.95212424 4294967295
2.852 0.50593925 0.96795809 4294967295
2.8613331 -0.89428574 0.95172048 4294967295
2.8657 2.2071576 0.92356336 4294967295
2.8770001 0.51037425 0.91848379 4294967295
2.858 0.50700361 0.92579174 4294967295
2.8671432 -0.8845368 0.92472267 4294967295
2.8624616 2.2146177 0.89449453 4294967295
2.8645 0.51480287 0.8934834 4294967295
2.8645 -0.89749199 0.89349854 4294967295
2.8649168 2.2093148 0.86529231 4294967295
2.8645 0.52144903 0.86689889 4294967295
2.8740001 -0.91715342 0.86470902 4294967295
2.8664999 2.1955788 0.83720744 4294967295
2.852 2.1866894 0.82568991 4294967295
2.8623333 0.52769566 0.83674443 4294967295
2.8671432 2.1963882 0.80308706 4294967295
2.852 2.1866894 0.81245565 4294967295
2.8686666 0.53551906 0.80416632 4294967295
2.8643334 -0.93620926 0.80818713 4294967295
2.8609998 2.2039056 0.77318168 4294967295
2.8640001 0.54461539 0.77049387 4294967295
2.852 0.53902489 0.78267854 4294967295
2.8603334 -0.95258927 0.77682436 4294967295
2.8636999 2.2295296 0.73856968 4294967295
2.8625715 2.2137494 0.75329214 4294967295
2.869 0.55887759 0.74097431 4294967295
2.8643334 -0.97608376 0.73952013 4294967295
2.8642859 2.2407229 0.71829545 4294967295
2.8630002 0.55438167 0.71727073 4294967295
2.8692501 0.52564836 0.71769583 4294967295
2.8661253 0.49514002 0.71499914 4294967295
2.8676252 0.46544608 0.71510249 4294967295
2.8724999 0.4329372 0.71791977 4294967295
2.8612502 0.40470034 0.71714467 4294967295
2.852 0.37359673 0.71650732 4294967295
2.8644001 0.34196234 0.71736169 4294967295
2.8565001 0.31121215 0.71018982 4294967295
2.8707502 0.28612307 0.71113861 4294967295
2.8534999 0.25130677 0.70336944 4294967295
2.8663332 0.22916052 0.70419413 4294967295
2.8710001 0.096314818 0.704494 4294967295
2.8606 0.076049112 0.70781314 4294967295
2.8692501 0.04631095 0.71604156 4294967295
2.8698332 0.014160969 0.7166332 4294967295
2.8612502 -0.013567251 0.71050608 4294967295
2.8581667 -0.041155431 0.70478189 4294967295
2.8690002 -0.073508143 0.70436549 4294967295
2.8770001 -0.090387568 0.70487958 4294967295
2.8740001 -0.2336555 0.70468682 4294967295
2.8644001 -0.25612101 0.70406985 4294967295
2.8622501 -0.28582832 0.70726407 4294967295
2.8627143 -0.31670755 0.70776564 4294967295
2.8708 -0.34330717 0.70581621 4294967295
2.8770001 -0.89474088 0.70487958 4294967295
2.8658001 -0.91453856 0.7068271 4294967295
2.8630002 -0.94684112 0.71460998 4294967295
2.8705001 -0.96597236 0.72444206 4294967295
2.8637779 2.2422194 0.68409038 4294967295
2.858 0.1887041 0.69702756 4294967295
2.8666668 0.16714114 0.69535869 4294967295
2.862 0.13582006 0.69330502 4294967295
2.8645 0.11271962 0.69743019 4294967295
2.852 -0.089602135 0.69665593 4294967295
2.8645 -0.10882343 0.69522446 4294967295
2.8621666 -0.13419309 0.69175744 4294967295
2.8625 -0.1663039 0.69066483 4294967295
2.8644001 -0.19634046 0.69477439 4294967295
2.858 -0.21908911 0.69702756 4294967295
2.855 -0.35135129 0.69684172 4294967295
2.8643999 -0.37578335 0.69742399 4294967295
2.8770001 -0.40745631 0.69820446 4294967295
2.8734002 -0.43693861 0.69798148 4294967295
2.8640001 -0.46541989 0.6973992 4294967295
2.8604 -0.49469128 0.69717622 4294967295
2.8594999 -0.52440453 0.69712049 4294967295
2.8660002 -0.55383533 0.69586885 4294967295
2.8612502 -0.58448583 0.69059026 4294967295
2.8710001 -0.61643463 0.69117159 4294967295
2.8692501 -0.64600998 0.69106722 4294967295
2.858 -0.66668248 0.69039655 4294967295
2.85975 -0.70357311 0.69713593 4294967295
2.852 -0.76785761 0.69665593 4294967295
2.852 -0.79432607 0.69665593 4294967295
2.8595002 -0.82295835 0.69712049 4294967295
2.8628001 -0.85378712 0.69732487 4294967295
2.852 -0.87373167 0.69665593 4294967295
2.8666427 2.2359064 0.65338087 4294967295
2.8649564 2.2419705 0.62433696 4294967295
2.8648 2.231931 0.59375787 4294967295
2.8648236 2.2332504 0.56530136 4294967295
2.8633845 2.2408834 0.5338276 4294967295
2.8644001 2.2293968 0.51798475 4294967295
2.8616667 2.2110484 0.50469983 4294967295
2.8682501 2.2024658 0.47472829 4294967295
2.8655455 2.1982713 0.44424576 4294967295
2.8770001 2.192507 0.41117382 4294967295
2.8607142 2.1876724 0.41652429 4294967295
2.8640001 2.2034645 0.38271433 4294967295
2.858 2.1879673 0.39863041 4294967295
2.8671429 2.2248981 0.35358351 4294967295
2.85975 2.2191427 0.36372629 4294967295
2.8644168 2.2305331 0.32414514 4294967295
2.8646667 2.2562051 0.28757694 4294967295
2.8608003 2.2425373 0.30028337 4294967295
2.8710001 2.2811916 0.25153175 4294967295
2.865 2.2734547 0.26243332 4294967295
2.8621819 2.2705529 0.23425433 4294967295
2.8655002 2.2557511 0.21437305 4294967295
2.8663001 2.242856 0.19810566 4294967295
2.8629231 2.2308149 0.17462552 4294967295
2.852 2.219775 0.16397724 4294967295
2.8600001 2.225029 0.14734957 4294967295
2.8646519 2.2113788 0.14057738 4294967295
2.858 2.2509692 0.1068643 4294967295
2.8636999 2.2381594 0.11400923 4294967295
2.8676152 2.2078652 0.11928296 4294967295
2.8706667 2.1876705 0.12168437 4294967295
2.866647 2.2417185 0.083711356 4294967295
2.8640003 2.2326109 0.055188894 4294967295
2.8669999 2.2295332 0.024791539 4294967295
2.8706667 2.2231977 0.0029063225 4294967295
2.8594 2.2155671 -0.0067871809 4294967295
2.8639166 2.2074406 -0.033525467 4294967295
2.8620718 2.2029321 -0.067320406 4294967295
2.8631999 2.197253 -0.091845751 4294967295
2.858 2.1879673 -0.10532922 4294967295
2.8644171 2.2022805 -0.12555712 4294967295
2.8660002 2.2289951 -0.15861297 4294967295
2.8645 2.2161965 -0.14329761 4294967295
2.8638461 2.2346025 -0.18480766 4294967295
2.862875 2.2273939 -0.21434271 4294967295
2.852 2.219775 -0.22312468 4294967295
2.8671112 2.2241342 -0.24332649 4294967295
2.8565001 2.218297 -0.25247222 4294967295
2.8652856 2.2035081 -0.27501792 4294967295
2.852 2.1866894 -0.28929597 4294967295
2.8770001 2.192507 -0.29639012 4294967295
2.8625 2.1847653 -0.30555844 4294967295
2.865 2.1748891 -0.33527869 4294967295
2.865875 2.1682289 -0.3638795 4294967295
2.86375 2.1707678 -0.39726269 4294967295
2.8710001 2.1746123 -0.41458929 4294967295
2.901 0.77040279 2.1232381 4294967295
2.8983333 -0.89352357 2.1228878 4294967295
2.9025002 -0.88582802 2.0920882 4294967295
2.89925 -0.87811685 2.0600519 4294967295
2.8977499 -0.88270605 2.0357265 4294967295
2.8930001 -0.88796866 2.0047255 4294967295
2.9024999 0.77080113 1.9759405 4294967295
2.8900001 -0.86861002 1.9663101 4294967295
2.8994999 -0.87481791 1.9811444 4294967295
2.8900001 0.76748157 1.9596049 4294967295
2.8900001 -0.86861002 1.9461943 4294967295
2.8959999 -0.8704133 1.9424359 4294967295
2.9046667 0.76463711 1.9130061 4294967295
2.8983333 -0.88568377 1.9133116 4294967295
2.9026668 0.75961113 1.8828191 4294967295
2.8930001 -0.8963607 1.8771925 4294967295
2.9089999 0.75902849 1.8644539 4294967295
2.8959999 -0.89729017 1.8685246 4294967295
2.9089999 -0.90131801 1.8543299 4294967295
2.8988001 0.76309282 1.822722 4294967295
2.9003334 -0.89638305 1.8166982 4294967295
2.9089999 -0.90131807 1.8340818 4294967295
2.9057498 0.76492232 1.7955449 4294967295
2.9089999 -0.86419648 1.7834615 4294967295
2.9046667 -0.87976754 1.7984377 4294967295
2.8983333 0.76072013 1.7664818 4294967295
2.8920002 -0.85579133 1.7593076 4294967295
2.8994999 0.75317508 1.7456876 4294967295
2.9003334 0.74554837 1.7292278 4294967295
2.8959999 0.67836553 1.7240615 4294967295
2.8900001 0.64678627 1.7249196 4294967295
2.9089999 0.53629905 1.7328411 4294967295
2.8930001 -0.85608715 1.7362351 4294967295
2.8983335 0.73381859 1.7052304 4294967295
2.9004445 0.70372301 1.7001077 4294967295
2.8900001 0.5193857 1.6980984 4294967295
2.8983333 -0.86438996 1.7082053 4294967295
2.8995001 1.3636973 1.6683233 4294967295
2.9014001 1.3346167 1.6812005 4294967295
2.901 1.3055043 1.6807027 4294967295
2.9005001 1.2772337 1.6698428 4294967295
2.8930001 0.72464508 1.6825407 4294967295
2.8983333 0.70918757 1.6857964 4294967295
2.9089999 0.54642314 1.668722 4294967295
2.8930001 0.52999669 1.6791775 4294967295
2.8977499 -0.87429541 1.6710083 4294967295
2.8900003 1.9576712 1.644456 4294967295
2.8900003 1.9476132 1.644456 4294967295
2.9010003 1.62858 1.6318997 4294967295
2.8983333 1.6125128 1.6319994 4294967295
2.8900001 1.47489 1.6310455 4294967295
2.8900001 1.4614794 1.6310455 4294967295
2.8977499 1.383034 1.6340173 4294967295
2.8987999 1.3764735 1.6505561 4294967295
2.9089999 1.2652317 1.6518486 4294967295
2.8977058 1.2464736 1.6415017 4294967295
2.8980997 1.2167778 1.6341462 4294967295
2.8900001 1.1932677 1.6310455 4294967295
2.8959999 -0.87713253 1.6434308 4294967295
2.8900003 2.0750136 1.6042243 4294967295
2.8900003 2.0683084 1.6042243 4294967295
2.8988001 1.720817 1.6061758 4294967295
2.8983335 1.6999109 1.6129553 4294967295
2.8946252 1.6636062 1.6210678 4294967295
2.8988006 1.6428083 1.625003 4294967295
2.9025002 1.5974246 1.6240547 4294967295
2.8974998 1.5795622 1.6144208 4294967295
2.8994999 1.5469565 1.6044136 4294967295
2.8929999 1.5133361 1.6087047 4294967295
2.896889 1.4832546 1.6202447 4294967295
2.90025 1.4565581 1.6248822 4294967295
2.8976667 1.4246266 1.619787 4294967295
2.8980002 1.3939476 1.622591 4294967295
2.9057498 1.2368509 1.6252965 4294967295
2.9089999 1.2247354 1.6248511 4294967295
2.9008751 1.1842874 1.6259648 4294967295
2.9026668 1.155825 1.6246808 4294967295
2.8994999 1.1265421 1.6245958 4294967295
2.8970001 1.0978469 1.6219642 4294967295
2.8971536 1.0651377 1.6110309 4294967295
2.8924999 1.0359244 1.6078401 4294967295
2.8900001 1.0122247 1.607577 4294967295
2.8900001 0.9854036 1.6042243 4294967295
2.8994999 -0.86809057 1.6044136 4294967295
2.8940001 -0.87428701 1.6191541 4294967295
2.9090002 2.135901 1.5708561 4294967295
2.89675 2.1162536 1.5832303 4294967295
2.8970001 2.0857842 1.5982047 4294967295
2.8974001 2.0574596 1.5948906 4294967295
2.8940003 2.0308788 1.5788618 4294967295
2.8900003 1.8000968 1.5706978 4294967295
2.8989286 1.7854708 1.5782572 4294967295
2.8977504 1.7561647 1.5920016 4294967295
2.8940003 1.7354378 1.5990103 4294967295
2.90575 1.5705718 1.5966418 4294967295
2.8983333 1.5463845 1.5983762 4294967295
2.9003334 1.0349169 1.5953823 4294967295
2.8917999 1.0048094 1.592823 4294967295
2.8920002 0.98384815 1.5904348 4294967295
2.9089997 -0.86757118 1.5911041 4294967295
2.9026003 2.1675594 1.5496817 4294967295
2.8968 2.1484432 1.5610659 4294967295
2.8960001 2.0154889 1.5628003 4294967295
2.8995001 1.9943573 1.5505949 4294967295
2.8900003 1.8369759 1.5438766 4294967295
2.8977697 1.8090521 1.5497216 4294967295
2.9038 1.7965555 1.5622343 4294967295
2.8900001 -0.86861002 1.5639925 4294967295
2.8959999 -0.87377292 1.5527215 4294967295
2.8962502 2.2004538 1.5158482 4294967295
2.8936002 2.1823261 1.5303836 4294967295
2.9090002 1.9806657 1.5371091 4294967295
2.8988574 1.9651117 1.5200981 4294967295
2.8907502 1.8382883 1.5324047 4294967295
2.8926671 1.8189057 1.5328884 4294967295
2.8930001 0.55013347 1.52145 4294967295
2.9089999 0.53629905 1.5168611 4294967295
2.8947501 -0.89018661 1.5304395 4294967295
2.9089999 -0.90469277 1.5202358 4294967295
2.9090002 2.2236431 1.4864888 4294967295
2.8930006 2.212528 1.4957186 4294967295
2.9046669 1.9552473 1.4973979 4294967295
2.8963337 1.9429115 1.4945809 4294967295
2.8930001 0.52328092 1.494601 4294967295
2.9042499 -0.91332299 1.498371 4294967295
2.8973637 2.2220681 1.4682578 4294967295
2.8983335 2.2154746 1.4526842 4294967295
2.8915002 0.51294649 1.4655862 4294967295
2.8959999 -0.89729017 1.4586525 4294967295
2.8963335 -0.90634859 1.4722005 4294967295
2.8985455 2.2046289 1.4380751 4294967295
2.8977499 0.51405525 1.4289484 4294967295
2.9026668 -0.89485621 1.4383888 4294967295
2.9089999 -0.90131807 1.4223698 4294967295
2.8970001 2.2001855 1.4060349 4294967295
2.9057498 0.51547438 1.4045033 4294967295
2.9089997 -0.91481686 1.4088711 4294967295
2.8998573 2.2608566 1.3676262 4294967295
2.8973334 2.2382319 1.3806595 4294967295
2.8900003 2.2091196 1.3896549 4294967295
2.8981426 -0.91810769 1.3738296 4294967295
2.8990002 2.2649915 1.3462296 4294967295
2.8959999 0.52046394 1.3578644 4294967295
2.8993332 -0.88598663 1.3464997 4294967295
2.8900001 -0.90884179 1.3561285 4294967295
2.8971429 2.2664301 1.3159354 4294967295
2.9026668 0.51941234 1.3081654 4294967295
2.8900001 -0.86861002 1.3293073 4294967295
2.8959999 -0.87545276 1.3141894 4294967295
2.9090002 2.2843874 1.2772582 4294967295
2.8940003 2.2726083 1.2901353 4294967295
2.8900001 0.51268041 1.2957808 4294967295
2.9026668 0.50594294 1.2834618 4294967295
2.8959999 -0.89393055 1.2940319 4294967295
2.9046667 -0.9067148 1.2794898 4294967295
2.9090002 2.2843874 1.2671342 4294967295
2.9025002 2.2759085 1.251981 4294967295
2.8900001 0.49926984 1.2622544 4294967295
2.8900001 -0.89207858 1.245491 4294967295
2.8959999 -0.9040094 1.2637954 4294967295
2.9010003 2.2612576 1.2280397 4294967295
2.8930004 2.2483265 1.2126794 4294967295
2.8959999 -0.86369413 1.2100415 4294967295
2.8959999 -0.87713253 1.2301992 4294967295
2.9090002 2.2506404 1.1962657 4294967295
2.8930004 2.2416143 1.1925461 4294967295
2.8900001 0.49926984 1.1817908 4294967295
2.9024999 -0.86563265 1.2014813 4294967295
2.9090002 2.2877622 1.1557693 4294967295
2.8952861 2.2659342 1.1647663 4294967295
2.8960001 2.2473018 1.1764455 4294967295
2.8915002 0.49952894 1.1653571 4294967295
2.901 -0.87696713 1.1624148 4294967295
2.8980002 2.2853444 1.1336612 4294967295
2.9090002 2.277638 1.1253972 4294967295
2.9003334 0.50329471 1.139302 4294967295
2.9025002 -0.87910128 1.134161 4294967295
2.8980002 2.2651665 1.112538 4294967295
2.8920004 2.2441933 1.0972548 4294967295
2.9026668 0.52166206 1.1016253 4294967295
2.9026668 -0.87465215 1.1060956 4294967295
2.8952861 2.2285044 1.0803137 4294967295
2.8900003 2.2158248 1.0610955 4294967295
2.8959999 0.53390241 1.0756574 4294967295
2.8986001 -0.87119472 1.076144 4294967295
2.903667 2.2274206 1.0434432 4294967295
2.8900003 2.2158248 1.0510375 4294967295
2.89625 0.52218527 1.04547 4294967295
2.9000001 -0.88103503 1.045464 4294967295
2.9090002 2.2506404 1.0106579 4294967295
2.8962502 2.2390885 1.0169145 4294967295
2.8994999 0.51771832 1.0157387 4294967295
2.8983333 -0.89352357 1.0245477 4294967295
2.9046667 -0.90446502 1.009927 4294967295
2.9089999 2.2506404 0.99040973 4294967295
2.8961999 2.2420721 0.98295796 4294967295
2.8959999 0.51374477 0.99502671 4294967295
2.9089999 0.50930154 0.97016162 4294967295
2.9089999 -0.90806746 0.97691095 4294967295
2.8962002 2.2259452 0.95472991 4294967295
2.89925 0.50759453 0.95182467 4294967295
2.8930001 -0.89300108 0.95090151 4294967295
2.8994999 -0.90172726 0.96531683 4294967295
2.9024999 2.222034 0.92203081 4294967295
2.8900001 2.2158248 0.92698967 4294967295
2.8900001 0.51268041 0.91357911 4294967295
2.8971665 2.2269166 0.89663446 4294967295
2.9026668 0.51941234 0.89286494 4294967295
2.8900001 -0.89543122 0.90687382 4294967295
2.8994999 -0.9084546 0.89133823 4294967295
2.901 2.2242475 0.86963773 4294967295
2.8959999 2.2137058 0.8539232 4294967295
2.8994999 0.52782029 0.85767949 4294967295
2.9024999 -0.92288166 0.86812627 4294967295
2.8961666 2.2082312 0.83603114 4294967295
2.8930001 0.53334934 0.82336867 4294967295
2.9024999 -0.93633521 0.83785963 4294967295
2.8977499 2.2116764 0.80370599 4294967295
2.8959999 0.54062164 0.79345036 4294967295
2.8930001 -0.94670612 0.7998724 4294967295
2.9024999 2.222034 0.77725095 4294967295
2.8900001 2.2158248 0.77947319 4294967295
2.9026668 0.54635108 0.77612555 4294967295
2.8959999 -0.96784192 0.7699331 4294967295
2.9089999 2.2506404 0.73393345 4294967295
2.8978748 2.2327752 0.74656594 4294967295
2.901 0.55838376 0.7467922 4294967295
2.8930001 -0.98026389 0.74449801 4294967295
2.901 2.2595816 0.71653485 4294967295
2.8900001 2.2493513 0.72583085 4294967295
2.8959999 0.55070043 0.72625816 4294967295
2.8945 0.52354699 0.72615135 4294967295
2.9089999 0.50592685 0.72718406 4294967295
2.9089999 0.42155969 0.72718406 4294967295
2.8962502 0.4029308 0.72627598 4294967295
2.8900001 0.37522191 0.72583085 4294967295
2.8930001 0.35547116 0.72604454 4294967295
2.8977499 0.31570208 0.71965957 4294967295
2.8900001 0.27128986 0.71242028 4294967295
2.9003334 0.25879127 0.7131083 4294967295
2.8983333 0.19808649 0.70625049 4294967295
2.9026668 0.10186204 0.70877874 4294967295
2.9003334 0.072621539 0.71759778 4294967295
2.8900001 0.056720462 0.71912557 4294967295
2.9089999 0.023346478 0.72718406 4294967295
2.89625 -0.013732988 0.71955621 4294967295
2.8915002 -0.047241312 0.71252012 4294967295
2.9025002 -0.074368045 0.71325254 4294967295
2.8994999 -0.10119648 0.70632541 4294967295
2.9089999 -0.16226137 0.70018655 4294967295
2.901 -0.22407809 0.7081092 4294967295
2.8977501 -0.25574315 0.71293628 4294967295
2.9026 -0.2864987 0.71865267 4294967295
2.9046667 -0.31366444 0.72013611 4294967295
2.8983333 -0.34660834 0.71297508 4294967295
2.8983333 -0.37350687 0.70625049 4294967295
2.9089999 -0.49973017 0.70693594 4294967295
2.89925 -0.52497357 0.70630938 4294967295
2.9089999 -0.5436011 0.70693594 4294967295
2.9089999 -0.59084672 0.70018655 4294967295
2.9089999 -0.67183924 0.70018655 4294967295
2.9089999 -0.71908492 0.70693594 4294967295
2.8912001 -0.73480356 0.70579207 4294967295
2.8900001 -0.764678 0.705715 4294967295
2.8900001 -0.79485184 0.705715 4294967295
2.8959999 -0.82673842 0.70610052 4294967295
2.9089999 -0.85744709 0.70693594 4294967295
2.8962502 -0.88054991 0.70611662 4294967295
2.8994999 -0.92190927 0.71305275 4294967295
2.9024999 -0.94980377 0.7199868 4294967295
2.9089999 -0.96881181 0.72718406 4294967295
2.8973331 2.2572863 0.68600225 4294967295
2.8900001 2.2493513 0.67218852 4294967295
2.8900001 0.15729986 0.69900966 4294967295
2.8900001 0.14053662 0.69900966 4294967295
2.8940001 -0.13792831 0.69925743 4294967295
2.8959999 -0.17833427 0.69938135 4294967295
2.8930001 -0.18821444 0.6991955 4294967295
2.8900001 -0.56687182 0.69900966 4294967295
2.8930001 -0.57753211 0.6991955 4294967295
2.8940001 -0.68179947 0.69925743 4294967295
2.9089999 2.2506404 0.65969026 4294967295
2.8973999 2.2430007 0.65374583 4294967295
2.9089999 2.2506404 0.62594342 4294967295
2.8936 2.2454395 0.6253742 4294967295
2.9089999 2.2506404 0.60569531 4294967295
2.898 2.2382755 0.59383935 4294967295
2.8983335 2.2392323 0.56324524 4294967295
2.9089997 2.2506404 0.53820151 4294967295
2.8947775 2.2463422 0.53362948 4294967295
2.89625 2.2273254 0.50786787 4294967295
2.8900001 2.2158248 0.49114558 4294967295
2.9089999 2.2236431 0.47408244 4294967295
2.8973999 2.2120821 0.44400844 4294967295
2.8973999 2.202672 0.41578403 4294967295
2.8930001 2.2214775 0.37029508 4294967295
2.8961666 2.2071064 0.38693273 4294967295
2.8971429 2.2347367 0.35183489 4294967295
2.8971429 2.2404964 0.32687613 4294967295
2.8983335 2.2614243 0.29493564 4294967295
2.8959999 2.2473018 0.30966693 4294967295
2.9026668 2.2928834 0.26202527 4294967295
2.8900001 2.2761724 0.27657622 4294967295
2.9036665 2.2902985 0.23388553 4294967295
2.8900001 2.2761724 0.22293386 4294967295
2.89625 2.2642956 0.21221551 4294967295
2.8930001 2.2483265 0.19913259 4294967295
2.9089999 2.2506404 0.1737352 4294967295
2.8941667 2.240272 0.1743713 4294967295
2.9014001 2.2285883 0.15040383 4294967295
2.8987999 2.2117965 0.13862982 4294967295
2.8900001 2.2359407 0.10223857 4294967295
2.8979089 2.2023103 0.11210832 4294967295
2.8997779 2.2408612 0.086625069 4294967295
2.9089999 2.2101443 0.099492073 4294967295
2.8968182 2.2387626 0.055435091 4294967295
2.8978748 2.2386622 0.023773581 4294967295
2.898 2.23156 -0.005531311 4294967295
2.89925 2.2229168 -0.030258894 4294967295
2.8900001 2.2158248 -0.045277894 4294967295
2.9089999 2.2236431 -0.069242299 4294967295
2.8900001 2.2158248 -0.05533582 4294967295
2.9089999 2.2236431 -0.082741082 4294967295
2.8983333 2.2132394 -0.096240103 4294967295
2.8983333 2.2121198 -0.12872827 4294967295
2.8994999 2.2309387 -0.15252364 4294967295
2.9089999 2.2557025 -0.18566906 4294967295
2.8959999 2.2473018 -0.17411649 4294967295
2.9089999 2.2506404 -0.21435392 4294967295
2.8936 2.2427518 -0.21382594 4294967295
2.8971429 2.2366607 -0.24544036 4294967295
2.9042499 2.2284267 -0.27043086 4294967295
2.8977499 2.2133527 -0.28211182 4294967295
2.8983335 2.2031577 -0.30130649 4294967295
2.9024999 2.1984715 -0.32718855 4294967295
2.8920002 2.1860435 -0.3409062 4294967295
2.9025002 2.1850028 -0.36760181 4294967295
2.8987999 2.1862435 -0.39134812 4294967295
2.9089997 2.1966455 -0.42020994 4294967295
2.928 0.77077955 2.1483703 4294967295
2.915 -0.8964138 2.1445222 4294967295
2.9315 0.77850246 2.1197057 4294967295
2.9264998 -0.89314872 2.1237421 4294967295
2.9264998 -0.8846603 2.094888 4294967295
2.9326668 -0.88143373 2.0693088 4294967295
2.9241998 -0.88838506 2.0376968 4294967295
2.9259999 0.77704191 2.0047083 4294967295
2.925 -0.88590437 2.0075669 4294967295
2.9349999 0.77262223 1.9649965 4294967295
2.9294 -0.87365526 1.972428 4294967295
2.9193332 0.76849806 1.94036 4294967295
2.9283333 -0.88240123 1.9424435 4294967295
2.9349999 0.76581252 1.907114 4294967295
2.9315 -0.89468628 1.9224598 4294967295
2.915 0.76059407 1.8908986 4294967295
2.915 -0.8964138 1.8942802 4294967295
2.93325 -0.902026 1.8824611 4294967295
2.9214997 0.76229006 1.8498808 4294967295
2.9349999 -0.90256417 1.8560413 4294967295
2.9349999 0.76581252 1.8356122 4294967295
2.928 -0.89022136 1.8188875 4294967295
2.928 -0.90041155 1.8324745 4294967295
2.9315 0.76489931 1.7864363 4294967295
2.9315 -0.86407512 1.789825 4294967295
2.928 -0.87663442 1.8053006 4294967295
2.925 0.75640517 1.7632531 4294967295
2.9349999 0.74538344 1.7504909 4294967295
2.9326668 -0.86102092 1.7699201 4294967295
2.92325 0.73474663 1.7302899 4294967295
2.9256001 0.70567209 1.7329818 4294967295
2.9236667 0.68146455 1.7412205 4294967295
2.915 0.54416853 1.7353426 4294967295
2.9236667 0.52542615 1.7298981 4294967295
2.9283333 -0.86654288 1.734092 4294967295
2.915 0.72339588 1.7082894 4294967295
2.915 0.71325099 1.7150528 4294967295
2.925 0.52227098 1.7089844 4294967295
2.915 -0.86936063 1.7015262 4294967295
2.9315 -0.87428153 1.6980076 4294967295
2.9266248 1.3679533 1.6748288 4294967295
2.9294 1.3352714 1.6869727 4294967295
2.9295998 1.3013616 1.6761601 4294967295
2.9193332 1.2810184 1.664897 4294967295
2.915 0.53064191 1.6879996 4294967295
2.9282498 -0.88010627 1.6695101 4294967295
2.9215002 1.6299225 1.6329803 4294967295
2.9304998 1.3856305 1.6432133 4294967295
2.915 1.376054 1.6541831 4294967295
2.9349999 1.2901595 1.6449405 4294967295
2.9193332 1.2727419 1.6415608 4294967295
2.9303334 -0.88073242 1.6465567 4294967295
2.9350002 2.1073234 1.6006775 4294967295
2.9150002 2.0929635 1.6000767 4294967295
2.9282501 1.7457862 1.6015813 4294967295
2.9248333 1.7256504 1.6082391 4294967295
2.924125 1.6941245 1.6187174 4294967295
2.9282222 1.6638495 1.6223313 4294967295
2.9300911 1.6334631 1.6223403 4294967295
2.9230003 1.6089622 1.6146481 4294967295
2.9259999 1.5419139 1.6052769 4294967295
2.9226665 1.5141628 1.6142124 4294967295
2.9259996 1.4845786 1.6214941 4294967295
2.925 1.4520214 1.6207365 4294967295
2.9289999 1.4251186 1.6171474 4294967295
2.9262359 1.3941237 1.618603 4294967295
2.9349999 1.3773236 1.6170208 4294967295
2.9349997 1.2924293 1.6177018 4294967295
2.9246671 1.2706908 1.6153975 4294967295
2.9232006 1.244267 1.6132681 4294967295
2.9282227 1.2169652 1.6204346 4294967295
2.9281816 1.1858605 1.624096 4294967295
2.9326665 1.1553098 1.6259006 4294967295
2.93325 1.122654 1.6255534 4294967295
2.9261997 1.0941423 1.613034 4294967295
2.9183333 1.0706768 1.6024312 4294967295
2.915 -0.86936063 1.6136034 4294967295
2.9215 -0.87468082 1.6262019 4294967295
2.9282002 2.1418428 1.5737094 4294967295
2.9241998 2.1205947 1.588553 4294967295
2.9281666 2.0854349 1.5947592 4294967295
2.9248333 2.0581648 1.5856111 4294967295
2.9150002 2.038857 1.5730236 4294967295
2.9268997 1.7830023 1.5820704 4294967295
2.9244289 1.7604723 1.5919256 4294967295
2.9349999 1.6238348 1.5734386 4294967295
2.9280591 1.6036137 1.5825338 4294967295
2.9255333 1.5787653 1.5845048 4294967295
2.9215 1.558742 1.5957067 4294967295
2.9264998 1.0657661 1.5958453 4294967295
2.915 -0.86936063 1.5797868 4294967295
2.9349999 -0.87532532 1.5802484 4294967295
2.9280002 2.1906123 1.5437524 4294967295
2.9282002 2.1744502 1.5546895 4294967295
2.9232502 2.1531348 1.5641297 4294967295
2.9250002 2.0288968 1.5630629 4294967295
2.9215002 2.002718 1.5516398 4294967295
2.9281249 1.8068533 1.5505862 4294967295
2.9232502 1.7936659 1.5641297 4294967295
2.9349999 1.6238348 1.5564145 4294967295
2.9293127 1.6037015 1.5544045 4294967295
2.9332497 1.5854335 1.5557925 4294967295
2.9349999 0.56152147 1.5461999 4294967295
2.9215 -0.88145918 1.5550516 4294967295
2.9350002 2.2230883 1.5121515 4294967295
2.9251823 2.2070024 1.5248711 4294967295
2.9150002 2.1876495 1.539207 4294967295
2.9300001 1.9932616 1.5257366 4294967295
2.9150002 1.9779876 1.5121539 4294967295
2.9150002 1.8156685 1.539207 4294967295
2.9326668 1.602131 1.5385798 4294967295
2.9349999 1.5829766 1.5393902 4294967295
2.9216664 0.5476675 1.5325048 4294967295
2.928 0.52961165 1.5199754 4294967295
2.915 -0.88965052 1.539207 4294967295
2.928 -0.91399848 1.5165787 4294967295
2.9268997 2.2257712 1.4958191 4294967295
2.9315002 1.985787 1.5041666 4294967295
2.9238334 1.9647601 1.4925368 4294967295
2.9241996 0.5173794 1.494916 4294967295
2.9349999 -0.91618353 1.4917223 4294967295
2.9226668 2.2227743 1.4729446 4294967295
2.9273751 2.213053 1.4586308 4294967295
2.9182498 0.510921 1.4624826 4294967295
2.925 -0.89608413 1.4544559 4294967295
2.9315 -0.90488458 1.4735556 4294967295
2.9291427 2.2089372 1.4373596 4294967295
2.9259999 0.5122779 1.4412054 4294967295
2.915 -0.8964138 1.4377576 4294967295
2.9326668 -0.90411651 1.4297057 4294967295
2.9282503 2.228147 1.3960733 4294967295
2.9216001 2.210218 1.4086539 4294967295
2.928 0.51942152 1.3942964 4294967295
2.9247499 -0.92146069 1.4035085 4294967295
2.9257503 2.2678342 1.369859 4294967295
2.92325 2.2446883 1.3844047 4294967295
2.9350002 0.52066326 1.3827671 4294967295
2.928 -0.88682461 1.360329 4294967295
2.9269996 -0.91367698 1.3749769 4294967295
2.9283335 2.274647 1.3456935 4294967295
2.9264998 0.52594537 1.344597 4294967295
2.915 -0.86936063 1.3396897 4294967295
2.9216664 -0.88036656 1.353987 4294967295
2.9260001 2.2841442 1.3122487 4294967295
2.9193335 2.2744362 1.3239748 4294967295
2.9326668 0.52024394 1.3185673 4294967295
2.915 -0.86936063 1.3295448 4294967295
2.9267998 -0.88238788 1.3151612 4294967295
2.9315002 2.2952547 1.2967145 4294967295
2.925 0.50531632 1.2882214 4294967295
2.9282498 -0.9055841 1.287349 4294967295
2.9315002 2.2952547 1.2627146 4294967295
2.9150002 2.2755725 1.241622 4294967295
2.9182498 0.49737936 1.252594 4294967295
2.9259999 -0.89299226 1.2511184 4294967295
2.915 -0.90317708 1.2619119 4294967295
2.9296 2.2692957 1.2248476 4294967295
2.9228001 0.49815488 1.2231908 4294967295
2.915 -0.86936063 1.2213321 4294967295
2.9315 -0.87767822 1.2355002 4294967295
2.9268 2.2576122 1.1915858 4294967295
2.9150002 2.2485192 1.194279 4294967295
2.9349999 0.50023419 1.2023101 4294967295
2.915 -0.86936063 1.194279 4294967295
2.9349999 -0.87532532 1.1920955 4294967295
2.9272861 2.2890322 1.1553905 4294967295
2.9259999 2.2705667 1.1696681 4294967295
2.9215 -0.87807757 1.1720505 4294967295
2.9257274 2.2913327 1.1399801 4294967295
2.9215002 2.2738533 1.1246018 4294967295
2.928 0.51262802 1.1225579 4294967295
2.915 0.50358874 1.1401725 4294967295
2.93325 -0.88160902 1.133853 4294967295
2.9271669 2.2646725 1.112185 4294967295
2.9150002 2.2451377 1.0962112 4294967295
2.9215 0.52165008 1.1042819 4294967295
2.925 -0.87572461 1.1049395 4294967295
2.9232502 2.2362339 1.0775117 4294967295
2.9281998 0.53168613 1.0750574 4294967295
2.9349999 -0.87532532 1.0797354 4294967295
2.9350002 2.2503271 1.0354724 4294967295
2.9215002 2.2365797 1.0432765 4294967295
2.9349999 0.52066326 1.0354724 4294967295
2.9255996 -0.88337392 1.0474005 4294967295
2.9293332 2.2595704 1.0129521 4294967295
2.9236667 0.5186528 1.0199251 4294967295
2.9349999 -0.89575446 1.0286627 4294967295
2.9326668 -0.90638101 1.0146497 4294967295
2.9296 2.2570479 0.98692524 4294967295
2.915 2.241756 0.97109008 4294967295
2.9215 0.51149005 0.98227108 4294967295
2.9215999 -0.90928006 0.98564732 4294967295
2.9259999 2.2377622 0.95355541 4294967295
2.9259999 -0.89526212 0.95241582 4294967295
2.9254284 2.2332823 0.92421663 4294967295
2.925 0.51210278 0.93530023 4294967295
2.9193332 -0.89322746 0.92886615 4294967295
2.9249997 2.239255 0.89459288 4294967295
2.928 0.51942152 0.90516722 4294967295
2.9281664 2.2326295 0.86556065 4294967295
2.928 0.52961165 0.86440647 4294967295
2.9349999 -0.92980295 0.87203956 4294967295
2.9349999 -0.93661267 0.85842013 4294967295
2.928 2.2245798 0.84402609 4294967295
2.915 2.2147028 0.82906085 4294967295
2.9349999 0.53428268 0.84480071 4294967295
2.925 -0.94358963 0.83354914 4294967295
2.9282 2.2288051 0.80328143 4294967295
2.9349999 0.5410924 0.81075227 4294967295
2.915 0.53740519 0.81553423 4294967295
2.925 -0.95037615 0.80978477 4294967295
2.9349999 -0.96385145 0.79032314 4294967295
2.9189999 2.2299252 0.76987517 4294967295
2.9303334 0.54929543 0.77403104 4294967295
2.925 -0.97416371 0.77240109 4294967295
2.928 2.2551503 0.73872745 4294967295
2.928 2.2415633 0.75231439 4294967295
2.9267778 0.55391079 0.74280179 4294967295
2.9227998 0.52526838 0.73494834 4294967295
2.9349999 0.5070439 0.73584551 4294967295
2.9349999 0.40149352 0.73584551 4294967295
2.9349999 0.37425473 0.73584551 4294967295
2.9215 -0.98313487 0.74499762 4294967295
2.9349999 -0.9910903 0.74265522 4294967295
2.9215999 2.2698634 0.71454883 4294967295
2.915 0.49006218 0.72761136 4294967295
2.9253998 0.46464881 0.72835207 4294967295
2.915 0.43595576 0.72761136 4294967295
2.9216664 0.34203464 0.72808623 4294967295
2.915 0.30068982 0.72084808 4294967295
2.9303334 0.28866836 0.72190458 4294967295
2.915 0.24658345 0.7140848 4294967295
2.9281998 0.22729647 0.71496367 4294967295
2.915 0.18571377 0.70732152 4294967295
2.9326668 0.17322531 0.70845675 4294967295
2.9303334 0.13230507 0.70830685 4294967295
2.9259999 0.10719312 0.71256274 4294967295
2.928 0.077846639 0.72174382 4294967295
2.9241996 0.043846991 0.72826666 4294967295
2.9236667 0.0098873219 0.72822863 4294967295
2.9349999 -0.0036836595 0.72903585 4294967295
2.9268003 -0.044435982 0.72166109 4294967295
2.9350002 -0.071780659 0.72222614 4294967295
2.9215999 -0.10533997 0.71181893 4294967295
2.9282501 -0.13617839 0.70817292 4294967295
2.9349999 -0.17392617 0.70860672 4294967295
2.9282002 -0.1938832 0.70816976 4294967295
2.9259999 -0.22768794 0.71481717 4294967295
2.9315 -0.25873038 0.72198498 4294967295
2.925 -0.28534558 0.72494197 4294967295
2.9299998 -0.31466433 0.72698891 4294967295
2.9215 -0.33920398 0.72129595 4294967295
2.925 -0.37522611 0.71305978 4294967295
2.9247499 -0.40744427 0.70794803 4294967295
2.928 -0.43505955 0.70815688 4294967295
2.9175999 -0.46396416 0.7074886 4294967295
2.915 -0.48385265 0.70732152 4294967295
2.9259999 -0.56037098 0.70802838 4294967295
2.915 -0.59882873 0.70055819 4294967295
2.915 -0.61573696 0.70055819 4294967295
2.915 -0.64617175 0.70055819 4294967295
2.915 -0.66646171 0.70055819 4294967295
2.9259999 -0.70969415 0.70802838 4294967295
2.9349999 -0.77317983 0.71541643 4294967295
2.9349999 -0.79701376 0.71541643 4294967295
2.9349999 -0.81403804 0.71541643 4294967295
2.915 -0.85921568 0.70732152 4294967295
2.9349999 -0.89575446 0.71541643 4294967295
2.9264998 -0.91011781 0.71485049 4294967295
2.9259999 -0.94051397 0.72160602 4294967295
2.928 -0.96834612 0.72853726 4294967295
2.9249997 2.2697942 0.68419975 4294967295
2.9281425 2.2547662 0.65477991 4294967295
2.9215 2.2467396 0.64671868 4294967295
2.9314997 2.2510405 0.62336206 4294967295
2.9183331 2.2476857 0.62741828 4294967295
2.9315 2.2510405 0.60635811 4294967295
2.9243333 2.2393012 0.59427309 4294967295
2.9315 2.2510405 0.55194545 4294967295
2.9270833 2.2391503 0.56887442 4294967295
2.9309998 2.255029 0.53639817 4294967295
2.915 2.2485192 0.54500234 4294967295
2.9349999 2.2503271 0.5179351 4294967295
2.9189999 2.2366974 0.50439191 4294967295
2.9349999 2.2367077 0.47367203 4294967295
2.9247499 2.2271979 0.44669396 4294967295
2.915 2.2147028 0.43002629 4294967295
2.9349999 2.2230883 0.42259929 4294967295
2.9256001 2.2132444 0.40797955 4294967295
2.925 2.225682 0.37542564 4294967295
2.9193332 2.2134764 0.38925242 4294967295
2.9315 2.2510405 0.34450132 4294967295
2.9238331 2.2383606 0.36079121 4294967295
2.92975 2.2547977 0.32420743 4294967295
2.915 2.2485192 0.32181352 4294967295
2.925 2.2833557 0.2838195 4294967295
2.9242001 2.2664552 0.2994847 4294967295
2.9349999 2.3116145 0.25576165 4294967295
2.9216664 2.2965887 0.26938462 4294967295
2.9349999 2.3116145 0.24214223 4294967295
2.9282498 2.2994926 0.22918943 4294967295
2.9315 2.2918499 0.21866804 4294967295
2.9235997 2.2653115 0.20455468 4294967295
2.9271667 2.2590239 0.17722434 4294967295
2.9349999 2.2503271 0.15702099 4294967295
2.9248333 2.2334609 0.14808774 4294967295
2.928 2.2177863 0.13071284 4294967295
2.9282856 2.2082899 0.11515188 4294967295
2.9228182 2.2329476 0.081469625 4294967295
2.9216664 2.2129738 0.095406592 4294967295
2.9267859 2.2435296 0.055211008 4294967295
2.93325 2.2506838 0.019426227 4294967295
2.9176002 2.2423968 0.02785632 4294967295
2.9349999 2.2503271 0.0038027167 4294967295
2.9242001 2.2420373 -0.0085480809 4294967295
2.9241998 2.2352617 -0.031588733 4294967295
2.9199998 2.2303488 -0.059611499 4294967295
2.9295998 2.2325923 -0.09378475 4294967295
2.9303334 2.2263525 -0.12567925 4294967295
2.915 2.2147028 -0.11780077 4294967295
2.9349999 2.2571368 -0.16984463 4294967295
2.9267998 2.2372308 -0.15296477 4294967295
2.9315 2.266346 -0.18602192 4294967295
2.9282002 2.2614126 -0.21173048 4294967295
2.915 2.2485192 -0.22601354 4294967295
2.9308 2.253907 -0.24364728 4294967295
2.915 2.2451377 -0.24630338 4294967295
2.9349999 2.2503271 -0.26518047 4294967295
2.9281664 2.2348895 -0.27694237 4294967295
2.915 2.2147028 -0.28688323 4294967295
2.9349999 2.2230883 -0.29241925 4294967295
2.9247499 2.2153246 -0.30653554 4294967295
2.9259999 2.2094748 -0.3340553 4294967295
2.9271426 2.1986992 -0.36203873 4294967295
2.9300001 2.2005975 -0.39638847 4294967295
2.9315 2.2068341 -0.42408127 4294967295
2.9549999 -0.90185839 2.1702423 4294967295
2.948333 0.77613217 2.1459825 4294967295
2.9467502 -0.897623 2.1485257 4294967295
2.9484999 0.7830171 2.1152968 4294967295
2.9532499 -0.89104074 2.1247211 4294967295
2.9517498 0.78388017 2.0965285 4294967295
2.9562497 -0.88336939 2.0989041 4294967295
2.9419999 0.78129089 2.0640061 4294967295
2.9526665 -0.88744485 2.0593133 4294967295
2.9419999 0.78129089 2.0367022 4294967295
2.9506664 -0.89368987 2.0377572 4294967295
2.961 0.77946657 1.9949722 4294967295
2.948333 -0.88157713 2.0091844 4294967295
2.9419999 0.77446496 1.9786817 4294967295
2.9549999 -0.88129008 1.964559 4294967295
2.9579999 0.77181381 1.9351451 4294967295
2.9514999 -0.89052927 1.942282 4294967295
2.9514999 0.7666828 1.9114552 4294967295
2.9419999 -0.89789081 1.9138353 4294967295
2.9549999 -0.90185839 1.9062822 4294967295
2.9565001 0.76456279 1.8864123 4294967295
2.9598 -0.90332341 1.8844931 4294967295
2.9589999 0.76520932 1.863529 4294967295
2.9419999 -0.89789081 1.8421628 4294967295
2.9579999 -0.90277404 1.8596516 4294967295
2.9420002 0.76763898 1.8216851 4294967295
2.9497998 -0.88656515 1.8251181 4294967295
2.9504998 0.76414156 1.7946233 4294967295
2.9514999 -0.86655027 1.8019314 4294967295
2.9526665 0.75214541 1.7693137 4294967295
2.957 0.73152876 1.7562863 4294967295
2.9548001 0.70653278 1.760166 4294967295
2.9484999 -0.86566949 1.7595637 4294967295
2.9420002 0.7335093 1.7420491 4294967295
2.9419999 0.5560348 1.7465997 4294967295
2.9534001 0.52254456 1.7362475 4294967295
2.9419999 -0.87058705 1.7261219 4294967295
2.9549999 1.3572278 1.6903148 4294967295
2.957 1.3409946 1.6911069 4294967295
2.9484999 0.53332722 1.7014074 4294967295
2.9499998 -0.87466091 1.7105823 4294967295
2.9547501 1.3828138 1.6696458 4294967295
2.961 1.3737237 1.6858211 4294967295
2.9514999 1.3248044 1.6854937 4294967295
2.9532499 1.3101754 1.6724807 4294967295
2.9420002 0.55148417 1.6783403 4294967295
2.9560001 -0.88158834 1.6769736 4294967295
2.9511428 1.3833263 1.6496609 4294967295
2.9560001 1.3720765 1.6358435 4294967295
2.9609997 1.3290685 1.6331509 4294967295
2.9516249 1.3077471 1.6444736 4294967295
2.9509997 -0.87735802 1.6435513 4294967295
2.9558337 1.7485129 1.6049157 4294967295
2.9530001 1.7238334 1.6151298 4294967295
2.9538336 1.694773 1.6201738 4294967295
2.9570713 1.6664237 1.6151642 4294967295
2.9485002 1.6415701 1.6104294 4294967295
2.9549999 1.5663391 1.6011854 4294967295
2.9529998 1.5437346 1.6102391 4294967295
2.9526665 1.5160019 1.6185938 4294967295
2.9538572 1.4825168 1.623278 4294967295
2.9526665 1.4520661 1.6174511 4294967295
2.9533334 1.4261175 1.61046 4294967295
2.9537499 1.3966143 1.6069976 4294967295
2.9527783 1.3649477 1.6148279 4294967295
2.9581766 1.3370893 1.6120334 4294967295
2.9488003 1.307165 1.6098486 4294967295
2.9514999 1.2768575 1.6033179 4294967295
2.9492218 1.2454618 1.6021051 4294967295
2.9521997 1.2141391 1.6083679 4294967295
2.9547272 1.1885108 1.6166557 4294967295
2.9514997 1.1535938 1.6238618 4294967295
2.9526665 1.1251214 1.6201074 4294967295
2.9495001 1.1037771 1.6071417 4294967295
2.9445999 -0.87135643 1.6110321 4294967295
2.9541113 2.1415994 1.5802947 4294967295
2.952167 2.1162112 1.5927168 4294967295
2.9512224 2.084723 1.5860939 4294967295
2.9463334 2.0607626 1.5774964 4294967295
2.951462 1.7814797 1.5793391 4294967295
2.9536669 1.7643625 1.5915473 4294967295
2.961 1.6588298 1.5862057 4294967295
2.9484997 1.6388397 1.5858047 4294967295
2.9508748 1.5761299 1.5859756 4294967295
2.961 1.2638034 1.5965108 4294967295
2.9603336 1.2402424 1.5901617 4294967295
2.9610002 1.2145683 1.5890683 4294967295
2.9610002 1.191668 1.5827708 4294967295
2.9526665 1.09927 1.5957563 4294967295
2.9546669 -0.87890065 1.5827876 4294967295
2.9538574 2.2001555 1.5478944 4294967295
2.954 2.174067 1.5622659 4294967295
2.9420002 2.1533051 1.5691252 4294967295
2.9610002 2.050421 1.5690306 4294967295
2.9526668 2.0263588 1.5569229 4294967295
2.9420002 2.0099602 1.5486474 4294967295
2.9483333 1.8044883 1.5531372 4294967295
2.9560716 1.7912599 1.5628691 4294967295
2.9610002 1.7584453 1.5552906 4294967295
2.9610002 1.7344002 1.5552906 4294967295
2.961 1.6897449 1.5552906 4294967295
2.9604547 1.6678926 1.5613443 4294967295
2.943857 1.6384951 1.5580816 4294967295
2.9547501 1.583338 1.5599461 4294967295
2.961 1.423875 1.5497947 4294967295
2.961 1.4046389 1.5449855 4294967295
2.961 1.2054081 1.5655956 4294967295
2.9610002 1.1877424 1.5670677 4294967295
2.961 1.164188 1.5690306 4294967295
2.9532499 0.55472547 1.5525843 4294967295
2.9484999 -0.89131957 1.5543406 4294967295
2.9570003 2.2271709 1.5184432 4294967295
2.9532502 2.2129238 1.5320246 4294967295
2.9595001 2.0201986 1.5290105 4294967295
2.9420002 2.0031343 1.5179307 4294967295
2.9549999 1.4086487 1.5394806 4294967295
2.9419999 0.5423829 1.5349954 4294967295
2.9483998 0.52576202 1.5235043 4294967295
2.9483998 -0.91489685 1.5235099 4294967295
2.9523079 2.2266965 1.4953398 4294967295
2.9560001 1.9975786 1.5000403 4294967295
2.9420002 1.9758308 1.487214 4294967295
2.9514999 0.51330739 1.4937282 4294967295
2.9463332 -0.91287524 1.4909039 4294967295
2.9526668 2.2227538 1.4770193 4294967295
2.9557142 2.2162359 1.4623225 4294967295
2.9419999 -0.89789081 1.4599102 4294967295
2.9579999 -0.90277404 1.4753199 4294967295
2.9610002 2.2221718 1.4316301 4294967295
2.9484999 2.2144971 1.4380431 4294967295
2.9463332 0.51583779 1.4271045 4294967295
2.9419999 -0.89789081 1.4462583 4294967295
2.957 -0.90933418 1.4326794 4294967295
2.9580002 2.2576706 1.3929563 4294967295
2.9580002 2.237078 1.4066858 4294967295
2.9420002 2.2147384 1.4189545 4294967295
2.9579999 0.82671136 1.3998263 4294967295
2.9589999 0.51805544 1.4104136 4294967295
2.9526665 -0.92397141 1.400512 4294967295
2.9550002 2.2862298 1.3646499 4294967295
2.9498 2.2726142 1.3789084 4294967295
2.957 0.52456605 1.3686473 4294967295
2.9534001 -0.88764769 1.368984 4294967295
2.9526665 -0.91484296 1.383395 4294967295
2.9536002 2.2865117 1.3416392 4294967295
2.9565001 0.5244773 1.3445051 4294967295
2.9499998 -0.87295443 1.3426669 4294967295
2.9610002 2.311482 1.3010998 4294967295
2.9522002 2.2991252 1.3152194 4294967295
2.9526665 0.51466131 1.3171728 4294967295
2.9514999 -0.88537675 1.31742 4294967295
2.9549999 -0.90185839 1.306373 4294967295
2.9550002 2.3136542 1.2789485 4294967295
2.9420002 2.3034756 1.2858486 4294967295
2.9526665 0.50324523 1.2852147 4294967295
2.9514999 -0.90934473 1.2883108 4294967295
2.9610002 2.311482 1.2667496 4294967295
2.9506667 2.2965591 1.2504413 4294967295
2.9609997 0.49779558 1.2530094 4294967295
2.9609997 -0.88994956 1.2530094 4294967295
2.9484999 -0.90328759 1.2670101 4294967295
2.9610002 2.287437 1.2358344 4294967295
2.9547503 2.2723141 1.2188911 4294967295
2.961 0.49779558 1.2392695 4294967295
2.9499998 -0.87295443 1.2194809 4294967295
2.9520004 2.267266 1.1950047 4294967295
2.948333 0.50250667 1.1882933 4294967295
2.9546669 -0.87890065 1.1920336 4294967295
2.9530001 2.2866244 1.1600075 4294967295
2.9526668 2.277559 1.1733136 4294967295
2.9420002 -0.88423896 1.1595688 4294967295
2.9523754 2.2876101 1.1404116 4294967295
2.9485002 2.2777729 1.1233486 4294967295
2.9549999 0.51049906 1.1349704 4294967295
2.9419999 0.50825316 1.1390909 4294967295
2.9579999 -0.8821848 1.1253036 4294967295
2.9532502 2.2643163 1.1054881 4294967295
2.9420002 2.2488682 1.0913093 4294967295
2.9499998 0.52504176 1.1048234 4294967295
2.9419999 -0.87741297 1.1083741 4294967295
2.9610002 2.2565219 1.0881289 4294967295
2.9420004 2.2420423 1.0708315 4294967295
2.9526665 0.53064799 1.079694 4294967295
2.9546669 -0.87661064 1.0732177 4294967295
2.9580004 2.2610953 1.0377977 4294967295
2.9420004 2.2443175 1.0503536 4294967295
2.9463332 0.52267373 1.0511448 4294967295
2.9558334 -0.88839155 1.044847 4294967295
2.9560003 2.2719126 1.0172025 4294967295
2.9589999 0.51805544 1.0122306 4294967295
2.9526665 -0.90798223 1.0157624 4294967295
2.9562004 2.2652049 0.98431897 4294967295
2.9419999 0.51507914 0.99574614 4294967295
2.9463332 -0.91059995 0.98731542 4294967295
2.9549999 2.2519493 0.96013975 4294967295
2.9499998 2.2464139 0.95253372 4294967295
2.961 -0.89681959 0.9472934 4294967295
2.9484999 -0.90328759 0.96600509 4294967295
2.9548001 2.2463064 0.92377841 4294967295
2.9579999 0.51788038 0.9262678 4294967295
2.9419999 -0.89789081 0.92748666 4294967295
2.9549999 2.2519493 0.89843482 4294967295
2.961 2.2496519 0.88202816 4294967295
2.9514999 0.52359039 0.89797556 4294967295
2.9549999 -0.92928284 0.88129455 4294967295
2.9516666 2.2414105 0.86604023 4294967295
2.9514999 0.53043836 0.87058365 4294967295
2.9457996 2.2298946 0.83643079 4294967295
2.9579999 0.53846961 0.83704793 4294967295
2.9526665 -0.94910121 0.83303976 4294967295
2.9526665 2.2398951 0.805637 4294967295
2.9463332 0.54318178 0.79819292 4294967295
2.9463332 -0.95617664 0.80503899 4294967295
2.961 -0.96551985 0.79271781 4294967295
2.9528573 2.2463906 0.7763027 4294967295
2.9558334 0.54721355 0.77281284 4294967295
2.961 0.53901571 0.77210772 4294967295
2.9546669 -0.97715068 0.77843857 4294967295
2.9547143 2.2624958 0.74317169 4294967295
2.9419999 2.2488682 0.75001216 4294967295
2.9535999 0.54726392 0.75229919 4294967295
2.9547501 0.52672833 0.74672979 4294967295
2.9484997 0.49225849 0.73683834 4294967295
2.961 0.46688044 0.73775762 4294967295
2.9549999 0.4350819 0.73731637 4294967295
2.9526665 0.3525154 0.73714477 4294967295
2.9589999 0.31208929 0.73074514 4294967295
2.9549999 0.071708381 0.73046029 4294967295
2.957 0.037457835 0.73746347 4294967295
2.9594998 0.013446733 0.73764729 4294967295
2.9598 -0.044923797 0.73080212 4294967295
2.961 -0.065546513 0.73088759 4294967295
2.961 -0.26134223 0.73088759 4294967295
2.9580002 -0.2851086 0.73410892 4294967295
2.961 -0.30943239 0.73775762 4294967295
2.957 -0.33989236 0.73060274 4294967295
2.961 -0.95864981 0.73088759 4294967295
2.9549999 -0.97384745 0.73388827 4294967295
2.9546669 -0.99315125 0.75100249 4294967295
2.9483998 2.285219 0.71358424 4294967295
2.9419999 2.269346 0.72953439 4294967295
2.9419999 0.33077872 0.72953439 4294967295
2.9419999 0.32395276 0.72953439 4294967295
2.9419999 0.27617118 0.72270846 4294967295
2.9546669 0.26363486 0.72358119 4294967295
2.9547501 0.19851124 0.71673137 4294967295
2.9419999 0.15671718 0.70905656 4294967295
2.9419999 0.14647827 0.70905656 4294967295
2.9579999 0.10609999 0.72037935 4294967295
2.9419999 0.074805886 0.72612143 4294967295
