# .PCD v0.7 - Point Cloud Data file format
VERSION 0.7
FIELDS x y z rgb
SIZE 4 4 4 4
TYPE F F F U
COUNT 1 1 1 1
WIDTH 1158
HEIGHT 1
VIEWPOINT 0 0 0 1 0 0 0
POINTS 1158
DATA ascii
2.5086253 1.8491524 1.8081698 4294967295
2.5115719 1.8082987 1.8043891 4294967295
2.5046997 1.7838178 1.7987357 4294967295
2.5012221 1.7552303 1.7942932 4294967295
2.5025001 1.7250191 1.7931069 4294967295
2.5020001 1.6919262 1.7949539 4294967295
2.502667 1.6633425 1.7956796 4294967295
2.5051 1.6361858 1.8001127 4294967295
2.5134001 1.4201287 1.7968888 4294967295
2.5026424 1.3958321 1.794435 4294967295
2.493 1.3741499 1.7978363 4294967295
2.4999583 1.2990224 1.7923561 4294967295
2.5116665 1.2835431 1.7983388 4294967295
2.5043333 1.2105868 1.8062055 4294967295
2.5040717 1.1857879 1.7980479 4294967295
2.5046663 1.155221 1.7877841 4294967295
2.5017333 1.1256267 1.784367 4294967295
2.5022106 1.0947073 1.784448 4294967295
2.5021071 1.0631632 1.7906147 4294967295
2.5019214 1.034853 1.7958932 4294967295
2.5056205 1.0063816 1.799582 4294967295
2.5119998 0.97909158 1.8043286 4294967295
2.5126154 0.91031808 1.802999 4294967295
2.5047197 0.88344193 1.8006643 4294967295
2.5023437 0.85412365 1.7974923 4294967295
2.4990003 0.82441127 1.794325 4294967295
2.499423 0.79444665 1.788224 4294967295
2.5036364 0.77312267 1.8025059 4294967295
2.5026665 -0.91525507 1.7947067 4294967295
2.5020373 2.2262211 1.7665622 4294967295
2.515286 2.2098892 1.7625285 4294967295
2.5142224 2.1740098 1.7743602 4294967295
2.5126672 2.1470697 1.7740686 4294967295
2.5170002 2.1283934 1.7796409 4294967295
2.517 1.4159292 1.776721 4294967295
2.5072501 1.3926235 1.7696474 4294967295
2.5000999 1.3672502 1.7662308 4294967295
2.5027142 1.3361267 1.7704073 4294967295
2.5032501 1.3138012 1.7785484 4294967295
2.517 1.115176 1.7796409 4294967295
2.517 1.1064161 1.7796409 4294967295
2.517 1.0635904 1.7796409 4294967295
2.517 1.0450975 1.7796409 4294967295
2.5150001 0.82545298 1.77864 4294967295
2.5153334 0.80220753 1.7788068 4294967295
2.507 -0.92218 1.7659013 4294967295
2.4930003 2.2257106 1.7425653 4294967295
2.5026367 2.2040124 1.7355003 4294967295
2.5145004 2.1875341 1.7258804 4294967295
2.5051668 -0.91859114 1.7330228 4294967295
2.4940002 2.19574 1.7125815 4294967295
2.5025456 2.1850309 1.7029889 4294967295
2.5061431 -0.91188669 1.7052563 4294967295
2.5014615 2.1857708 1.6749744 4294967295
2.493 -0.89967769 1.6635147 4294967295
2.506 -0.90261066 1.6770158 4294967295
2.5053637 2.1940904 1.6401135 4294967295
2.4979169 2.1880696 1.6479012 4294967295
2.493 -0.89967769 1.6461623 4294967295
2.5145001 -0.90160257 1.6471175 4294967295
2.5016816 2.2038057 1.6160336 4294967295
2.493 -0.89967769 1.6288097 4294967295
2.5045002 -0.90382779 1.61357 4294967295
2.5021179 2.2049165 1.586069 4294967295
2.5 -0.90993232 1.5855036 4294967295
2.5135002 2.2260282 1.5431594 4294967295
2.5042171 2.2074907 1.5557327 4294967295
2.5050001 0.54610652 1.5469664 4294967295
2.5059998 0.53175616 1.5434831 4294967295
2.5020001 -0.91286886 1.5531869 4294967295
2.5043888 2.2374797 1.5260441 4294967295
2.5124998 0.52732462 1.5296433 4294967295
2.5045002 -0.90817314 1.5249547 4294967295
2.5038466 2.2325428 1.4986734 4294967295
2.5013335 2.2157218 1.4835526 4294967295
2.5025001 0.51650542 1.5081902 4294967295
2.5046 -0.90792537 1.4962251 4294967295
2.5052001 2.1997569 1.4668086 4294967295
2.4946671 2.1886089 1.4559054 4294967295
2.501111 -0.9161402 1.4641129 4294967295
2.5115719 2.1953912 1.4306179 4294967295
2.4955003 2.1874108 1.4320999 4294967295
2.5028 -0.92469096 1.4328272 4294967295
2.5038965 2.2046258 1.4030707 4294967295
2.5025001 -0.92922312 1.4152904 4294967295
2.5047777 -0.93426603 1.4022269 4294967295
2.4963336 2.2238503 1.3696491 4294967295
2.5064545 2.2167268 1.3770468 4294967295
2.5120001 -0.92984754 1.3633317 4294967295
2.5033748 -0.93244916 1.376394 4294967295
2.5011036 2.2265785 1.3436495 4294967295
2.5133336 2.2166431 1.3527631 4294967295
2.5015001 -0.92377084 1.3438327 4294967295
2.503778 2.2252913 1.3224814 4294967295
2.5059171 2.2144339 1.3060465 4294967295
2.5120001 0.60298717 1.3108773 4294967295
2.5115001 0.50380623 1.3136246 4294967295
2.5037332 -0.90972739 1.3129084 4294967295
2.5018079 2.2014694 1.2866879 4294967295
2.5075002 2.1857817 1.275282 4294967295
2.493 0.5058794 1.2788665 4294967295
2.5030713 -0.91076529 1.2852445 4294967295
2.4930003 2.1963077 1.2600679 4294967295
2.4998078 2.1816454 1.2550621 4294967295
2.517 0.6742658 1.2482128 4294967295
2.5016999 -0.91731822 1.2553951 4294967295
2.5035262 2.1750631 1.2247382 4294967295
2.5057142 -0.91173559 1.2250144 4294967295
2.5022223 2.1736116 1.1955526 4294967295
2.5036666 -0.89770299 1.18723 4294967295
2.5046 -0.90268713 1.2027795 4294967295
2.5018129 2.1822906 1.1654496 4294967295
2.5029998 -0.89404172 1.165926 4294967295
2.5170002 2.192632 1.1489351 4294967295
2.5009549 2.1854849 1.1340964 4294967295
2.5039999 -0.89782524 1.144222 4294967295
2.5002999 -0.90345895 1.1314033 4294967295
2.5028613 2.1715667 1.1044292 4294967295
2.5030625 -0.90510696 1.1051576 4294967295
2.5063334 2.1910906 1.0667977 4294967295
2.5029502 2.181813 1.0789354 4294967295
2.5037692 -0.91561794 1.0750139 4294967295
2.5080001 2.1935153 1.0448471 4294967295
2.493 2.1890774 1.0446069 4294967295
2.493 0.50009519 1.0359306 4294967295
2.5049999 -0.91852784 1.0442226 4294967295
2.50425 2.2013643 1.0140426 4294967295
2.493 2.1890774 1.0272543 4294967295
2.4980001 0.50109822 1.0224681 4294967295
2.5049999 -0.91852909 1.015159 4294967295
2.5032501 2.2270997 0.97706968 4294967295
2.4988334 2.212549 0.99075902 4294967295
2.5016665 -0.9137575 0.98515439 4294967295
2.5012941 2.2362857 0.95520014 4294967295
2.5044999 -0.90744871 0.95405161 4294967295
2.5047855 2.2396758 0.92587614 4294967295
2.5 -0.91089636 0.92426866 4294967295
2.5047855 2.2297125 0.89681524 4294967295
2.5090001 2.2147138 0.88108397 4294967295
2.5020001 0.50770563 0.89555049 4294967295
2.5028 -0.90902126 0.89571142 4294967295
2.5027497 2.2029324 0.86858779 4294967295
2.5080001 2.1869471 0.85646677 4294967295
2.5027144 0.50618207 0.86247796 4294967295
2.5013752 -0.90631515 0.86208022 4294967295
2.493 2.1948617 0.84794462 4294967295
2.5019584 2.1841002 0.83629453 4294967295
2.5097499 0.50490129 0.84139109 4294967295
2.5035002 -0.90635896 0.83479583 4294967295
2.5044444 2.192637 0.79715705 4294967295
2.4975715 2.1860428 0.80715859 4294967295
2.5034282 -0.90923363 0.80409515 4294967295
2.5022857 2.1961031 0.77341449 4294967295
2.5056665 -0.91624612 0.77286983 4294967295
2.5027497 2.2029333 0.74421948 4294967295
2.4979999 0.50109816 0.73848242 4294967295
2.5006666 -0.91146368 0.7477473 4294967295
2.5024998 2.202672 0.71591389 4294967295
2.503 0.50790858 0.7214976 4294967295
2.4970002 -0.90691465 0.71520948 4294967295
2.50437 2.1994622 0.68566501 4294967295
2.5079999 0.51474214 0.68116719 4294967295
2.5046248 -0.91040009 0.68602884 4294967295
2.506182 2.2244172 0.64668757 4294967295
2.5023997 2.2123997 0.66300374 4294967295
2.5043335 0.52172816 0.65576929 4294967295
2.5017142 -0.90571219 0.6533922 4294967295
2.5043333 2.2249594 0.6278584 4294967295
2.5002501 2.2157276 0.61250311 4294967295
2.493 0.52323192 0.63682187 4294967295
2.5032225 -0.92078036 0.63438714 4294967295
2.5045455 -0.94820988 0.62124699 4294967295
2.5038235 2.2077863 0.59375685 4294967295
2.5013332 0.51917744 0.58789402 4294967295
2.5076666 -0.9573198 0.58223611 4294967295
2.5035832 -0.96301651 0.59376073 4294967295
2.5035264 2.1958556 0.56409866 4294967295
2.4979999 0.51268977 0.57040465 4294967295
2.5075002 0.50009787 0.55751169 4294967295
2.5027781 -0.91610795 0.55825078 4294967295
2.5007498 -0.94404161 0.57191563 4294967295
2.5018637 2.1952565 0.53486162 4294967295
2.493 0.48274267 0.547167 4294967295
2.5028334 0.4643155 0.54340488 4294967295
2.4993334 0.43373656 0.53758103 4294967295
2.493 0.40754822 0.53559864 4294967295
2.4960001 0.3732802 0.53561741 4294967295
2.4990001 0.34474298 0.53563619 4294967295
2.4970002 0.31550434 0.53562367 4294967295
2.493 0.28318825 0.53559864 4294967295
2.517 0.25379521 0.54158866 4294967295
2.4970002 0.22279963 0.53562367 4294967295
2.5076666 0.19273539 0.53472638 4294967295
2.5120001 0.16586705 0.53571749 4294967295
2.5029998 0.13624975 0.53566116 4294967295
2.493 0.10677061 0.53559864 4294967295
2.501111 0.072294287 0.53372133 4294967295
2.5096002 0.043433711 0.53570247 4294967295
2.5093999 0.014307003 0.53570122 4294967295
2.5011666 -0.016697854 0.52888256 4294967295
2.5084002 -0.043902501 0.52405512 4294967295
2.5142 -0.07314533 0.52406454 4294967295
2.5026252 -0.10622153 0.52623433 4294967295
2.5010002 -0.13658588 0.52984595 4294967295
2.5033333 -0.16579242 0.53277117 4294967295
2.5088 -0.19523287 0.53569746 4294967295
2.5051668 -0.22497182 0.53374666 4294967295
2.5007145 -0.25677899 0.52819216 4294967295
2.50525 -0.28506938 0.52405006 4294967295
2.517 -0.30099237 0.52406907 4294967295
2.517 -0.38859043 0.52406907 4294967295
2.5018001 -0.40363759 0.52404445 4294967295
2.506 -0.43628669 0.52986562 4294967295
2.4998572 -0.46797943 0.53150994 4294967295
2.5087144 -0.49457675 0.53487062 4294967295
2.506 -0.52725524 0.53319937 4294967295
2.504143 -0.5592404 0.52820569 4294967295
2.5087144 -0.58438194 0.52822369 4294967295
2.5041113 -0.61576253 0.52728742 4294967295
2.4978335 -0.64350247 0.52501136 4294967295
2.493 -0.66831023 0.52403027 4294967295
2.507 -0.70404917 0.52986956 4294967295
2.5084 -0.73644602 0.52871823 4294967295
2.5040002 -0.76422364 0.52404803 4294967295
2.5055714 -0.79789728 0.52488482 4294967295
2.5019 -0.82451904 0.5275358 4294967295
2.5041428 -0.85804462 0.53152686 4294967295
2.5027273 -0.88469988 0.53988659 4294967295
2.5033476 2.2036932 0.50738066 4294967295
2.493 -0.049402397 0.51824605 4294967295
2.493 -0.066754952 0.51824605 4294967295
2.493 -0.29812238 0.51824605 4294967295
2.4959998 -0.31586149 0.51824397 4294967295
2.4959998 -0.34480333 0.51824397 4294967295
2.493 -0.36753261 0.51824605 4294967295
2.493 -0.77820981 0.51824605 4294967295
2.493 -0.78977817 0.51824605 4294967295
2.5042605 2.2080374 0.47529644 4294967295
2.5106666 2.2220552 0.43280262 4294967295
2.5015881 2.214004 0.44621006 4294967295
2.5048568 2.2249258 0.41307321 4294967295
2.493 2.2237825 0.39677817 4294967295
2.5024073 2.2093508 0.38362634 4294967295
2.4942501 2.25383 0.34607866 4294967295
2.4968889 2.2336776 0.34991249 4294967295
2.5055878 2.205739 0.35579297 4294967295
2.5027239 2.2586608 0.32601556 4294967295
2.5134664 2.2344477 0.32578167 4294967295
2.5161667 2.2133093 0.33238721 4294967295
2.5005 2.2507751 0.30938369 4294967295
2.5026085 2.2325785 0.30265594 4294967295
2.5049996 2.2105875 0.29034275 4294967295
2.4963331 2.2267468 0.25503018 4294967295
2.5040855 2.2070787 0.2652545 4294967295
2.4977367 2.2279937 0.23733377 4294967295
2.5097239 2.2111659 0.23251775 4294967295
2.5014229 2.2033646 0.20617792 4294967295
2.5010002 2.198348 0.17461753 4294967295
2.4985714 2.2254164 0.13563275 4294967295
2.502207 2.2027421 0.14787439 4294967295
2.5037334 2.235276 0.11780477 4294967295
2.5047858 2.2322068 0.08445701 4294967295
2.5035453 2.2270908 0.054342061 4294967295
2.5056 2.2233698 0.031067938 4294967295
2.4991109 2.2182679 0.020223856 4294967295
2.517 2.2218313 -0.0044391155 4294967295
2.4997058 2.217809 -0.0054426789 4294967295
2.5017388 2.2154062 -0.035955787 4294967295
2.5022855 2.209373 -0.065918028 4294967295
2.5023522 2.2040873 -0.096838236 4294967295
2.5030305 2.201021 -0.12480682 4294967295
2.5138333 2.1869535 -0.11751509 4294967295
2.5051496 2.2075677 -0.15221608 4294967295
2.5039372 2.2309673 -0.18542707 4294967295
2.493 2.2179983 -0.17007202 4294967295
2.5026999 2.2324166 -0.21630108 4294967295
2.5043335 2.2241826 -0.23614532 4294967295
2.5059166 2.2146769 -0.24874175 4294967295
2.5059166 2.2081463 -0.27490282 4294967295
2.5058184 2.1987305 -0.29676533 4294967295
2.493 2.1861854 -0.30310827 4294967295
2.5345001 0.75245678 1.9354107 4294967295
2.5436666 0.74632859 1.9346281 4294967295
2.5386667 -0.87492692 1.9318359 4294967295
2.5220001 0.78093171 1.9138013 4294967295
2.5321522 0.76323843 1.9161115 4294967295
2.5428333 0.74706316 1.9144779 4294967295
2.5344999 -0.8805452 1.9147972 4294967295
2.5220001 0.78093171 1.8962469 4294967295
2.5296922 0.76072937 1.8911915 4294967295
2.5409999 0.74789602 1.882442 4294967295
2.5282502 -0.89040351 1.8849809 4294967295
2.5469999 -0.90143681 1.8714777 4294967295
2.5395002 1.5817804 1.840975 4294967295
2.5369999 0.75319803 1.8485069 4294967295
2.5320001 0.74878019 1.8664559 4294967295
2.527 -0.89728421 1.8638028 4294967295
2.5339999 -0.90506047 1.8492941 4294967295
2.5407503 2.0453072 1.8165753 4294967295
2.5323846 2.0279353 1.823945 4294967295
2.5325561 1.9959538 1.8213685 4294967295
2.5370002 1.974566 1.8117032 4294967295
2.5300002 1.8447051 1.8107973 4294967295
2.5320003 1.8297199 1.8106465 4294967295
2.538667 1.6264049 1.8179688 4294967295
2.5346923 1.6068188 1.833274 4294967295
2.5335002 1.5744755 1.8349005 4294967295
2.5345004 1.546312 1.8273448 4294967295
2.5353336 1.5170741 1.822134 4294967295
2.5335002 1.4839754 1.8196263 4294967295
2.5325 1.4581343 1.8149985 4294967295
2.5314445 1.2674164 1.8123009 4294967295
2.5342729 1.2476381 1.8155371 4294967295
2.5369999 1.2231189 1.8112253 4294967295
2.5236669 0.94637638 1.8112749 4294967295
2.5339999 0.76582766 1.8210723 4294967295
2.5357499 -0.91215789 1.8213743 4294967295
2.5220003 2.2203937 1.7821432 4294967295
2.5220003 2.2075205 1.7844839 4294967295
2.5412855 2.1396549 1.7842102 4294967295
2.5288186 2.1138327 1.7876854 4294967295
2.5325003 2.0838983 1.7897409 4294967295
2.5314445 2.055109 1.7966545 4294967295
2.5220003 2.0389979 1.8055491 4294967295
2.5280004 1.9558471 1.806253 4294967295
2.5403335 1.9320015 1.8037498 4294967295
2.5337653 1.9060397 1.7935436 4294967295
2.5250437 1.8718061 1.7905384 4294967295
2.5366776 1.8495995 1.7968818 4294967295
2.5315003 1.8152536 1.7986283 4294967295
2.5327146 1.7890768 1.7950535 4294967295
2.5303338 1.7547957 1.7947851 4294967295
2.5370004 1.7246751 1.7976663 4294967295
2.535182 1.6929555 1.7972829 4294967295
2.5367227 1.6617773 1.7894866 4294967295
2.5356369 1.6392579 1.7948239 4294967295
2.5403335 1.4496882 1.8001534 4294967295
2.5294998 1.4339573 1.7888006 4294967295
2.539 1.3317031 1.7823963 4294967295
2.5332503 1.3016349 1.7838386 4294967295
2.5395861 1.2772435 1.7931557 4294967295
2.5469999 1.2555213 1.7828356 4294967295
2.5403333 1.2080243 1.8050605 4294967295
2.534857 1.1848314 1.794449 4294967295
2.5351248 1.1555382 1.7879658 4294967295
2.5327144 1.1275841 1.7833008 4294967295
2.5328333 1.0967225 1.7821611 4294967295
2.5280004 1.0690142 1.7816212 4294967295
2.5320003 1.0327119 1.7837083 4294967295
2.534059 1.0053127 1.7898881 4294967295
2.5334005 0.97301334 1.7974687 4294967295
2.5359583 0.94361383 1.80038 4294967295
2.5326247 0.91421545 1.7947856 4294967295
2.5347273 0.88590723 1.7933106 4294967295
2.5349998 0.85493416 1.7880454 4294967295
2.5395 0.83642453 1.7820544 4294967295
2.5403335 0.79380804 1.7926236 4294967295
2.5320001 0.77815354 1.8047718 4294967295
2.5320001 -0.92197198 1.7930201 4294967295
2.5285385 2.1997185 1.7632782 4294967295
2.5326667 2.1768684 1.7694519 4294967295
2.5290003 2.1514442 1.7750813 4294967295
2.5470002 1.9262468 1.7621524 4294967295
2.5353334 1.9031146 1.7637212 4294967295
2.5352697 1.8791245 1.7677299 4294967295
2.5345004 1.8579857 1.776638 4294967295
2.5470002 1.6514561 1.7769262 4294967295
2.5470002 1.6455467 1.7769262 4294967295
2.5361667 1.4198421 1.7725494 4294967295
2.5355713 1.3969585 1.7662343 4294967295
2.5357497 1.3676347 1.7684269 4294967295
2.5257502 1.341735 1.7737625 4294967295
2.5469999 1.2909782 1.7769262 4294967295
2.5443335 1.2727094 1.7669475 4294967295
2.5428336 1.2519842 1.7670021 4294967295
2.5419998 1.0849614 1.7774018 4294967295
2.5378337 1.0635544 1.7772961 4294967295
2.5403333 1.0439827 1.7775604 4294967295
2.5284286 0.81979251 1.7769715 4294967295
2.5295 0.80672956 1.7770846 4294967295
2.5369999 -0.927329 1.769048 4294967295
2.5350006 2.1953578 1.7374676 4294967295
2.5436668 1.9247068 1.739863 4294967295
2.5366879 1.9044646 1.7394569 4294967295
2.5320003 1.8872824 1.7425026 4294967295
2.5447779 1.3292173 1.7312187 4294967295
2.5406363 1.3064954 1.7298452 4294967295
2.5339999 -0.92034155 1.7363935 4294967295
2.5391431 2.1950867 1.7040273 4294967295
2.5220003 2.1852846 1.7060742 4294967295
2.5436666 1.3227292 1.7182258 4294967295
2.5386667 1.3122771 1.7178327 4294967295
2.5339999 -0.90975785 1.7058197 4294967295
2.5336668 2.1973467 1.6723551 4294967295
2.540333 -0.90497136 1.6763695 4294967295
2.5470002 2.2246752 1.6350987 4294967295
2.5348573 2.2073402 1.6465838 4294967295
2.5345001 -0.90581906 1.6443563 4294967295
2.539 2.2235787 1.6139281 4294967295
2.5220003 2.2116163 1.6183021 4294967295
2.5328333 -0.91013253 1.6141943 4294967295
2.5470002 2.2246752 1.5937324 4294967295
2.5328336 2.2142463 1.5818661 4294967295
2.5336668 -0.91826224 1.5842144 4294967295
2.5470002 2.2542226 1.5464566 4294967295
2.5345001 2.2328584 1.548031 4294967295
2.5345004 2.2137485 1.5605291 4294967295
2.527 0.53036791 1.5530601 4294967295
2.536 -0.91635889 1.5549363 4294967295
2.5398574 2.2546282 1.5267353 4294967295
2.5307503 2.2456834 1.5163859 4294967295
2.5345001 0.52017522 1.5208287 4294967295
2.5378332 -0.91094428 1.5231105 4294967295
2.5345001 2.2313929 1.4973165 4294967295
2.5295002 2.2152414 1.4836411 4294967295
2.5336666 -0.91435349 1.4940356 4294967295
2.5336668 2.2100763 1.4675803 4294967295
2.5350001 -0.92188662 1.4710364 4294967295
2.5370002 2.2100544 1.4364736 4294967295
2.5307498 -0.92650735 1.4356759 4294967295
2.5395 -0.93118018 1.4226379 4294967295
2.5343533 2.2097995 1.401963 4294967295
2.5358889 -0.93540984 1.4033785 4294967295
2.5334518 2.2086306 1.3745077 4294967295
2.5469999 0.51092756 1.3809913 4294967295
2.5220001 -0.92769766 1.3608375 4294967295
2.5379999 -0.93357158 1.3767486 4294967295
2.533 2.2224154 1.3374581 4294967295
2.5338755 2.2106209 1.3522999 4294967295
2.5469999 0.51092756 1.351444 4294967295
2.5220001 0.5059126 1.3374316 4294967295
2.5319998 -0.92044938 1.3423364 4294967295
2.5341432 2.2226586 1.3245592 4294967295
2.5358889 2.2129798 1.3105409 4294967295
2.5342224 -0.90474105 1.3159064 4294967295
2.5375559 2.1961164 1.2901123 4294967295
2.5280004 2.1869586 1.2783678 4294967295
2.5320001 0.5079186 1.2995501 4294967295
2.53825 -0.91379875 1.2882084 4294967295
2.5370002 2.1923957 1.2539992 4294967295
2.5220003 2.1852846 1.2535604 4294967295
2.5419998 -0.92325872 1.2584064 4294967295
2.5470002 2.195128 1.2332544 4294967295
2.5310001 2.1836836 1.2228968 4294967295
2.5336668 -0.91139489 1.2245979 4294967295
2.538667 2.1938245 1.1897014 4294967295
2.5300002 2.1851623 1.1968055 4294967295
2.533 -0.89529312 1.1905357 4294967295
2.5395 -0.90171975 1.2046311 4294967295
2.5355718 2.2003977 1.1636531 4294967295
2.5361664 -0.89367276 1.1645138 4294967295
2.5345001 2.1951194 1.1385961 4294967295
2.5390003 2.1823213 1.1249707 4294967295
2.5295 -0.89816898 1.1432638 4294967295
2.53825 -0.90275186 1.1336401 4294967295
2.533154 2.1696179 1.1036816 4294967295
2.5355716 -0.90578771 1.1056727 4294967295
2.5350001 2.1982896 1.0740401 4294967295
2.5303335 2.1827025 1.0857373 4294967295
2.5353334 -0.91789234 1.0770409 4294967295
2.5381117 2.2090552 1.0482032 4294967295
2.5369999 0.50303531 1.0597522 4294967295
2.5369999 -0.92144263 1.0450366 4294967295
2.54075 2.2265799 1.0104442 4294967295
2.5270002 2.209157 1.0224463 4294967295
2.5369999 -0.92144269 1.0126621 4294967295
2.5469999 2.2542226 0.97914708 4294967295
2.5305712 2.2363207 0.98625141 4294967295
2.5369999 -0.91751468 0.9851889 4294967295
2.5378332 2.2559164 0.95493448 4294967295
2.5220001 2.2437994 0.96293741 4294967295
2.5361669 -0.91230094 0.95660388 4294967295
2.5395 2.2554331 0.92475867 4294967295
2.527 2.2453105 0.91397369 4294967295
2.5295 0.50741708 0.91436052 4294967295
2.5395 -0.91645867 0.92770374 4294967295
2.5355716 2.2352662 0.89640975 4294967295
2.5382502 2.2111247 0.8855561 4294967295
2.5469999 0.51092756 0.89936912 4294967295
2.5369999 0.50892156 0.89493656 4294967295
2.5409999 -0.917 0.89554858 4294967295
2.5345001 2.1960995 0.8680951 4294967295
2.5220001 2.1852846 0.85761094 4294967295
2.5320001 0.5079186 0.87069893 4294967295
2.5220001 -0.91014326 0.87223959 4294967295
2.5386667 2.1957941 0.83824742 4294967295
2.5220001 2.1852846 0.83420509 4294967295
2.5419998 -0.91146296 0.83375943 4294967295
2.5335 2.1993532 0.80624235 4294967295
2.5378332 -0.91094422 0.80477452 4294967295
2.5331111 2.2053497 0.77747083 4294967295
2.5303335 0.5017134 0.77067602 4294967295
2.5350001 -0.91483468 0.77700138 4294967295
2.5365455 2.2123246 0.74611461 4294967295
2.5369999 0.50450397 0.74925137 4294967295
2.5339999 -0.91447377 0.74751735 4294967295
2.5350766 2.2106261 0.71457124 4294967295
2.5320001 0.51379329 0.7179575 4294967295
2.5369999 -0.91555643 0.71538782 4294967295
2.5362308 2.2057507 0.68162298 4294967295
2.5220001 0.51761556 0.67621535 4294967295
2.5379999 -0.91355819 0.68309039 4294967295
2.5365455 2.2294378 0.64982331 4294967295
2.5344999 2.2137339 0.66228843 4294967295
2.5469999 0.52865601 0.65412599 4294967295
2.5345001 -0.90581906 0.65272182 4294967295
2.5374999 2.2357965 0.62419319 4294967295
2.5295 0.5250237 0.62093437 4294967295
2.5349998 -0.91718453 0.6323151 4294967295
2.5347273 -0.94518936 0.6187278 4294967295
2.54 2.2256246 0.59953636 4294967295
2.5320001 2.2139027 0.58752817 4294967295
2.5295 -0.95392329 0.58571243 4294967295
2.5361667 -0.9613359 0.60059839 4294967295
2.5315001 2.2034914 0.56521171 4294967295
2.5220001 0.51761556 0.57674038 4294967295
2.5345001 0.48782393 0.5534997 4294967295
2.53 -0.91302335 0.55931026 4294967295
2.5370002 -0.93673539 0.57354838 4294967295
2.5289998 2.2001433 0.53582156 4294967295
2.5295 0.46926072 0.54756474 4294967295
2.527 0.43361562 0.54167444 4294967295
2.5320001 0.4080492 0.54171729 4294967295
2.5394998 0.37537697 0.54178166 4294967295
2.5449998 0.3452003 0.54182881 4294967295
2.5369999 0.31761771 0.54176021 4294967295
2.5253334 0.27808005 0.54166013 4294967295
2.5350001 0.22617653 0.54174304 4294967295
2.5469999 0.20954441 0.54184598 4294967295
2.5369999 0.12927151 0.54176021 4294967295
2.5320001 0.10256624 0.54171729 4294967295
2.53825 0.076305076 0.54177094 4294967295
2.5469999 0.049988583 0.54184598 4294967295
2.5469999 0.026350684 0.54184598 4294967295
2.5344999 -0.01202491 0.53585827 4294967295
2.5369999 -0.041471012 0.52998763 4294967295
2.5469999 -0.085929334 0.53002703 4294967295
2.5303335 -0.097097054 0.52996141 4294967295
2.53825 -0.13567904 0.53588176 4294967295
2.5253334 -0.15550107 0.53580093 4294967295
2.5220001 -0.23722413 0.53578007 4294967295
2.5369999 -0.25336525 0.53587395 4294967295
2.5345001 -0.28252664 0.5299778 4294967295
2.5245001 -0.31654114 0.52408117 4294967295
2.5320001 -0.34390888 0.52409327 4294967295
2.5280001 -0.37267861 0.52408683 4294967295
2.5295 -0.41692147 0.52995813 4294967295
2.5419998 -0.4425762 0.53590518 4294967295
2.5307498 -0.45822558 0.53583485 4294967295
2.5469999 -0.4936831 0.54184598 4294967295
2.5469999 -0.52323043 0.54184598 4294967295
2.5395 -0.55411351 0.53588957 4294967295
2.5220001 -0.6497528 0.52992862 4294967295
2.5220001 -0.67315871 0.52992862 4294967295
2.5395 -0.76623684 0.52999747 4294967295
2.5369999 -0.79485881 0.52998763 4294967295
2.5320001 -0.82853639 0.53584266 4294967295
2.5220001 -0.8516286 0.53578007 4294967295
2.5353334 -0.88256884 0.54370219 4294967295
2.5357499 2.2118921 0.5064531 4294967295
2.5469999 2.2246752 0.47684175 4294967295
2.5320001 2.2174482 0.47709593 4294967295
2.5347273 2.2256997 0.44231361 4294967295
2.527 2.2159951 0.45666569 4294967295
2.5347271 2.2326565 0.41396406 4294967295
2.53825 2.2258418 0.39306426 4294967295
2.5339999 2.2115326 0.3800441 4294967295
2.5328333 2.2020032 0.35416073 4294967295
2.5220001 2.2203937 0.3222014 4294967295
2.5320001 2.2112813 0.32382035 4294967295
2.5322776 2.2091854 0.29593617 4294967295
2.5335 2.2064052 0.26546165 4294967295
2.5365834 2.2111545 0.23424333 4294967295
2.5338001 2.201596 0.20523313 4294967295
2.5469999 2.1892183 0.20500591 4294967295
2.534857 2.2073328 0.17584392 4294967295
2.5322943 2.2035093 0.14255354 4294967295
2.5419998 2.2527406 0.10831514 4294967295
2.5326252 2.2352154 0.11791405 4294967295
2.5419998 2.2124403 0.12206525 4294967295
2.5444999 2.2564361 0.090196371 4294967295
2.529 2.2429776 0.081653208 4294967295
2.5369997 2.2389407 0.056413382 4294967295
2.5365455 2.2358656 0.025481433 4294967295
2.5361667 2.2318811 -0.0074545145 4294967295
2.5343077 2.2253335 -0.034504592 4294967295
2.5220001 2.2145422 -0.049366951 4294967295
2.5389998 2.2223969 -0.064995944 4294967295
2.5245001 2.2152686 -0.064583242 4294967295
2.5469999 2.2246752 -0.08751303 4294967295
2.5295 2.2070413 -0.095653176 4294967295
2.5332501 2.1940441 -0.12732744 4294967295
2.5320001 2.2233229 -0.16911805 4294967295
2.5348125 2.2048142 -0.15260196 4294967295
2.5469999 2.2542226 -0.19683832 4294967295
2.5353332 2.2366912 -0.1837405 4294967295
2.5395 2.2519994 -0.20944899 4294967295
2.5303335 2.2433708 -0.21858561 4294967295
2.5344999 2.2296107 -0.23565042 4294967295
2.5343077 2.205195 -0.24662679 4294967295
2.5347269 2.2091198 -0.27464122 4294967295
2.5370002 2.2037594 -0.30231905 4294967295
2.565125 0.74369073 1.943584 4294967295
2.5628335 -0.87631494 1.9413092 4294967295
2.5658889 0.74424446 1.9185438 4294967295
2.5611668 -0.88664228 1.9146392 4294967295
2.5632501 0.74760759 1.8845425 4294967295
2.552 -0.8972854 1.8918941 4294967295
2.5669999 -0.90404838 1.8835732 4294967295
2.5670002 1.5989094 1.8403989 4294967295
2.5648572 0.75594443 1.8520378 4294967295
2.5586667 0.74874049 1.8657798 4294967295
2.562 -0.91070849 1.8536612 4294967295
2.5650003 2.0559046 1.821506 4294967295
2.5601819 2.0261021 1.8255352 4294967295
2.5610001 1.9962311 1.8170952 4294967295
2.5657501 1.9701875 1.8114772 4294967295
2.5657504 1.6297452 1.8222612 4294967295
2.5651252 1.6085162 1.8353275 4294967295
2.5631542 1.5749882 1.8338293 4294967295
2.5641432 1.5410156 1.8295717 4294967295
2.5660002 1.5125566 1.8291616 4294967295
2.5651252 1.4854026 1.8200836 4294967295
2.5570002 1.2634113 1.8144851 4294967295
2.5564446 1.2469933 1.8145332 4294967295
2.5669999 0.785932 1.8135974 4294967295
2.5601249 0.76971459 1.8286921 4294967295
2.5639999 -0.92053789 1.821009 4294967295
2.5670004 2.1694825 1.7832178 4294967295
2.5638752 2.1464541 1.7889676 4294967295
2.5620003 2.1188717 1.7932358 4294967295
2.563154 2.0859661 1.7958738 4294967295
2.5545003 2.0637875 1.8043349 4294967295
2.5656669 1.956821 1.7988105 4294967295
2.5562861 1.9353892 1.7925149 4294967295
2.5670002 1.8669239 1.7848107 4294967295
2.560462 1.8456986 1.7949872 4294967295
2.5595002 1.8176622 1.7986723 4294967295
2.5620005 1.7842078 1.7997743 4294967295
2.5632503 1.7571386 1.8005491 4294967295
2.5658891 1.7252153 1.8014567 4294967295
2.5627694 1.6936911 1.7920117 4294967295
2.5570004 1.6757381 1.7848216 4294967295
2.5646005 1.6328582 1.7936966 4294967295
2.5682504 1.4730618 1.8022997 4294967295
2.5610003 1.4579023 1.7909392 4294967295
2.5680001 1.3576261 1.7825202 4294967295
2.5628333 1.33369 1.7842327 4294967295
2.5578334 1.309335 1.7842402 4294967295
2.5557501 1.2657586 1.8034801 4294967295
2.5629616 1.2437049 1.7962341 4294967295
2.5641425 1.2186345 1.799529 4294967295
2.5604999 1.1879075 1.7942705 4294967295
2.5625558 1.1568053 1.7898762 4294967295
2.5612309 1.1244721 1.7843919 4294967295
2.562 1.1083643 1.7843286 4294967295
2.5669999 1.0509685 1.78084 4294967295
2.5631111 1.0328568 1.78619 4294967295
2.5654616 1.0036339 1.7906049 4294967295
2.5627143 0.97487664 1.7906128 4294967295
2.563333 0.94557738 1.7913178 4294967295
2.5619998 0.91516799 1.7906827 4294967295
2.5612309 0.88449419 1.7907917 4294967295
2.5630002 0.85605145 1.7877791 4294967295
2.5662856 0.82356495 1.7830385 4294967295
2.5660002 0.79931629 1.7970161 4294967295
2.5586667 -0.92732292 1.7985195 4294967295
2.5653331 -0.93173343 1.7859696 4294967295
2.5632503 2.2016892 1.7631303 4294967295
2.561286 2.180263 1.7754776 4294967295
2.5720003 1.9839425 1.7534586 4294967295
2.5677147 1.9644741 1.7628921 4294967295
2.5548575 1.9376972 1.7697974 4294967295
2.5680003 1.8950574 1.7610698 4294967295
2.5590003 1.879504 1.7709631 4294967295
2.5720003 1.6885521 1.7773285 4294967295
2.5633335 1.6644197 1.7738681 4294967295
2.5629094 1.6422892 1.7755696 4294967295
2.562 1.4432175 1.7783688 4294967295
2.5636666 1.4256567 1.7725853 4294967295
2.5632498 1.3918735 1.7675855 4294967295
2.5676517 1.3659371 1.7666373 4294967295
2.5672939 1.3363031 1.7659266 4294967295
2.5605717 1.3055035 1.7655088 4294967295
2.5595002 1.2768842 1.7556126 4294967295
2.5620003 1.2445005 1.7681807 4294967295
2.572 1.1126904 1.7743447 4294967295
2.5642729 1.0923078 1.7710918 4294967295
2.5628335 1.067588 1.7743238 4294967295
2.552 1.0448273 1.7793937 4294967295
2.552 0.83166867 1.7793937 4294967295
2.56075 -0.9270879 1.7599374 4294967295
2.562 -0.9305228 1.77244 4294967295
2.5650003 2.2076573 1.7352223 4294967295
2.5677145 1.9593589 1.7454392 4294967295
2.5615456 1.933709 1.738699 4294967295
2.5620003 1.9056405 1.7427086 4294967295
2.5720003 1.7452433 1.7295886 4294967295
2.5669999 1.7239813 1.7308154 4294967295
2.5720003 1.7079467 1.7280967 4294967295
2.572 1.381227 1.7474911 4294967295
2.5662308 1.3611889 1.7392366 4294967295
2.5615001 1.3357477 1.7281836 4294967295
2.5587647 1.3032175 1.7366161 4294967295
2.5645001 1.2859513 1.7439097 4294967295
2.5611668 -0.91931844 1.7343932 4294967295
2.5632503 2.2091272 1.7046614 4294967295
2.5720003 1.7452433 1.7176538 4294967295
2.5647781 1.722489 1.7156092 4294967295
2.5636666 -0.90931308 1.708814 4294967295
2.5626252 2.2137897 1.676868 4294967295
2.5682499 -0.90895766 1.6831241 4294967295
2.5630004 2.2315106 1.6456702 4294967295
2.5620003 2.2199442 1.6594987 4294967295
2.562 -0.91268992 1.6416497 4294967295
2.5627146 2.2366977 1.6139439 4294967295
2.5686667 -0.91903549 1.6207455 4294967295
2.5647781 2.2256417 1.5827026 4294967295
2.5553336 2.2181151 1.5755039 4294967295
2.572 0.55174744 1.5804017 4294967295
2.5657499 -0.92593181 1.5867587 4294967295
2.5636668 2.2597063 1.5458978 4294967295
2.5636671 2.2340555 1.5575333 4294967295
2.572 0.53384501 1.5605102 4294967295
2.5634286 -0.9174397 1.5556216 4294967295
2.5653336 2.2611761 1.5253994 4294967295
2.5620003 2.2496657 1.5108919 4294967295
2.5669999 0.5268513 1.5366491 4294967295
2.5655715 -0.91225725 1.5267208 4294967295
2.5632505 2.2343962 1.495014 4294967295
2.5645001 -0.9225086 1.4969633 4294967295
2.5680003 2.2311013 1.4655515 4294967295
2.5570002 -0.92721492 1.4585128 4294967295
2.5678339 2.2259855 1.4366813 4294967295
2.5553336 2.2181151 1.4253023 4294967295
2.562 -0.9256466 1.4363034 4294967295
2.562 -0.9305228 1.4246998 4294967295
2.5720003 2.2226417 1.4192798 4294967295
2.5653338 2.2080762 1.4022114 4294967295
2.5645001 -0.93618268 1.4095047 4294967295
2.5629525 2.2012124 1.3770263 4294967295
2.5670002 2.1885414 1.3847742 4294967295
2.5645001 0.51443809 1.3720291 4294967295
2.566 -0.93554443 1.3755023 4294967295
2.5632501 2.2239823 1.3403875 4294967295
2.559778 2.214705 1.3536299 4294967295
2.572 0.50997508 1.3357351 4294967295
2.5634286 -0.91828734 1.3457577 4294967295
2.5610003 2.2238097 1.3274887 4294967295
2.5629094 2.2120626 1.3128437 4294967295
2.5695 0.50947934 1.3259968 4294967295
2.5641429 -0.90494823 1.3170888 4294967295
2.5638185 2.2042041 1.2860788 4294967295
2.5669999 -0.92041928 1.2924658 4294967295
2.561286 2.2057366 1.2525288 4294967295
2.5636666 -0.92517996 1.2498336 4294967295
2.5615003 2.1987011 1.2224532 4294967295
2.5670002 -0.91149127 1.2239655 4294967295
2.5632503 2.2083828 1.1939428 4294967295
2.5653334 -0.89602143 1.1907802 4294967295
2.562 -0.90080142 1.2017894 4294967295
2.5720003 2.2226417 1.1716294 4294967295
2.5620003 2.2139826 1.1616524 4294967295
2.5639999 -0.8967399 1.1678193 4294967295
2.562 -0.90080142 1.1542351 4294967295
2.5625002 2.1995516 1.1400881 4294967295
2.5650003 2.1820645 1.1264105 4294967295
2.5636666 -0.9053483 1.137794 4294967295
2.5686669 2.193933 1.094299 4294967295
2.5620003 2.1808751 1.1092203 4294967295
2.5636666 -0.91129261 1.1050909 4294967295
2.5720003 2.2226417 1.0671985 4294967295
2.5615835 2.2071867 1.0778606 4294967295
2.5628335 -0.92190123 1.0771426 4294967295
2.5670002 2.2272518 1.0452921 4294967295
2.5570004 2.2185724 1.0521536 4294967295
2.5695 0.5094794 1.0517538 4294967295
2.5628335 -0.92487931 1.0444317 4294967295
2.5670002 2.254056 1.0006201 4294967295
2.5645001 2.2399547 1.0170116 4294967295
2.5689998 -0.92710465 1.0129132 4294967295
2.562 2.2605557 0.98383254 4294967295
2.56075 -0.91817445 0.98012233 4294967295
2.5636666 2.2709472 0.95438969 4294967295
2.5661669 -0.91714442 0.95284027 4294967295
2.5627143 2.2608912 0.92506313 4294967295
2.5682499 2.2462053 0.91147244 4294967295
2.5636666 -0.92120558 0.92665619 4294967295
2.5616152 2.2342081 0.90268791 4294967295
2.566375 2.2133095 0.88811493 4294967295
2.552 0.51193058 0.89123231 4294967295
2.572 0.50997508 0.88519049 4294967295
2.572 -0.92221987 0.88220668 4294967295
2.5620003 2.203795 0.86550897 4294967295
2.5645001 0.50649887 0.86230564 4294967295
2.562 -0.91863424 0.86595225 4294967295
2.562 2.2069643 0.83270168 4294967295
2.5632501 0.50824016 0.84229898 4294967295
2.5649998 -0.91494292 0.83478361 4294967295
2.572 2.2226417 0.79269451 4294967295
2.5645001 2.2161517 0.80529571 4294967295
2.5628335 -0.91397369 0.80163556 4294967295
2.5680001 2.2263319 0.76962882 4294967295
2.5553334 2.2181151 0.77513015 4294967295
2.5595 -0.91674525 0.77553517 4294967295
2.5670002 2.2272489 0.74451739 4294967295
2.572 0.51594257 0.73301971 4294967295
2.572 0.50997508 0.74495471 4294967295
2.5703332 -0.92162228 0.75076866 4294967295
2.5680001 2.2239449 0.72195858 4294967295
2.562 2.2172842 0.70906585 4294967295
2.552 0.51785165 0.71360004 4294967295
2.5640585 2.2122643 0.68581992 4294967295
2.552 0.52377272 0.67215252 4294967295
2.5682499 -0.91789442 0.68206096 4294967295
2.5623846 2.230772 0.64853549 4294967295
2.5641429 2.2175369 0.6635288 4294967295
2.5703332 0.53150988 0.65336943 4294967295
2.566 -0.90934551 0.65511489 4294967295
2.565125 2.2445858 0.62606877 4294967295
2.5595 0.53125054 0.63400829 4294967295
2.5655713 -0.91905081 0.6304462 4294967295
2.566 -0.94387347 0.61702514 4294967295
2.5624545 2.2311342 0.59710455 4294967295
2.552 2.2172005 0.58333635 4294967295
2.562 0.52582514 0.58358455 4294967295
2.5648572 -0.9553591 0.59302467 4294967295
2.56075 -0.96125591 0.60137767 4294967295
2.5695 2.223459 0.57482529 4294967295
2.5588751 2.2157431 0.56346536 4294967295
2.5570002 0.51589411 0.56862301 4294967295
2.562 0.48817033 0.5558446 4294967295
2.562 -0.91523749 0.56151414 4294967295
2.5603335 -0.93585014 0.57562137 4294967295
2.572 2.2226417 0.52415794 4294967295
2.5597777 2.2153716 0.5373348 4294967295
2.5632501 0.4576703 0.54793251 4294967295
2.552 0.3698248 0.54188883 4294967295
2.5695 0.27399603 0.54800063 4294967295
2.5695 0.25162956 0.54800063 4294967295
2.5545001 0.192375 0.54191029 4294967295
2.552 0.16258715 0.54188883 4294967295
2.552 0.14482392 0.54188883 4294967295
2.572 0.092251599 0.54802787 4294967295
2.552 0.061928868 0.54188883 4294967295
2.552 0.042685371 0.54188883 4294967295
2.5545001 0.011602388 0.54191029 4294967295
2.5657501 -0.013616906 0.54052651 4294967295
2.562 -0.04282083 0.53405666 4294967295
2.5595 -0.071496159 0.53007621 4294967295
2.5682502 -0.10749184 0.53606945 4294967295
2.562 -0.13403602 0.5390141 4294967295
2.5669999 -0.16402121 0.54201752 4294967295
2.552 -0.19267738 0.54188883 4294967295
2.5569999 -0.22273685 0.54193175 4294967295
2.572 -0.24491097 0.54206038 4294967295
2.5670002 -0.27719992 0.53606164 4294967295
2.5630002 -0.31244448 0.53009003 4294967295
2.572 -0.34039065 0.53012544 4294967295
2.5632501 -0.39868551 0.53009099 4294967295
2.5636666 -0.43146855 0.53604078 4294967295
2.5669999 -0.46776637 0.54201752 4294967295
2.552 -0.49465224 0.54188883 4294967295
2.5570002 -0.52530795 0.54193175 4294967295
2.5644999 -0.54765362 0.54199606 4294967295
2.5599999 -0.5853067 0.53601784 4294967295
2.5540001 -0.61356348 0.53598028 4294967295
2.5610001 -0.64495957 0.53602409 4294967295
2.5680001 -0.67650175 0.5360679 4294967295
2.5599999 -0.70643771 0.53601784 4294967295
2.562 -0.73733377 0.53603035 4294967295
2.572 -0.75811416 0.53609294 4294967295
2.572 -0.80585402 0.53609294 4294967295
2.5657501 -0.82473123 0.53903174 4294967295
2.5536668 -0.85342467 0.54190314 4294967295
2.562 -0.88889742 0.54791892 4294967295
2.5670004 2.2249241 0.502985 4294967295
2.5586667 2.2190297 0.51227105 4294967295
2.5665002 2.2327702 0.476509 4294967295
2.5640833 2.2356186 0.44631234 4294967295
2.5630715 2.244221 0.41625345 4294967295
2.5646923 2.2300403 0.39048398 4294967295
2.5553334 2.2161412 0.37591079 4294967295
2.5619998 2.2153106 0.35507044 4294967295
2.572 2.2226417 0.31529617 4294967295
2.5619998 2.218154 0.32442105 4294967295
2.572 2.2226417 0.30634499 4294967295
2.5616155 2.2154825 0.29235178 4294967295
2.5686667 2.2237315 0.25596792 4294967295
2.5614443 2.2168043 0.26795 4294967295
2.5686667 2.2237315 0.2400701 4294967295
2.5606363 2.2165866 0.22977534 4294967295
2.5600557 2.1997602 0.20571262 4294967295
2.5613751 2.1859543 0.1987699 4294967295
2.572 2.2226417 0.16610923 4294967295
2.5636666 2.2122498 0.17756465 4294967295
2.5647273 2.2136424 0.14222461 4294967295
2.5603333 2.2571011 0.1043475 4294967295
2.5584285 2.2363577 0.10606748 4294967295
2.5618002 2.2102394 0.11259031 4294967295
2.5658095 2.2589495 0.08532843 4294967295
2.5683043 2.2349904 0.081892222 4294967295
2.5696924 2.2142234 0.086164922 4294967295
2.562 2.25561 0.066432446 4294967295
2.5663054 2.2362151 0.053927749 4294967295
2.5720003 2.2144365 0.052727133 4294967295
2.5636666 2.2421856 0.02615416 4294967295
2.572 2.2524791 -0.0039638877 4294967295
2.5588748 2.244688 -0.0050030947 4294967295
2.5670002 2.2415431 -0.035702646 4294967295
2.5640001 2.2365401 -0.064800143 4294967295
2.5670002 2.2309728 -0.095261395 4294967295
2.552 2.2142398 -0.10646892 4294967295
2.5595 2.205302 -0.12611675 4294967295
2.5636666 2.2099731 -0.15741044 4294967295
2.552 2.2527268 -0.19824558 4294967295
2.5631764 2.2363331 -0.18354404 4294967295
2.5641878 2.2597497 -0.21691513 4294967295
2.572 2.2375603 -0.2277444 4294967295
2.562 2.25561 -0.23078144 4294967295
2.5606363 2.2349555 -0.23307526 4294967295
2.5644994 2.2057326 -0.24608511 4294967295
2.572 2.1868367 -0.25758177 4294967295
2.5635912 2.2056179 -0.27395684 4294967295
2.572 2.1868367 -0.26354927 4294967295
2.5633891 2.2082486 -0.30453283 4294967295
2.572 2.2047391 -0.32322407 4294967295
2.6012499 0.74058312 1.9681529 4294967295
2.605 -0.87965596 1.9717565 4294967295
2.5946999 0.74022037 1.9449257 4294967295
2.5928333 -0.88356984 1.9469117 4294967295
2.595083 0.74384153 1.9155424 4294967295
2.5895 -0.89544147 1.9210739 4294967295
2.5962 -0.90559506 1.908409 4294967295
2.602 0.75136977 1.8734946 4294967295
2.5955 0.74848425 1.891179 4294967295
2.6004 -0.91430289 1.8816879 4294967295
2.5979998 0.76041138 1.8554019 4294967295
2.592 -0.91736329 1.8562381 4294967295
2.6005836 2.0808973 1.8189539 4294967295
2.594063 2.0554669 1.827215 4294967295
2.5966253 2.0258746 1.8205903 4294967295
2.592556 2.0004585 1.8147609 4294967295
2.5820003 1.9796747 1.8121704 4294967295
2.5902145 1.6236494 1.8192676 4294967295
2.5981719 1.6064209 1.8271165 4294967295
2.5945003 1.574391 1.8339666 4294967295
2.5952725 1.5431492 1.8341317 4294967295
2.5966001 1.513315 1.8242669 4294967295
2.5836668 1.4933971 1.8150014 4294967295
2.5952501 0.79081476 1.8210487 4294967295
2.5922499 0.77410978 1.8353283 4294967295
2.5899999 -0.92506331 1.8305935 4294967295
2.6023333 -0.93309617 1.8163 4294967295
2.6056001 2.1984761 1.7852881 4294967295
2.5965717 2.1750002 1.790622 4294967295
2.5983334 2.1420705 1.7950029 4294967295
2.5968893 2.1145904 1.7921498 4294967295
2.6002612 2.0891256 1.7950513 4294967295
2.6080003 2.0560853 1.7878677 4294967295
2.6041112 2.0221374 1.7950475 4294967295
2.5942729 1.9956576 1.7969713 4294967295
2.5832503 1.9761372 1.7963158 4294967295
2.6050003 1.891535 1.7874166 4294967295
2.5941541 1.8741415 1.7941773 4294967295
2.5927782 1.8462174 1.8035185 4294967295
2.594445 1.8146232 1.8070114 4294967295
2.6010911 1.7880093 1.806904 4294967295
2.5991769 1.7533748 1.8019352 4294967295
2.5926476 1.7259939 1.7944784 4294967295
2.5820003 1.7041034 1.7852124 4294967295
2.5929568 1.6247329 1.7933074 4294967295
2.6041431 1.6082319 1.7969227 4294967295
2.6080003 1.5049398 1.7979527 4294967295
2.5948241 1.4869825 1.7927104 4294967295
2.5844998 1.4628987 1.7834392 4294967295
2.582 1.3626345 1.782217 4294967295
2.5922501 1.2311938 1.7841935 4294967295
2.5945654 1.2156118 1.7909547 4294967295
2.5970001 1.1826096 1.7932898 4294967295
2.5934 1.1556418 1.7881728 4294967295
2.5853331 1.1304593 1.7838465 4294967295
2.5972857 1.0556101 1.7845086 4294967295
2.5956001 1.0345601 1.7888464 4294967295
2.5969377 1.0040962 1.7887481 4294967295
2.5978003 0.97466803 1.7869036 4294967295
2.596941 0.94483268 1.7887902 4294967295
2.5964739 0.91527528 1.7899047 4294967295
2.5967052 0.88380092 1.7908014 4294967295
2.5950835 0.85523856 1.7860891 4294967295
2.5949998 0.82374406 1.7876934 4294967295
2.5939999 0.8052271 1.802121 4294967295
2.608 -0.92907703 1.7828252 4294967295
2.5938888 -0.93340033 1.7960392 4294967295
2.6023335 2.2236907 1.7609574 4294967295
2.593643 2.2095175 1.7719879 4294967295
2.6080003 2.1750886 1.7525702 4294967295
2.6040001 2.1443298 1.7650955 4294967295
2.6006806 2.1127388 1.7645596 4294967295
2.6036806 2.086426 1.7674375 4294967295
2.6016963 2.053299 1.7650704 4294967295
2.5971003 2.0277119 1.7627783 4294967295
2.5853338 1.9978954 1.7638452 4294967295
2.6080003 1.9209464 1.7525702 4294967295
2.5935714 1.9038558 1.7642273 4294967295
2.5845001 1.888643 1.7774427 4294967295
2.6047144 1.7812573 1.7605164 4294967295
2.5990002 1.7531476 1.7669656 4294967295
2.5937645 1.7249612 1.766389 4294967295
2.5936544 1.6969615 1.7673001 4294967295
2.5934999 1.6635313 1.7727857 4294967295
2.5935454 1.6400422 1.7769064 4294967295
2.6060004 1.4811119 1.7768142 4294967295
2.5987778 1.4568974 1.7756573 4294967295
2.5980504 1.4244378 1.766827 4294967295
2.5873847 1.3991885 1.7626655 4294967295
2.5964167 1.272334 1.7591361 4294967295
2.5942857 1.2439861 1.7714474 4294967295
2.6045334 1.1505368 1.7698579 4294967295
2.5956206 1.1237347 1.7622586 4294967295
2.5937223 1.0943284 1.7618523 4294967295
2.5933332 1.0702647 1.7742063 4294967295
2.602 0.8449446 1.7799199 4294967295
2.605 0.83685273 1.778347 4294967295
2.5979998 -0.92550105 1.762486 4294967295
2.592 -0.93138796 1.7750661 4294967295
2.6035001 2.2226753 1.7353332 4294967295
2.5936251 2.216469 1.7367347 4294967295
2.605 2.1705744 1.7380522 4294967295
2.5962226 2.1438451 1.7329347 4294967295
2.5963106 2.1175351 1.7383102 4294967295
2.6040003 2.0146632 1.7486627 4294967295
2.6009002 1.9935529 1.7455758 4294967295
2.5958893 1.9658707 1.7381196 4294967295
2.5953128 1.9356598 1.7409215 4294967295
2.5845001 1.912629 1.7474602 4294967295
2.6029093 1.7826933 1.7397276 4294967295
2.5907004 1.7585154 1.734131 4294967295
2.5921669 1.7178181 1.7355338 4294967295
2.5890002 1.7075181 1.7411896 4294967295
2.5983 1.3917302 1.7425418 4294967295
2.5927498 1.3683004 1.7325665 4294967295
2.5962224 1.333974 1.7289261 4294967295
2.5925455 1.3042083 1.740339 4294967295
2.5869999 1.2872436 1.7486476 4294967295
2.5927501 -0.91686362 1.7370757 4294967295
2.6005456 2.2281022 1.7046115 4294967295
2.5840001 2.2186201 1.7124513 4294967295
2.5928335 1.7503474 1.7183204 4294967295
2.5845001 1.7267381 1.7174778 4294967295
2.608 0.84870833 1.6999264 4294967295
2.608 0.83781648 1.7011366 4294967295
2.592 -0.91134936 1.7028927 4294967295
2.6080003 2.2537518 1.6678561 4294967295
2.5921001 2.2345905 1.6764874 4294967295
2.608 0.84991848 1.6860092 4294967295
2.5948331 -0.91534293 1.6771209 4294967295
2.5986671 2.2577391 1.6456583 4294967295
2.5832503 2.2458456 1.6464791 4294967295
2.5962 -0.91884983 1.6505889 4294967295
2.6022503 2.2563233 1.6200361 4294967295
2.5922859 2.2452826 1.6102012 4294967295
2.5895 -0.92548478 1.6206669 4294967295
2.5994999 -0.93208021 1.6068149 4294967295
2.5960772 2.2346232 1.5856756 4294967295
2.602 0.5762943 1.5867332 4294967295
2.5869999 0.54896295 1.586586 4294967295
2.6000001 -0.92621201 1.5813785 4294967295
2.5969999 -0.93118382 1.5937216 4294967295
2.5963891 2.2654405 1.5482789 4294967295
2.5916672 2.2411246 1.5609375 4294967295
2.602 0.52799767 1.5444736 4294967295
2.595 -0.91439551 1.5557528 4294967295
2.5962946 2.2645094 1.5291034 4294967295
2.5820003 2.2492554 1.5126364 4294967295
2.594909 -0.91784298 1.5246958 4294967295
2.5970001 2.2502713 1.4943011 4294967295
2.5845001 2.2454367 1.5046058 4294967295
2.5869999 -0.92759824 1.5025541 4294967295
2.6026666 -0.93421417 1.4903839 4294967295
2.6025002 2.2520115 1.4721987 4294967295
2.5938334 2.2434998 1.4579927 4294967295
2.59975 -0.92612582 1.4546069 4294967295
2.5879998 -0.93155122 1.4692956 4294967295
2.5960002 2.2318192 1.4346957 4294967295
2.6050003 2.2179134 1.4247739 4294967295
2.5941665 -0.92363316 1.4330351 4294967295
2.5895 -0.93149 1.4223857 4294967295
2.5933335 2.2049434 1.4066718 4294967295
2.608 -0.92907703 1.419765 4294967295
2.5945456 -0.93685848 1.4063538 4294967295
2.5986667 2.2235773 1.3642892 4294967295
2.5925388 2.2102945 1.3755615 4294967295
2.5969999 -0.92515832 1.3617406 4294967295
2.5965714 -0.93704104 1.3796635 4294967295
2.5972505 2.2305079 1.3463732 4294967295
2.5994999 0.51542777 1.3535068 4294967295
2.5915 -0.91341114 1.3479295 4294967295
2.5952003 2.2233903 1.3262229 4294967295
2.5915003 2.2160237 1.3124471 4294967295
2.582 0.51195788 1.3209347 4294967295
2.5941427 -0.91210455 1.3160934 4294967295
2.6024003 2.2259655 1.2849939 4294967295
2.5857501 2.2150252 1.284601 4294967295
2.5869999 -0.92759824 1.2924743 4294967295
2.5897501 -0.9330802 1.2827878 4294967295
2.6002004 2.2252896 1.2541831 4294967295
2.58325 2.2173781 1.2553902 4294967295
2.5869999 0.69902003 1.268465 4294967295
2.5936668 -0.92396313 1.2463151 4294967295
2.5973332 -0.93330026 1.2654129 4294967295
2.6010003 2.2220507 1.2212126 4294967295
2.5945003 2.214988 1.2254874 4294967295
2.5956666 -0.91162431 1.2268074 4294967295
2.5990002 2.2325611 1.1922076 4294967295
2.5845001 2.2154543 1.2047758 4294967295
2.5958333 -0.89762616 1.1897011 4294967295
2.592 -0.90232271 1.2067602 4294967295
2.6011252 2.2327092 1.1669338 4294967295
2.6026001 2.2128251 1.1546197 4294967295
2.5869999 -0.89758682 1.1784308 4294967295
2.598 -0.90441418 1.1631433 4294967295
2.5980718 2.1999335 1.1368819 4294967295
2.5820003 2.1893485 1.1292329 4294967295
2.596875 -0.91003793 1.1357532 4294967295
2.5971818 2.2049499 1.1021366 4294967295
2.5820003 2.1893485 1.1172515 4294967295
2.5944443 -0.91621572 1.1040652 4294967295
2.5973079 2.2301176 1.0702667 4294967295
2.5905004 2.2145591 1.0831553 4294967295
2.5931001 -0.92496115 1.0746996 4294967295
2.6023335 2.2548842 1.0374334 4294967295
2.5921431 2.2426088 1.0482981 4294967295
2.5895 0.51344496 1.0378685 4294967295
2.5936999 -0.9269793 1.0447161 4294967295
2.5990002 2.269078 1.0116435 4294967295
2.5820003 2.2492554 1.0214006 4294967295
2.5974998 -0.92833763 1.0153097 4294967295
2.5982499 -0.93163204 1.0155122 4294967295
2.6007502 2.2882166 0.97978389 4294967295
2.5845001 2.2739184 0.9874078 4294967295
2.59675 -0.9242993 0.98583245 4294967295
2.5967 2.2861421 0.95616144 4294967295
2.59325 2.2770741 0.94234854 4294967295
2.6004 -0.92394918 0.95258391 4294967295
2.5969999 2.2803986 0.93995667 4294967295
2.5911252 2.2609284 0.9288578 4294967295
2.5949998 2.2424853 0.91554493 4294967295
2.5969999 0.51493204 0.91886747 4294967295
2.5923331 -0.92749357 0.92718899 4294967295
2.5969999 -0.93118382 0.91585475 4294967295
2.5966001 2.2276137 0.89951825 4294967295
2.5938332 2.2174032 0.88727254 4294967295
2.5947499 0.51297319 0.90196431 4294967295
2.5986664 0.50722086 0.88595819 4294967295
2.5857499 -0.92715007 0.89914584 4294967295
2.6025 2.2218201 0.85932982 4294967295
2.5898571 2.2140245 0.86756217 4294967295
