# .PCD v0.7 - Point Cloud Data file format
VERSION 0.7
FIELDS x y z rgb
SIZE 4 4 4 4
TYPE F F F U
COUNT 1 1 1 1
WIDTH 1149
HEIGHT 1
VIEWPOINT 0 0 0 1 0 0 0
POINTS 1149
DATA ascii
2.4809997 1.0360446 1.825516 4294967295
2.4797425 1.0061847 1.8314826 4294967295
2.4846251 0.98192251 1.8354889 4294967295
2.4890001 0.93433571 1.8330022 4294967295
2.4837365 0.91497958 1.8254684 4294967295
2.4702146 0.88546991 1.825606 4294967295
2.4655182 0.85348064 1.8229327 4294967295
2.4743996 0.82473707 1.8252298 4294967295
2.4801297 0.79450178 1.8216901 4294967295
2.4846663 0.77282333 1.8284014 4294967295
2.4788094 -0.89070565 1.8246028 4294967295
2.4653842 -0.90510702 1.8233284 4294967295
2.4855218 2.2923236 1.7959663 4294967295
2.4877501 2.2700815 1.7986683 4294967295
2.4879997 2.2340446 1.8012031 4294967295
2.4851115 2.2032876 1.8005103 4294967295
2.4856672 2.1775019 1.8043252 4294967295
2.4890003 2.1566906 1.8060527 4294967295
2.4875717 2.0185828 1.8061361 4294967295
2.4873335 2.0051956 1.8071126 4294967295
2.488167 1.8990704 1.8046577 4294967295
2.4812725 1.8741789 1.8025664 4294967295
2.4790952 1.8440635 1.8039327 4294967295
2.4817779 1.8138894 1.7990998 4294967295
2.4754643 1.7853788 1.7955556 4294967295
2.4703107 1.7550995 1.7938212 4294967295
2.4761598 1.7252359 1.7949592 4294967295
2.4840002 1.7047338 1.8053825 4294967295
2.4835002 1.5134819 1.8066607 4294967295
2.4801764 1.4859298 1.8058825 4294967295
2.4802942 1.4545099 1.8069586 4294967295
2.4806666 1.4242564 1.8074908 4294967295
2.4828458 1.3953708 1.8072956 4294967295
2.487 1.3655839 1.806747 4294967295
2.4867778 1.3341799 1.8074658 4294967295
2.4810667 1.3016891 1.8042412 4294967295
2.4778094 1.2739618 1.8035411 4294967295
2.4765 1.2581146 1.8082099 4294967295
2.4865 1.1795455 1.8076426 4294967295
2.4884119 1.1526039 1.8023504 4294967295
2.4876838 1.1242094 1.8029382 4294967295
2.4890001 1.0962737 1.803887 4294967295
2.4890001 1.0767833 1.8060527 4294967295
2.4873333 0.9067772 1.8071126 4294967295
2.4821999 0.88424808 1.8011374 4294967295
2.4820786 0.85524982 1.7974461 4294967295
2.4832857 0.82984465 1.8051475 4294967295
2.4873333 0.80289853 1.8071126 4294967295
2.4785831 -0.89014226 1.7963485 4294967295
2.4660001 -0.90480506 1.7970282 4294967295
2.488318 2.2930846 1.7660779 4294967295
2.4885457 2.2733476 1.762778 4294967295
2.4890003 2.0719919 1.7608159 4294967295
2.4890003 2.0568671 1.7619158 4294967295
2.4890003 1.8044213 1.7771782 4294967295
2.4859235 1.7831149 1.7711791 4294967295
2.4817083 1.756181 1.7698848 4294967295
2.4823337 1.7362268 1.7776453 4294967295
2.4890001 1.0932196 1.7607417 4294967295
2.4890001 0.86022443 1.7771782 4294967295
2.4737141 -0.89077944 1.7650756 4294967295
2.4649999 -0.90101141 1.7764943 4294967295
2.4781671 2.2805052 1.7305013 4294967295
2.4833107 2.2645969 1.733578 4294967295
2.4890003 2.2471642 1.727129 4294967295
2.4890003 2.0614047 1.7483037 4294967295
2.4890001 1.0912206 1.7483037 4294967295
2.4748461 -0.88802356 1.7342323 4294967295
2.4790003 2.2803149 1.7146101 4294967295
2.4840007 2.2639043 1.7128996 4294967295
2.4890003 2.2462018 1.719429 4294967295
2.4730003 -0.89817548 1.717434 4294967295
2.4758751 -0.90748781 1.702316 4294967295
2.4890003 2.2779636 1.66168 4294967295
2.4773848 -0.91127181 1.675356 4294967295
2.4794095 2.2660232 1.6400284 4294967295
2.4890003 2.249089 1.6328055 4294967295
2.4759231 -0.90542507 1.6446091 4294967295
2.4675002 2.2840462 1.6031525 4294967295
2.472512 2.2639065 1.614359 4294967295
2.4875717 2.2436717 1.6132061 4294967295
2.4771428 -0.90502143 1.6131258 4294967295
2.4780002 2.2834189 1.5795883 4294967295
2.4795156 2.2649114 1.5872309 4294967295
2.4854288 2.2442055 1.5957807 4294967295
2.4890001 -0.89823419 1.5750564 4294967295
2.4760001 -0.90501982 1.5848683 4294967295
2.4798698 2.2903666 1.5544254 4294967295
2.4870558 2.273294 1.5562787 4294967295
2.4873335 -0.89763266 1.5541513 4294967295
2.4706001 -0.90304512 1.5538739 4294967295
2.4754286 2.2907028 1.5239075 4294967295
2.4776537 2.2631469 1.5238239 4294967295
2.4844348 2.233418 1.5207473 4294967295
2.4890003 2.2091894 1.5194075 4294967295
2.4713333 0.5511716 1.5293436 4294967295
2.4736667 0.53638101 1.5235931 4294967295
2.4761579 -0.90870231 1.5260581 4294967295
2.4704447 2.2877305 1.4945893 4294967295
2.4689171 2.2660282 1.4954212 4294967295
2.4765258 2.2336226 1.4952159 4294967295
2.4872146 2.2124326 1.4947472 4294967295
2.4823334 0.52098548 1.4877485 4294967295
2.4744284 -0.91059393 1.4954728 4294967295
2.4700003 2.2834978 1.4753094 4294967295
2.4637504 2.2611437 1.4674654 4294967295
2.4698615 2.2344811 1.464588 4294967295
2.4823999 2.2129292 1.4637468 4294967295
2.4890001 0.51084262 1.4768832 4294967295
2.4761817 -0.90770441 1.4646344 4294967295
2.477042 2.2579088 1.4334732 4294967295
2.4823143 2.234473 1.4377631 4294967295
2.4873338 2.2129493 1.4435372 4294967295
2.4762998 -0.91287827 1.435216 4294967295
2.4700003 2.2834978 1.4180012 4294967295
2.4742286 2.2632699 1.4067483 4294967295
2.4864998 2.2396073 1.4035738 4294967295
2.4890001 -0.89823419 1.3902595 4294967295
2.4766665 -0.91099775 1.4053668 4294967295
2.466125 2.2577295 1.3753483 4294967295
2.4802001 2.2376568 1.3746856 4294967295
2.4890001 -0.89823425 1.3729348 4294967295
2.4744117 -0.90578783 1.3753614 4294967295
2.4674804 2.2603176 1.3474665 4294967295
2.4791217 2.237869 1.3446225 4294967295
2.4890001 -0.89658427 1.3465352 4294967295
2.4743335 -0.90441597 1.3449454 4294967295
2.4675002 2.2907321 1.3073617 4294967295
2.4609997 2.2675633 1.3172789 4294967295
2.4750514 2.23261 1.3154333 4294967295
2.4746666 0.5117175 1.3106211 4294967295
2.4780591 -0.90644771 1.3157413 4294967295
2.4706879 2.2916591 1.2831758 4294967295
2.4641178 2.2662907 1.2820086 4294967295
2.4761283 2.233145 1.2835188 4294967295
2.4726002 0.51664966 1.287009 4294967295
2.4766471 -0.91437894 1.2855413 4294967295
2.4694445 2.2880771 1.2586484 4294967295
2.4691041 2.2656751 1.2560889 4294967295
2.4795747 2.2347794 1.2542729 4294967295
2.4753335 0.51472479 1.2571985 4294967295
2.4840002 0.50692898 1.2415413 4294967295
2.4772937 -0.92239434 1.2539538 4294967295
2.4634616 2.2625039 1.2336059 4294967295
2.472949 2.2330761 1.2250271 4294967295
2.4858751 2.209841 1.2190225 4294967295
2.4649999 0.51163602 1.2388875 4294967295
2.4696667 0.50305486 1.2287923 4294967295
2.4768569 -0.92174971 1.224282 4294967295
2.4668968 2.231662 1.1932572 4294967295
2.4803164 2.2048728 1.195802 4294967295
2.4753332 -0.91159815 1.195399 4294967295
2.4704165 2.2325816 1.1638719 4294967295
2.4811153 2.211616 1.1691868 4294967295
2.4890001 0.51084262 1.1592634 4294967295
2.4760001 0.5062573 1.1674139 4294967295
2.4890001 -0.89823419 1.1621509 4294967295
2.4721818 -0.90700912 1.1638 4294967295
2.4759998 2.2324061 1.1355031 4294967295
2.4890003 2.2144396 1.1477134 4294967295
2.471143 0.51126111 1.1350049 4294967295
2.4790001 0.50879019 1.1221848 4294967295
2.4827499 -0.8966918 1.1310289 4294967295
2.4701924 -0.91236764 1.1363604 4294967295
2.4776192 2.236707 1.1054217 4294967295
2.4772 0.50496739 1.1045008 4294967295
2.4776843 -0.89171296 1.1040125 4294967295
2.4646151 -0.90702194 1.1103334 4294967295
2.4700003 2.2834978 1.0626903 4294967295
2.4719658 2.2609582 1.0690372 4294967295
2.4800744 2.2399256 1.080663 4294967295
2.4696667 0.49731708 1.0797994 4294967295
2.4840002 -0.89386058 1.0830498 4294967295
2.4720001 -0.90613198 1.073437 4294967295
2.4765456 2.2882371 1.042444 4294967295
2.4820771 2.2696204 1.045843 4294967295
2.4744999 0.49638411 1.0320909 4294967295
2.4763181 -0.90851945 1.0442252 4294967295
2.4785836 2.2871184 1.01809 4294967295
2.4853642 2.2704327 1.0133839 4294967295
2.4790001 0.50303853 1.0129024 4294967295
2.4754841 -0.91593009 1.0146031 4294967295
2.4790003 2.2803149 0.98414385 4294967295
2.4827936 2.2641265 0.98445976 4294967295
2.4890001 2.2466142 0.98189121 4294967295
2.4656668 0.50605369 0.98448849 4294967295
2.4744091 -0.91381973 0.98562759 4294967295
2.4828095 2.2588465 0.95742172 4294967295
2.4890001 2.2465224 0.95842493 4294967295
2.4744 0.51243216 0.95227718 4294967295
2.4747853 -0.90416241 0.95547253 4294967295
2.4797852 2.2588131 0.92429554 4294967295
2.4890001 2.249089 0.92249221 4294967295
2.4791667 0.51552778 0.92664838 4294967295
2.4865 -0.89828861 0.92113125 4294967295
2.4726 -0.9020595 0.92672741 4294967295
2.4746754 2.2592227 0.89378858 4294967295
2.4890001 2.249089 0.8993926 4294967295
2.4775002 0.51326811 0.89572358 4294967295
2.484 0.50981641 0.8813405 4294967295
2.4790001 -0.89749533 0.89498663 4294967295
2.4675 -0.90287662 0.89421093 4294967295
2.4694443 2.2893505 0.85503024 4294967295
2.4745781 2.2666364 0.86516154 4294967295
2.4649999 0.51163602 0.87857664 4294967295
2.4765 0.50731456 0.86204934 4294967295
2.484 -0.89786476 0.87268108 4294967295
2.4730666 -0.90356559 0.8644399 4294967295
2.474 2.3101561 0.8354001 4294967295
2.4712 2.2932103 0.8336069 4294967295
2.4751501 2.2623885 0.83411402 4294967295
2.4890001 2.249089 0.83009374 4294967295
2.474 0.50776398 0.83683509 4294967295
2.472647 -0.90480494 0.83412707 4294967295
2.474 2.3101561 0.80526447 4294967295
2.4716001 2.2935832 0.80498916 4294967295
2.4711003 2.264251 0.80569744 4294967295
2.4815414 2.242569 0.80373931 4294967295
2.4790001 0.50879019 0.79433763 4294967295
2.4750953 -0.91042352 0.80538702 4294967295
2.4666669 2.2880437 0.78344071 4294967295
2.4644229 2.2629445 0.77667785 4294967295
2.4781578 2.2375956 0.77639019 4294967295
2.46 0.51059824 0.76940453 4294967295
2.4780002 0.50858498 0.77697653 4294967295
2.4759128 -0.91746032 0.77600729 4294967295
2.461875 2.2517073 0.75174528 4294967295
2.4730492 2.234365 0.7462464 4294967295
2.4811425 2.211956 0.73577803 4294967295
2.4675715 0.51134479 0.74480474 4294967295
2.4815001 0.50930327 0.75718766 4294967295
2.4854286 -0.89611536 0.7373895 4294967295
2.4730909 -0.90968668 0.7477836 4294967295
2.4616666 2.2281954 0.7213462 4294967295
2.4716883 2.2030613 0.71311939 4294967295
2.474 2.1896141 0.71055287 4294967295
2.4806669 0.51488787 0.71968812 4294967295
2.4802501 -0.89794654 0.72254205 4294967295
2.4721 -0.90416855 0.71268713 4294967295
2.4652274 2.2275977 0.68179494 4294967295
2.477 2.2059994 0.68578583 4294967295
2.4695001 0.51829976 0.69301206 4294967295
2.477375 -0.91558427 0.6863879 4294967295
2.4674001 2.2324176 0.65566111 4294967295
2.4796896 2.2095091 0.65593725 4294967295
2.4792502 0.52609837 0.65627396 4294967295
2.4760001 -0.92609 0.66570795 4294967295
2.4785001 -0.93373072 0.65051877 4294967295
2.4663796 2.2310028 0.62738639 4294967295
2.4803636 2.2109232 0.62550271 4294967295
2.4877501 0.52790207 0.63080823 4294967295
2.4795833 -0.94468671 0.62468368 4294967295
2.46 2.2856681 0.60388356 4294967295
2.4641669 2.222827 0.60783654 4294967295
2.4768963 2.2085869 0.59336013 4294967295
2.4798751 -0.9553476 0.59878379 4294967295
2.4765558 -0.96523982 0.58783674 4294967295
2.4765453 2.2072518 0.56448966 4294967295
2.4767501 0.51695365 0.56137556 4294967295
2.4790001 0.50879019 0.55276614 4294967295
2.4890001 -0.92710871 0.55289829 4294967295
2.4836872 -0.94636828 0.55823773 4294967295
2.4792726 -0.97000581 0.565593 4294967295
2.4744401 2.230381 0.53019768 4294967295
2.4763 2.2151732 0.54468203 4294967295
2.4755557 0.49275595 0.54123682 4294967295
2.4768 0.46695009 0.52745646 4294967295
2.4890001 0.43576884 0.52402377 4294967295
2.4808333 0.40365288 0.52497309 4294967295
2.4789999 0.37492925 0.52715439 4294967295
2.4795001 0.34492522 0.52689588 4294967295
2.4736364 0.31412387 0.52661544 4294967295
2.4752727 0.28455842 0.53080475 4294967295
2.4726365 0.25401625 0.53339761 4294967295
2.4765382 0.22497006 0.5363996 4294967295
2.4689996 0.19582589 0.53285301 4294967295
2.4718184 0.16476518 0.53234649 4294967295
2.4758 0.13476673 0.53033537 4294967295
2.4788001 0.10615386 0.52689129 4294967295
2.4790001 0.074536644 0.52400762 4294967295
2.4802499 0.042926814 0.5261752 4294967295
2.4810002 0.014148219 0.52401084 4294967295
2.4890001 -0.0060113464 0.52402377 4294967295
2.4865 -0.13868891 0.52401972 4294967295
2.4780002 -0.16408122 0.52400601 4294967295
2.4738574 -0.19661939 0.52482426 4294967295
2.4808335 -0.22472706 0.52497303 4294967295
2.4890001 -0.2456699 0.52402377 4294967295
2.4810002 -0.46936145 0.52401084 4294967295
2.4760001 -0.49716243 0.52400279 4294967295
2.4827502 -0.52444273 0.5240137 4294967295
2.4890001 -0.54019004 0.52402377 4294967295
2.4890001 -0.83182281 0.52402377 4294967295
2.4865003 -0.85405111 0.52401972 4294967295
2.4776874 -0.8865912 0.52940804 4294967295
2.4756315 -0.9136526 0.53973711 4294967295
2.468111 -0.9422254 0.54498935 4294967295
2.4761109 2.2373886 0.50676793 4294967295
2.4680002 0.45785305 0.51635915 4294967295
2.4703844 0.43602657 0.51386255 4294967295
2.466125 0.40530616 0.51612318 4294967295
2.46 0.38217685 0.5182693 4294967295
2.4625001 0.096891321 0.51826751 4294967295
2.4679999 0.077066682 0.51826364 4294967295
2.4641669 0.045520652 0.51826632 4294967295
2.4666667 0.012165057 0.5173133 4294967295
2.4699409 -0.017596398 0.50917554 4294967295
2.4744003 -0.043294635 0.50679517 4294967295
2.4711306 -0.071900778 0.50905675 4294967295
2.471 -0.10629668 0.51540077 4294967295
2.4688332 -0.13293417 0.51731181 4294967295
2.46 -0.15148561 0.5182693 4294967295
2.4649999 -0.23187034 0.51826578 4294967295
2.471421 -0.25721788 0.50801831 4294967295
2.4746499 -0.28444406 0.50391698 4294967295
2.4724615 -0.3148526 0.50680906 4294967295
2.4734664 -0.34589183 0.51139349 4294967295
2.4744282 -0.37545922 0.50187093 4294967295
2.4780002 -0.40556332 0.50013393 4294967295
2.471818 -0.43426254 0.50576812 4294967295
2.4697776 -0.46151993 0.51635599 4294967295
2.4679999 -0.4955515 0.51826364 4294967295
2.4685555 -0.52557594 0.51572269 4294967295
2.4721329 -0.55565047 0.51215839 4294967295
2.4723806 -0.58464992 0.50571686 4294967295
2.4768496 -0.61513156 0.50390762 4294967295
2.4763997 -0.64470714 0.50102752 4294967295
2.4793332 -0.67422968 0.50100678 4294967295
2.4833751 -0.70498234 0.50133544 4294967295
2.4836662 -0.73687112 0.50020432 4294967295
2.4792631 -0.76664847 0.50252336 4294967295
2.4776151 -0.79573196 0.50699914 4294967295
2.4720347 -0.8256532 0.50640458 4294967295
2.4678569 -0.85378909 0.50955373 4294967295
2.4630001 -0.8762759 0.51598412 4294967295
2.46 2.2514224 0.48116976 4294967295
2.4747641 2.2323506 0.47525209 4294967295
2.46 0.093942046 0.46690071 4294967295
2.4660416 0.076530278 0.47200423 4294967295
2.4650002 0.05791318 0.46964467 4294967295
2.4667857 -0.017006263 0.48310399 4294967295
2.4688888 -0.04382693 0.47626725 4294967295
2.4633331 -0.062784508 0.47953814 4294967295
2.46 -0.26278421 0.48973119 4294967295
2.4635715 -0.28398678 0.48805648 4294967295
2.4625001 -0.30304229 0.48970041 4294967295
2.4608333 -0.3827748 0.48401332 4294967295
2.4634614 -0.40494636 0.47848618 4294967295
2.4614284 -0.42569512 0.48563507 4294967295
2.4622221 -0.59404677 0.48145562 4294967295
2.4665003 -0.6154297 0.47535664 4294967295
2.4701004 -0.64497954 0.47528148 4294967295
2.4716001 -0.67404622 0.47525582 4294967295
2.4740319 -0.70396358 0.47475359 4294967295
2.4738281 -0.73532099 0.47563204 4294967295
2.468111 -0.76428342 0.47713161 4294967295
2.4673529 -0.79512042 0.48358437 4294967295
2.4630771 -0.82249177 0.48530105 4294967295
2.4686663 2.227932 0.44529426 4294967295
2.4819999 2.2133772 0.43993726 4294967295
2.4638889 0.075665824 0.45284677 4294967295
2.4625001 0.056903176 0.4554199 4294967295
2.46 -0.037333217 0.45548546 4294967295
2.46 -0.62521809 0.45548546 4294967295
2.4632351 -0.64587909 0.44800952 4294967295
2.4647729 -0.67503643 0.4467915 4294967295
2.4639997 -0.70512563 0.44487345 4294967295
2.4629998 -0.73226517 0.45197991 4294967295
2.4664814 2.2300005 0.41461796 4294967295
2.4800606 2.207509 0.41415733 4294967295
2.4693332 2.2325771 0.38691199 4294967295
2.4814286 2.2076793 0.38583246 4294967295
2.4681246 2.2271123 0.35816801 4294967295
2.4822755 2.2118125 0.35640091 4294967295
2.4681249 2.2209179 0.32141882 4294967295
2.4806206 2.2146962 0.32614049 4294967295
2.4749997 2.2296157 0.29360554 4294967295
2.4790001 2.2170463 0.3054429 4294967295
2.4655716 2.2532439 0.2583867 4294967295
2.4782333 2.2433503 0.26716867 4294967295
2.4720001 2.2824767 0.23148772 4294967295
2.475853 2.2598302 0.23677826 4294967295
2.4890001 2.2481265 0.23720351 4294967295
2.472857 2.287776 0.19983372 4294967295
2.477375 2.2615626 0.20514044 4294967295
2.4890001 2.2462018 0.20640403 4294967295
2.4693332 2.2866971 0.18087587 4294967295
2.4717631 2.2641227 0.17417976 4294967295
2.484714 2.2406716 0.17277333 4294967295
2.4646332 2.2642279 0.14753002 4294967295
2.4772751 2.2371635 0.14294836 4294967295
2.484 2.2157469 0.13211101 4294967295
2.4696667 2.2258821 0.12861919 4294967295
2.4753792 2.2022865 0.11741832 4294967295
2.46 2.1886387 0.10161301 4294967295
2.4768 2.1939883 0.083053172 4294967295
2.474 2.1896141 0.093491852 4294967295
2.4766662 2.2015123 0.054156363 4294967295
2.4650002 2.2216754 0.013071775 4294967295
2.4760003 2.2097967 0.026299685 4294967295
2.4649999 2.2502792 -0.019340932 4294967295
2.4738383 2.2351611 -0.0055375099 4294967295
2.4765 2.2176802 0.0068723559 4294967295
2.4748144 2.2426219 -0.034239888 4294967295
2.4738634 2.2322388 -0.065756798 4294967295
2.4790001 2.2170463 -0.079921246 4294967295
2.46 2.2537053 -0.10500282 4294967295
2.4733598 2.2320313 -0.095767915 4294967295
2.4649999 2.2971766 -0.1371569 4294967295
2.46 2.2753944 -0.13582397 4294967295
2.4724736 2.228224 -0.12271112 4294967295
2.477 2.2175534 -0.13230884 4294967295
2.4679413 2.2943964 -0.15674078 4294967295
2.4609997 2.2690892 -0.15702879 4294967295
2.4763334 2.2203774 -0.15010291 4294967295
2.4740715 2.2142439 -0.15518719 4294967295
2.4679999 2.2862289 -0.18146962 4294967295
2.4642591 2.2644253 -0.18604517 4294967295
2.467469 2.2337339 -0.1853798 4294967295
2.4811997 2.2120874 -0.18499881 4294967295
2.4621425 2.2566421 -0.21267098 4294967295
2.473278 2.2343907 -0.21577883 4294967295
2.4831669 2.2058735 -0.21551651 4294967295
2.4882858 2.1824615 -0.22319973 4294967295
2.4625001 2.2508509 -0.23304433 4294967295
2.4672801 2.2317414 -0.24057043 4294967295
2.4758949 2.2048705 -0.24559438 4294967295
2.4858329 2.1781592 -0.24498451 4294967295
2.4724052 2.2032137 -0.27506727 4294967295
2.4863911 2.181257 -0.2730844 4294967295
2.4806666 2.1961367 -0.29776186 4294967295
2.4871252 2.1839116 -0.29539806 4294967295
2.4933336 1.9059056 1.9066368 4294967295
2.4930003 1.8854077 1.9064505 4294967295
2.5096247 0.79054993 1.9124134 4294967295
2.5140383 0.76523066 1.9120851 4294967295
2.5118887 0.74347699 1.9156542 4294967295
2.5059998 -0.86753643 1.9175589 4294967295
2.5012858 -0.87281024 1.9060702 4294967295
2.4964616 2.2620585 1.8740621 4294967295
2.4970002 2.2358441 1.876996 4294967295
2.4930003 2.2087438 1.8757944 4294967295
2.4930003 1.9044954 1.8914118 4294967295
2.4930003 1.8882997 1.8919902 4294967295
2.5043125 0.79105693 1.8869624 4294967295
2.5142102 0.76715451 1.8847829 4294967295
2.5045383 -0.88058847 1.8851314 4294967295
2.4930003 2.2841034 1.8502612 4294967295
2.497828 2.2652457 1.8567806 4294967295
2.4967501 2.2343674 1.8542346 4294967295
2.4930003 2.2107682 1.859454 4294967295
2.4930003 2.1052067 1.8428245 4294967295
2.4946671 2.088284 1.8437049 4294967295
2.493 0.95415384 1.8428245 4294967295
2.493 0.78544837 1.8640333 4294967295
2.5030003 0.7652421 1.8569787 4294967295
2.504091 -0.88518149 1.8587292 4294967295
2.4930003 2.2613797 1.8370403 4294967295
2.4930003 2.2440274 1.8370403 4294967295
2.4999235 2.1353531 1.8148102 4294967295
2.5071743 2.1156301 1.8271786 4294967295
2.5050907 2.0845082 1.8259771 4294967295
2.4946668 2.0593438 1.8219978 4294967295
2.4930003 1.986631 1.8139036 4294967295
2.495188 1.9641294 1.8146731 4294967295
2.4942503 1.939883 1.8145494 4294967295
2.5010002 1.683273 1.8129616 4294967295
2.4973755 1.6636993 1.8188126 4294967295
2.4937503 1.6368917 1.8200753 4294967295
2.498625 1.6044952 1.8121014 4294967295
2.4989998 1.5791578 1.8117875 4294967295
2.5046666 1.2428738 1.813163 4294967295
2.499125 1.2217697 1.8127203 4294967295
2.493 1.0206718 1.8139036 4294967295
2.5013001 1.002584 1.8155791 4294967295
2.5028572 0.97450608 1.82542 4294967295
2.4999199 0.94647181 1.8246613 4294967295
2.4942501 0.92714423 1.8145494 4294967295
2.5079999 0.78241557 1.8100507 4294967295
2.5029998 0.76826197 1.8216609 4294967295
2.5037694 -0.87941879 1.825731 4294967295
2.4948182 2.2596047 1.7869538 4294967295
2.4992502 2.2354298 1.7855308 4294967295
2.5031307 2.2067816 1.7875805 4294967295
2.5008004 2.1750176 1.7958901 4294967295
2.5063848 2.1466694 1.8018129 4294967295
2.5104446 2.117353 1.7964249 4294967295
2.5011251 2.0830505 1.7960055 4294967295
2.4958127 2.0547411 1.7947375 4294967295
2.4987884 2.0259957 1.7903538 4294967295
2.501122 1.9942068 1.7958717 4294967295
2.5075333 1.9644632 1.7960255 4294967295
2.5027306 1.9334137 1.7934747 4294967295
2.5004485 1.9063287 1.7913367 4294967295
2.5032501 1.8742616 1.7895789 4294967295
2.4986088 1.8459128 1.7898265 4294967295
2.4942503 1.8241426 1.785614 4294967295
2.5055003 1.7186346 1.7884073 4294967295
2.5077932 1.6968303 1.8006855 4294967295
2.511857 1.6661438 1.7953795 4294967295
2.5087221 1.6360056 1.7973087 4294967295
2.5116255 1.6066451 1.8075399 4294967295
2.5098338 1.5720359 1.8080666 4294967295
2.5052378 1.5451945 1.8038973 4294967295
2.5032942 1.51616 1.8000932 4294967295
2.5014546 1.48579 1.8024527 4294967295
2.5042307 1.4547598 1.8031789 4294967295
2.5040951 1.4244288 1.7969487 4294967295
2.4970002 1.3971509 1.7939544 4294967295
2.4957585 1.3634323 1.7913619 4294967295
2.5031111 1.3373435 1.7952513 4294967295
2.5029411 1.3051857 1.7961595 4294967295
2.5037329 1.2748413 1.7997109 4294967295
2.4963334 1.2556413 1.8079059 4294967295
2.507 1.2096205 1.804859 4294967295
2.5031154 1.1863039 1.795444 4294967295
2.4951427 1.1571871 1.7889605 4294967295
2.493 1.1242615 1.7886636 4294967295
2.494 1.0928289 1.7915635 4294967295
2.5017221 1.064533 1.7953478 4294967295
2.5023844 1.0356646 1.8028938 4294967295
2.5074999 1.0164106 1.8083197 4294967295
2.5153334 0.93643951 1.8040937 4294967295
2.5040865 0.91634196 1.7966454 4294967295
2.493 0.89084905 1.7881962 4294967295
2.4980001 0.84304088 1.7831613 4294967295
2.5027502 0.82514507 1.7940537 4294967295
2.5027499 0.79637599 1.804794 4294967295
2.5036998 -0.88261908 1.7933002 4294967295
2.4959633 2.2588005 1.7671827 4294967295
2.5109723 2.2350936 1.7654557 4294967295
2.5170002 2.2159915 1.7679611 4294967295
2.511286 2.1144102 1.7663668 4294967295
2.4947648 2.0854216 1.7654457 4294967295
2.5002694 2.0486178 1.7640985 4294967295
2.503154 2.0353506 1.7744896 4294967295
2.5170002 1.9531972 1.7796409 4294967295
2.5127783 1.9330722 1.7762266 4294967295
2.5170002 1.9152381 1.7796409 4294967295
2.5133336 1.8408538 1.7739104 4294967295
2.5049644 1.8134891 1.7629867 4294967295
2.5031667 1.7853839 1.7559961 4294967295
2.5033751 1.754925 1.7673706 4294967295
2.501286 1.734553 1.7775658 4294967295
2.5170002 1.6845633 1.7796409 4294967295
2.5132864 1.6637563 1.768201 4294967295
2.5100715 1.6362398 1.7645303 4294967295
2.5151253 1.6088994 1.7553591 4294967295
2.5170002 1.5560861 1.7533615 4294967295
2.5138001 1.4176319 1.7698699 4294967295
2.5036666 1.3943924 1.7644776 4294967295
2.5019448 1.3667946 1.766444 4294967295
2.517 1.1764946 1.7776943 4294967295
2.5061498 1.1522311 1.7721499 4294967295
2.4967582 1.1252904 1.7658966 4294967295
2.493 1.0970231 1.7684013 4294967295
2.503963 1.0711795 1.7649302 4294967295
2.5123 0.90674937 1.7697005 4294967295
2.5017998 0.88302571 1.7691026 4294967295
2.5029998 0.85603213 1.7729237 4294967295
2.5014286 -0.88198507 1.7668705 4294967295
2.4930003 2.2527034 1.7416012 4294967295
2.5030506 2.2348912 1.7331529 4294967295
2.5134377 2.2128448 1.7363069 4294967295
2.5170002 2.1050339 1.7446017 4294967295
2.5063334 2.0844781 1.7442467 4294967295
2.5008001 2.0607188 1.7448325 4294967295
2.5133336 1.6315662 1.7460536 4294967295
2.5140004 1.6113925 1.7466391 4294967295
2.5170002 1.561926 1.7446017 4294967295
2.5170002 1.5560861 1.7446017 4294967295
2.5120001 1.3839753 1.7479974 4294967295
2.506 1.3767909 1.7489358 4294967295
2.5081248 1.1185156 1.7453663 4294967295
2.5011873 1.0929203 1.7434243 4294967295
2.503 1.0770324 1.749405 4294967295
2.504091 -0.88729995 1.7325054 4294967295
2.517 -0.90249896 1.7212422 4294967295
2.5120003 2.2815287 1.6955429 4294967295
2.5055001 2.2637534 1.7041094 4294967295
2.4992857 2.2451141 1.7152686 4294967295
2.5123 1.304288 1.701512 4294967295
2.5100002 1.2867781 1.6975217 4294967295
2.493 -0.89967769 1.7155725 4294967295
2.5021427 -0.90712029 1.7050244 4294967295
2.5068574 2.2818208 1.682341 4294967295
2.5064116 2.2702672 1.6689795 4294967295
2.5088573 1.2999144 1.6857454 4294967295
2.5039999 1.2880532 1.6874384 4294967295
2.5054288 -0.90747648 1.6741934 4294967295
2.4970002 2.2580438 1.650867 4294967295
2.5061002 2.2406685 1.6419019 4294967295
2.5046666 -0.90485197 1.6485132 4294967295
2.5036542 2.235491 1.6165533 4294967295
2.507 -0.90375674 1.6146722 4294967295
2.4991114 2.2572432 1.5786901 4294967295
2.5084233 2.2417638 1.585723 4294967295
2.5027778 -0.89609289 1.582176 4294967295
2.4979999 -0.90148205 1.5962588 4294967295
2.4977827 2.260288 1.5556027 4294967295
2.505522 2.2351897 1.5565468 4294967295
2.5073683 2.2071891 1.5516168 4294967295
2.4996665 0.55363327 1.5486476 4294967295
2.517 0.53410894 1.5460461 4294967295
2.5030668 -0.89284658 1.555454 4294967295
2.4930003 2.2353508 1.5362626 4294967295
2.5007589 2.1990588 1.5252004 4294967295
2.49775 0.53436226 1.5280325 4294967295
2.493 -0.89967769 1.5362626 4294967295
2.5031817 -0.90492374 1.5256259 4294967295
2.5027599 2.2041237 1.4949337 4294967295
2.5025001 0.5281179 1.505276 4294967295
2.5032859 -0.90669811 1.4931511 4294967295
2.5026958 2.2043834 1.4657271 4294967295
2.5033333 -0.90630078 1.464955 4294967295
2.5007005 2.225383 1.4245074 4294967295
2.5012634 2.2134197 1.4366928 4294967295
2.5079999 -0.89927185 1.4201787 4294967295
2.5032001 -0.90567261 1.4335556 4294967295
2.5020001 2.2252841 1.405012 4294967295
2.505125 -0.89349598 1.4020679 4294967295
2.4955001 -0.90347195 1.4156921 4294967295
2.5035653 2.2258577 1.3738763 4294967295
2.5012379 -0.88743246 1.374362 4294967295
2.5040386 2.2253287 1.3454516 4294967295
2.4980001 0.51268977 1.3383522 4294967295
2.503 -0.88892215 1.3449267 4294967295
2.5010002 2.2226019 1.3210949 4294967295
2.5057693 2.2172618 1.3093623 4294967295
2.4988 0.51285392 1.3136536 4294967295
2.502125 -0.89787596 1.3244514 4294967295
2.5043333 -0.902789 1.309431 4294967295
2.4930003 2.2237825 1.2846506 4294967295
2.5044417 2.2122474 1.2838812 4294967295
2.4978335 0.5174796 1.2803193 4294967295
2.5037694 -0.91114885 1.2859373 4294967295
2.5021567 2.2103271 1.2542534 4294967295
2.5050001 0.51120651 1.2592572 4294967295
2.4979999 0.50689393 1.2485116 4294967295
2.5057273 -0.91853267 1.2549834 4294967295
2.503 2.1998422 1.2264761 4294967295
2.4946671 2.1886089 1.2147392 4294967295
2.5079999 0.50310415 1.23979 4294967295
2.5039167 -0.91328239 1.223601 4294967295
2.5046251 2.1963637 1.1908832 4294967295
2.4951429 2.1884749 1.1997125 4294967295
2.4992499 -0.89902657 1.1850848 4294967295
2.5051668 -0.90405375 1.2011843 4294967295
2.5170002 2.2218313 1.1547749 4294967295
2.5011334 2.2089725 1.1662462 4294967295
2.5050001 0.51120651 1.1634004 4294967295
2.493 0.5058794 1.171859 4294967295
2.507 -0.89657182 1.1667807 4294967295
2.5075457 2.2235126 1.1312443 4294967295
2.4980001 2.217365 1.1412895 4294967295
2.5010002 0.51135886 1.1410253 4294967295
2.5079999 0.50892317 1.1234102 4294967295
2.5036998 -0.89307123 1.1368911 4294967295
2.5040913 2.2249353 1.1050324 4294967295
2.5027499 0.50349706 1.103272 4294967295
2.5035999 -0.88432145 1.1054971 4294967295
2.4930003 2.2527034 1.0619595 4294967295
2.5031819 2.2330132 1.0726099 4294967295
2.5027854 -0.89324236 1.0732034 4294967295
2.5046668 2.2610657 1.0461928 4294967295
2.5080001 2.2488005 1.0594013 4294967295
2.5058124 -0.89847016 1.0443857 4294967295
2.5011668 2.2573962 1.0163422 4294967295
2.5090001 2.2453227 1.0028582 4294967295
2.503 0.50210118 1.029289 4294967295
2.5005 -0.8994748 1.0258708 4294967295
2.5028 -0.90378278 1.0124047 4294967295
2.4930003 2.2555954 0.99833345 4294967295
2.5034688 2.2361684 0.98418057 4294967295
2.4979999 0.50689399 0.98479462 4294967295
2.5007775 -0.90505522 0.98627776 4294967295
2.5009499 2.2321398 0.95358145 4294967295
2.4990001 0.51143503 0.9487617 4294967295
2.4959998 -0.89959657 0.94793862 4294967295
2.5112002 -0.90157837 0.95987076 4294967295
2.493 2.2527034 0.92892325 4294967295
2.5010242 2.232883 0.92528951 4294967295
2.5114 2.2180474 0.91679013 4294967295
2.5049999 0.51412648 0.92508185 4294967295
2.5051253 -0.89605254 0.92292428 4294967295
2.493 2.2527034 0.8855418 4294967295
2.5051329 2.2349489 0.89525628 4294967295
2.5153334 2.2164669 0.90729594 4294967295
2.5002501 0.51169157 0.89965034 4294967295
2.51 0.50932902 0.88803685 4294967295
2.5008998 -0.89381558 0.89540577 4294967295
2.4963334 2.2530041 0.86382461 4294967295
2.509769 2.242976 0.86760795 4294967295
2.505625 0.50552136 0.86339188 4294967295
2.5013001 -0.89627761 0.86645114 4294967295
2.4980001 2.2514179 0.84570444 4294967295
2.5054798 2.2420943 0.83214879 4294967295
2.497 0.5066911 0.83686763 4294967295
2.4989092 -0.89864147 0.83554447 4294967295
2.5020356 2.2307734 0.80496734 4294967295
2.493 0.5058794 0.79010272 4294967295
2.4996667 -0.899176 0.81111419 4294967295
2.5008752 -0.90323168 0.79602849 4294967295
2.5021904 2.2272561 0.77339864 4294967295
2.4990001 0.50709695 0.77333993 4294967295
2.5124998 -0.89796549 0.76306832 4294967295
2.5021763 -0.90535998 0.77539313 4294967295
2.5065999 2.224251 0.75551385 4294967295
2.5021331 2.2086859 0.74116302 4294967295
2.5050001 0.51266646 0.74346358 4294967295
2.5044286 -0.89174759 0.74568087 4294967295
2.5046666 2.1978555 0.71581763 4294967295
2.5005 0.5190044 0.70678365 4294967295
2.5 -0.89639652 0.72125608 4294967295
2.5043335 -0.90569574 0.70610929 4294967295
2.5042307 2.2038414 0.68539006 4294967295
2.5018001 -0.91793132 0.68658864 4294967295
2.5037 2.2028091 0.6556145 4294967295
2.5005 -0.92848271 0.66618997 4294967295
2.5068333 -0.93470991 0.65105218 4294967295
2.5012002 2.2013614 0.62339127 4294967295
2.5049093 -0.94359422 0.62231171 4294967295
2.5032105 2.2038288 0.59557444 4294967295
2.5034735 -0.94868171 0.59222138 4294967295
2.493 -0.96330374 0.58187211 4294967295
2.5034001 2.2098081 0.56470853 4294967295
2.5027499 0.51655728 0.56469136 4294967295
2.5043335 0.50235009 0.553101 4294967295
2.5051665 -0.9195478 0.55747741 4294967295
2.5008667 -0.94194824 0.57162458 4294967295
2.5064998 2.2230027 0.52987963 4294967295
2.499125 2.2161849 0.54071927 4294967295
2.5015001 0.48873255 0.54581356 4294967295
2.5012858 0.46693689 0.53565675 4294967295
2.5071666 0.43603605 0.52987021 4294967295
2.5043333 0.40357739 0.53277355 4294967295
2.5088 0.37520242 0.53569746 4294967295
2.5104001 0.34632263 0.53570747 4294967295
2.5020001 0.313234 0.53662825 4294967295
2.5028 0.28720447 0.54031003 4294967295
2.5032859 0.25487572 0.54397219 4294967295
2.5105002 0.22304797 0.54639369 4294967295
2.5005717 0.19662066 0.54311627 4294967295
2.4979999 0.16493797 0.5414257 4294967295
2.5026002 0.13623217 0.53915149 4294967295
2.5083334 0.10449307 0.53569454 4294967295
2.5026002 0.07524623 0.53218818 4294967295
2.5073335 0.045337316 0.53376025 4294967295
2.5011666 0.016203323 0.53081989 4294967295
2.5026002 -0.015897725 0.52637941 4294967295
2.5009999 -0.043758176 0.5240432 4294967295
2.4963334 -0.075520486 0.52403563 4294967295
2.493 -0.10724425 0.52403027 4294967295
2.5113335 -0.13523266 0.52892256 4294967295
2.5009999 -0.16559961 0.52984595 4294967295
2.4978001 -0.19440284 0.53100133 4294967295
2.5018001 -0.22370881 0.53101707 4294967295
2.5068333 -0.25324288 0.52696711 4294967295
2.5120001 -0.28290966 0.52406096 4294967295
2.5053334 -0.31411764 0.52405018 4294967295
2.51 -0.34384584 0.52405775 4294967295
2.5026667 -0.44442901 0.52404588 4294967295
2.5011666 -0.46543938 0.52888256 4294967295
2.493 -0.49478474 0.52981442 4294967295
2.5 -0.52519232 0.52984202 4294967295
2.5032859 -0.55406302 0.52654803 4294967295
2.5050001 -0.58435369 0.52404964 4294967295
2.5153334 -0.6101051 0.52406633 4294967295
2.5043333 -0.79624248 0.52404857 4294967295
2.5044999 -0.82246929 0.52769065 4294967295
2.5035713 -0.85535514 0.53069031 4294967295
2.5045455 -0.88482285 0.53937846 4294967295
2.4955001 -0.90347195 0.54719424 4294967295
2.50425 2.225081 0.50661582 4294967295
2.493 -0.26920146 0.51824605 4294967295
2.493 -0.28655401 0.51824605 4294967295
2.493 -0.30390656 0.51824605 4294967295
2.493 -0.35596424 0.51824605 4294967295
2.5038002 -0.37493452 0.51475638 4294967295
2.5031111 -0.40579513 0.51050323 4294967295
2.4996667 -0.43230003 0.51824135 4294967295
2.493 -0.59311581 0.51824605 4294967295
2.4992499 -0.61490834 0.51824164 4294967295
2.5016999 -0.64451545 0.51534784 4294967295
2.5034547 -0.67533004 0.51560849 4294967295
2.5015554 -0.7041375 0.51502532 4294967295
2.5057273 -0.732499 0.5145489 4294967295
2.5009999 -0.76222289 0.51613605 4294967295
2.493 -0.78399396 0.51824605 4294967295
2.5050001 2.2240038 0.47987407 4294967295
2.494 2.2177289 0.46732134 4294967295
2.5145001 2.2225387 0.4569703 4294967295
2.5027645 2.2095804 0.44171613 4294967295
2.5027647 2.1952283 0.41782016 4294967295
2.4999998 2.1881158 0.40674019 4294967295
2.5001111 2.193357 0.38029739 4294967295
2.500875 2.1879942 0.38732591 4294967295
2.5018461 2.197489 0.3552568 4294967295
2.5029583 2.2062638 0.32660088 4294967295
2.5044546 2.2255187 0.29004881 4294967295
2.5009999 2.2163856 0.30355158 4294967295
2.5048418 2.2386065 0.26436836 4294967295
2.5021999 2.2453198 0.23406613 4294967295
2.5036535 2.2377231 0.20277068 4294967295
2.4981427 2.2261393 0.17876494 4294967295
2.5079088 2.2111385 0.17149347 4294967295
2.4964616 2.2241874 0.15244409 4294967295
2.5063334 2.2123888 0.14393404 4294967295
2.5051501 2.2020528 0.11661181 4294967295
2.5023334 2.1972582 0.08474344 4294967295
2.5035262 2.196161 0.054473668 4294967295
2.5022855 2.2010744 0.026695013 4294967295
2.5047858 2.2288713 -0.010195971 4294967295
2.502125 2.2144852 0.0044663548 4294967295
2.503238 2.2417443 -0.035720587 4294967295
2.5040555 2.2294295 -0.063066304 4294967295
2.493 2.2179983 -0.074632943 4294967295
2.5153334 2.2223029 -0.092611074 4294967295
2.5001249 2.217798 -0.096997738 4294967295
2.517 2.2218313 -0.13583618 4294967295
2.503 2.2178721 -0.12434047 4294967295
2.517 2.2218313 -0.15335584 4294967295
2.5 2.2155156 -0.15461087 4294967295
2.5019441 2.2082043 -0.18737549 4294967295
2.507 2.1962547 -0.20592701 4294967295
2.5002775 2.1803 -0.21816868 4294967295
2.5014443 2.1655216 -0.24656063 4294967295
2.4996362 2.1656146 -0.27497059 4294967295
2.5043333 2.1583357 -0.28457618 4294967295
2.4964614 2.1684861 -0.29846245 4294967295
2.5095458 2.1570146 -0.29957217 4294967295
2.5320001 0.7370308 1.9340146 4294967295
2.5469999 -0.87188947 1.9394367 4294967295
2.5365455 0.7426275 1.9151305 4294967295
2.5220001 -0.86918294 1.9225786 4294967295
2.5361669 -0.87700468 1.9127944 4294967295
2.5304615 0.7546348 1.8884104 4294967295
2.5286667 0.74779445 1.8969437 4294967295
2.5359998 -0.8857758 1.883288 4294967295
2.5358889 0.75973034 1.8550994 4294967295
2.5320001 -0.88201958 1.8517529 4294967295
2.5370002 1.6027719 1.8112253 4294967295
2.5320003 1.5829837 1.8106465 4294967295
2.5470002 1.5037193 1.8123829 4294967295
2.5410001 1.4836652 1.8116883 4294967295
2.5377142 1.2660737 1.8118625 4294967295
2.5353332 1.247314 1.8133121 4294967295
2.5353332 1.0027007 1.8152751 4294967295
2.5376251 0.97342396 1.8193833 4294967295
2.5282502 0.9544431 1.8160551 4294967295
2.5361667 0.78825569 1.8127607 4294967295
2.5353334 0.77133542 1.825076 4294967295
2.5359998 -0.8822394 1.8244603 4294967295
2.5346191 2.2059937 1.788726 4294967295
2.5351253 2.1738393 1.7956741 4294967295
2.5301251 2.1497669 1.7891365 4294967295
2.5395002 2.0442994 1.7820544 4294967295
2.5361667 2.0234535 1.7857926 4294967295
2.5328338 1.9918959 1.7846081 4294967295
2.5245004 1.9692633 1.7819258 4294967295
2.5432503 1.9278297 1.7839223 4294967295
2.5342729 1.9045699 1.7872032 4294967295
2.5320003 1.8809036 1.7846152 4294967295
2.5407503 1.7505642 1.7826771 4294967295
2.5333335 1.7264448 1.7854465 4294967295
2.5220003 1.6963618 1.7886449 4294967295
2.5367372 1.6271204 1.7947758 4294967295
2.5402148 1.6087136 1.7975346 4294967295
2.5389049 1.5741138 1.797595 4294967295
2.5363183 1.5442082 1.7919701 4294967295
2.5320001 1.517036 1.8021581 4294967295
2.5220003 1.4889597 1.8055491 4294967295
2.5360003 1.4548571 1.7969762 4294967295
2.5220001 1.4362965 1.7909205 4294967295
2.54075 1.3526464 1.7841544 4294967295
2.5337651 1.3347297 1.7921697 4294967295
2.5348573 1.3053832 1.7969685 4294967295
2.5320001 1.2774978 1.8062346 4294967295
2.5436666 1.2342031 1.8047822 4294967295
2.533 1.2145139 1.7958486 4294967295
2.5307498 1.1917191 1.7850448 4294967295
2.5347273 1.0564647 1.7879564 4294967295
2.5363333 1.0344828 1.8014635 4294967295
2.5353334 1.0164247 1.8064438 4294967295
2.5469999 0.96004766 1.8064735 4294967295
2.5339444 0.94206536 1.7939749 4294967295
2.5220001 0.92429274 1.785069 4294967295
2.54075 0.85305101 1.7841544 4294967295
2.5311668 0.82389438 1.7921052 4294967295
2.5344999 0.80342281 1.8050495 4294967295
2.540333 -0.88728935 1.7913259 4294967295
2.5262859 2.2224848 1.7667038 4294967295
2.5365002 2.2113574 1.7637888 4294967295
2.5388184 2.1446962 1.7653725 4294967295
2.5253336 2.1237142 1.7545077 4294967295
2.5395002 2.0737598 1.7555487 4294967295
2.5370002 2.0570056 1.7690481 4294967295
2.5220003 2.0389979 1.7762918 4294967295
2.5351255 1.9584243 1.7754618 4294967295
2.5320005 1.9374068 1.7753855 4294967295
2.5420003 1.8683938 1.7691993 4294967295
2.5298574 1.8487118 1.7638322 4294967295
2.5395002 1.8101027 1.7525939 4294967295
2.5355718 1.7860795 1.7611922 4294967295
2.5295005 1.7604125 1.7731779 4294967295
2.5445001 1.7162472 1.7742091 4294967295
2.5335791 1.6934814 1.7702774 4294967295
2.5305717 1.667625 1.7562153 4294967295
2.5270004 1.6228381 1.7748698 4294967295
2.530077 1.6038933 1.7676764 4294967295
2.528667 1.5754158 1.7635908 4294967295
2.5321727 1.5427511 1.763937 4294967295
2.5419998 1.4476864 1.7774018 4294967295
2.5350766 1.4269886 1.7615167 4294967295
2.5341427 1.3961433 1.7529258 4294967295
2.5335386 1.3650886 1.7666562 4294967295
2.5369999 1.1799595 1.7749314 4294967295
2.5323846 1.1561066 1.7602034 4294967295
2.5420001 1.0879161 1.7547952 4294967295
2.5311668 1.070559 1.7651807 4294967295
2.5419998 0.93309414 1.7729754 4294967295
2.533818 0.916596 1.7661287 4294967295
2.5332499 0.88871974 1.7627887 4294967295
2.5303333 0.8656956 1.7706596 4294967295
2.5344999 -0.88525188 1.7619222 4294967295
2.5470002 2.2542226 1.7237408 4294967295
2.535182 2.2351918 1.7256323 4294967295
2.5320003 2.2053833 1.7377906 4294967295
2.5411668 2.1134417 1.7475089 4294967295
2.529 2.0857127 1.7445724 4294967295
2.5220003 2.0682552 1.7470344 4294967295
2.543 1.8447464 1.7478056 4294967295
2.5281115 1.8190806 1.7473928 4294967295
2.5403333 1.6530198 1.7480904 4294967295
2.5382504 1.6376559 1.7468281 4294967295
2.5320005 1.6047698 1.7447495 4294967295
2.5281541 1.5769532 1.7441519 4294967295
2.5310915 1.5509036 1.7461084 4294967295
2.5295 1.3906735 1.7477403 4294967295
2.5469999 1.3293898 1.7311276 4294967295
2.5380001 1.3099569 1.7265577 4294967295
2.5375555 1.1258996 1.7467388 4294967295
2.529 1.0999533 1.7457428 4294967295
2.5369999 -0.8949545 1.7396166 4294967295
2.5369999 -0.90771198 1.7248894 4294967295
2.5407503 2.2825749 1.6986846 4294967295
2.5357504 2.2670374 1.7110733 4294967295
2.5220003 2.2467253 1.7177771 4294967295
2.5376248 1.3333368 1.7053187 4294967295
2.5345001 1.2970942 1.7089865 4294967295
2.5282502 1.285869 1.7031417 4294967295
2.5358887 -0.91187239 1.7047396 4294967295
2.5345004 2.2813797 1.6884308 4294967295
2.5345001 2.2677445 1.6792328 4294967295
2.5303335 2.2472816 1.6630151 4294967295
2.5369999 1.3212272 1.6895833 4294967295
2.5336668 1.3077303 1.6880467 4294967295
2.5320001 -0.90904766 1.6766922 4294967295
2.5336671 2.2423997 1.6458936 4294967295
2.5320001 -0.90787739 1.6461556 4294967295
2.536773 2.2392607 1.6142911 4294967295
2.5319998 -0.90394741 1.6138219 4294967295
2.5329528 2.2339134 1.5903239 4294967295
2.5341432 2.216779 1.5748545 4294967295
2.5311668 -0.89386517 1.5870498 4294967295
2.5301251 2.2077255 1.5543224 4294967295
2.5320001 0.53729194 1.5462862 4294967295
2.5339999 -0.89330411 1.561203 4294967295
2.5345001 -0.90289336 1.5443563 4294967295
2.536 2.2115333 1.524374 4294967295
2.5419998 0.53645915 1.5296795 4294967295
2.5345001 -0.91072428 1.522787 4294967295
2.5320005 2.2125487 1.4953705 4294967295
2.5379999 -0.91119903 1.496882 4294967295
2.5420001 2.2262058 1.4530188 4294967295
2.5298574 2.2122097 1.4649203 4294967295
2.5359998 -0.90931153 1.4655368 4294967295
2.5341432 2.2285597 1.4362757 4294967295
2.5220003 2.2145422 1.4486095 4294967295
2.5295 -0.89816898 1.4249523 4294967295
2.536 -0.90459102 1.4396327 4294967295
2.5315456 2.2319934 1.4067309 4294967295
2.5336666 -0.88625479 1.4058743 4294967295
2.5339231 2.2317796 1.3738451 4294967295
2.5220001 0.51761556 1.3608375 4294967295
2.5336668 -0.88168555 1.3751709 4294967295
2.5361667 2.2294197 1.3454415 4294967295
2.5220001 0.51761556 1.354986 4294967295
2.5345001 -0.89039087 1.3436861 4294967295
2.5355003 2.2234344 1.3200233 4294967295
2.5282502 2.2156184 1.3042527 4294967295
2.5345001 0.520181 1.303257 4294967295
2.5220001 -0.8984403 1.3198771 4294967295
2.5378335 -0.90603518 1.3131224 4294967295
2.5345001 2.2122757 1.2851242 4294967295
2.5345001 0.51870364 1.2841353 4294967295
2.5319998 -0.91570646 1.2809372 4294967295
2.5346925 2.2120979 1.2546837 4294967295
2.5345001 0.50547695 1.2503328 4294967295
2.5357499 -0.92098874 1.2565837 4294967295
2.5351255 2.2054679 1.2284415 4294967295
2.5339999 -0.91328734 1.2296002 4294967295
2.5420001 2.2232511 1.1876261 4294967295
2.5326252 2.2084334 1.1998484 4294967295
2.5220001 -0.8984403 1.1882191 4294967295
2.54 -0.90365911 1.1994411 4294967295
2.5336671 2.2287011 1.165834 4294967295
2.5444999 0.51632971 1.1646534 4294967295
2.5369999 -0.8978976 1.1676672 4294967295
2.5469999 -0.90143681 1.1652956 4294967295
2.5364447 2.235719 1.1348205 4294967295
2.5295 0.51328593 1.1432638 4294967295
2.5350001 -0.89365572 1.1357856 4294967295
2.5383639 2.2369337 1.1055398 4294967295
2.5369999 0.50892156 1.1186149 4294967295
2.54 -0.88834321 1.102832 4294967295
2.534632 2.2336633 1.074095 4294967295
2.5369999 0.50303531 1.0891836 4294967295
2.5344999 -0.89406776 1.0768598 4294967295
2.5372503 2.2655871 1.0456748 4294967295
2.5345001 2.2475395 1.057743 4294967295
2.5369999 -0.8978976 1.0479796 4294967295
2.5469999 -0.90143681 1.0323323 4294967295
2.5356362 2.2585819 1.0193443 4294967295
2.5348573 2.2468064 1.0055155 4294967295
2.5320001 0.5079186 1.029315 4294967295
2.5220001 -0.8984403 1.0273036 4294967295
2.534857 -0.90384817 1.0147736 4294967295
2.533 2.2331905 0.98444927 4294967295
2.5328333 -0.90719134 0.98539948 4294967295
2.5340002 2.2289786 0.95523447 4294967295
2.5353334 0.51446962 0.94761258 4294967295
2.5395 -0.90467453 0.95719028 4294967295
2.5295 2.2218404 0.93271303 4294967295
2.533875 2.2146566 0.9201982 4294967295
2.5444999 0.51632971 0.92409754 4294967295
2.5311668 -0.89778364 0.9263562 4294967295
2.5469999 -0.90143681 0.93778074 4294967295
2.5336664 2.2255497 0.89170164 4294967295
2.527 2.2159951 0.90518486 4294967295
2.5345001 0.5113458 0.8974638 4294967295
2.5220001 0.5059126 0.88101685 4294967295
2.5345001 -0.89479685 0.89677155 4294967295
2.5332067 2.233876 0.86458075 4294967295
2.5345001 0.50546533 0.86806142 4294967295
2.5270002 -0.8982594 0.866117 4294967295
2.5420001 -0.90162545 0.86423957 4294967295
2.5339048 2.2406478 0.83708584 4294967295
2.5469999 0.51092756 0.82550073 4294967295
2.52825 0.50716633 0.83790654 4294967295
2.5220001 -0.8984403 0.83420503 4294967295
2.5469999 -0.90143681 0.84027445 4294967295
2.5354998 2.2375593 0.80764097 4294967295
2.5345001 0.50842005 0.79753637 4294967295
2.5220001 -0.89844024 0.81079918 4294967295
2.5395 -0.90171975 0.80399632 4294967295
2.5344999 2.2372618 0.77575839 4294967295
2.5469999 0.51092756 0.78413439 4294967295
2.5320001 0.5079186 0.78845352 4294967295
2.5282502 -0.8977266 0.77045226 4294967295
2.5369999 -0.9018141 0.78308576 4294967295
2.5355713 2.226434 0.75352621 4294967295
2.533 2.214776 0.73917288 4294967295
2.5395 0.51531518 0.75094151 4294967295
2.5290003 -0.89036888 0.75058168 4294967295
2.5469999 2.2246752 0.70435655 4294967295
2.5332499 2.2126653 0.72098964 4294967295
2.5345001 0.520181 0.72695911 4294967295
2.5220001 -0.89551455 0.72595286 4294967295
2.5432501 -0.90895647 0.71441364 4294967295
2.5469999 2.2246752 0.67776388 4294967295
2.5284286 2.2134795 0.68330592 4294967295
2.5220001 -0.92184621 0.68791831 4294967295
2.5469999 -0.9368937 0.67185438 4294967295
2.5335002 2.2122834 0.65341043 4294967295
2.539 0.53288645 0.65367454 4294967295
2.5369999 -0.94105983 0.65164119 4294967295
2.5315001 2.2081912 0.6239329 4294967295
2.5369999 0.53246659 0.6241982 4294967295
2.5320001 -0.94410068 0.62200642 4294967295
2.5469999 2.2246752 0.58321226 4294967295
2.5326252 2.213578 0.59535229 4294967295
2.526 0.53015798 0.59440798 4294967295
2.5355716 -0.94149685 0.59469622 4294967295
2.5355716 2.223928 0.55939847 4294967295
2.5253334 2.2155108 0.57096386 4294967295
2.5386667 0.51905477 0.56532347 4294967295
2.5369999 0.49714905 0.55353272 4294967295
2.5313749 -0.91644794 0.56226462 4294967295
2.5353334 -0.93258291 0.57704031 4294967295
2.5359285 2.2296968 0.53587139 4294967295
2.5395 0.48290008 0.5476737 4294967295
2.5340002 0.46128765 0.538212 4294967295
2.5444999 0.43663305 0.53592086 4294967295
2.5370002 0.40586832 0.53882867 4294967295
2.5469999 0.38387391 0.54184598 4294967295
2.5469999 0.33364335 0.54184598 4294967295
2.52825 0.31653821 0.54168516 4294967295
2.5370002 0.2823146 0.54764646 4294967295
2.5220001 0.26307657 0.54748303 4294967295
2.5286667 0.19042756 0.54755569 4294967295
2.5361667 0.16450222 0.5476374 4294967295
2.5369999 0.12042759 0.54176021 4294967295
2.5419998 0.11181232 0.54180306 4294967295
2.5220001 0.061200865 0.53578007 4294967295
2.5220001 0.031943507 0.53578007 4294967295
2.5357499 0.011504111 0.53586608 4294967295
2.5220001 -0.023645457 0.52992862 4294967295
2.5339999 -0.044342518 0.52997583 4294967295
2.5339999 -0.073725164 0.52997583 4294967295
2.5220001 -0.1026403 0.52992862 4294967295
2.5220001 -0.12019473 0.52992862 4294967295
2.5403333 -0.17410679 0.53589475 4294967295
2.527 -0.19370981 0.53581136 4294967295
2.5336666 -0.22658376 0.53585309 4294967295
2.5345001 -0.26486492 0.5299778 4294967295
2.5449998 -0.2866216 0.53001916 4294967295
2.5359998 -0.31501618 0.5299837 4294967295
2.5419998 -0.33642608 0.53000736 4294967295
2.5320001 -0.36153287 0.52409327 4294967295
2.5370002 -0.4417057 0.5270474 4294967295
2.5345001 -0.4692215 0.5343954 4294967295
2.5240002 -0.49509043 0.53579259 4294967295
2.53825 -0.52439058 0.53588176 4294967295
2.5220001 -0.56490648 0.52992862 4294967295
2.5357499 -0.58269912 0.52998275 4294967295
2.54075 -0.6103276 0.52853954 4294967295
2.5379999 -0.64505595 0.52410299 4294967295
2.5469999 -0.67687672 0.52411753 4294967295
2.5369999 -0.70365059 0.52410138 4294967295
2.5409999 -0.73425168 0.52410787 4294967295
2.5369999 -0.7654236 0.52410138 4294967295
2.5320001 -0.79625171 0.52879769 4294967295
2.5357499 -0.82834369 0.53440326 4294967295
2.5279999 -0.85364074 0.53581762 4294967295
2.5350001 -0.88541257 0.54409522 4294967295
2.5350771 2.2327971 0.50780499 4294967295
2.5395 -0.38323471 0.51821333 4294967295
2.5295 -0.42279038 0.51822037 4294967295
2.5384998 2.2378552 0.47699043 4294967295
2.536375 2.2286172 0.44832331 4294967295
2.5320001 2.2145109 0.43303588 4294967295
2.5365455 2.2026997 0.41390583 4294967295
2.5308888 2.1962402 0.38446158 4294967295
2.5344999 2.2056634 0.3557623 4294967295
2.5328333 2.2122838 0.3228243 4294967295
2.5350001 2.2300522 0.29589871 4294967295
2.5220001 2.2145422 0.30757272 4294967295
2.5436666 2.2552042 0.25853384 4294967295
