# .PCD v0.7 - Point Cloud Data file format
VERSION 0.7
FIELDS x y z rgb
SIZE 4 4 4 4
TYPE F F F U
COUNT 1 1 1 1
WIDTH 1098
HEIGHT 1
VIEWPOINT 0 0 0 1 0 0 0
POINTS 1098
DATA ascii
1.3961204 0.49370453 1.0073695 4294967295
1.4011668 0.47611502 1.00395 4294967295
1.3919388 -0.92549598 1.0131884 4294967295
1.409 -0.93019867 1.0224533 4294967295
1.3859999 0.51117128 0.99817264 4294967295
1.3872001 0.49370182 0.99483865 4294967295
1.3892778 0.46482137 0.98811746 4294967295
1.3935 0.44683489 0.97691917 4294967295
1.3926347 -0.9245919 0.98644847 4294967295
1.3867999 0.43970719 0.96691656 4294967295
1.3931829 -0.91898268 0.95306516 4294967295
1.395 0.75902265 0.91674304 4294967295
1.3903333 0.74769956 0.92547393 4294967295
1.3831668 0.51547724 0.91161519 4294967295
1.3847095 0.4920918 0.91481447 4294967295
1.3913286 0.46489081 0.92056656 4294967295
1.4041363 0.44469997 0.91808987 4294967295
1.3940681 -0.9211086 0.93471229 4294967295
1.3923888 -0.93274719 0.91960305 4294967295
1.3814616 0.84789747 0.88442338 4294967295
1.381 0.83668751 0.88216603 4294967295
1.3835883 0.78493673 0.88573885 4294967295
1.3909202 0.77191639 0.89517069 4294967295
1.3911364 0.5181281 0.89509624 4294967295
1.3893785 0.49485594 0.89464766 4294967295
1.3991162 0.46804711 0.89688182 4294967295
1.4066668 0.44753635 0.90847731 4294967295
1.3958499 -0.92602652 0.88594854 4294967295
1.389073 -0.93305373 0.89729249 4294967295
1.3827143 0.84521407 0.87650585 4294967295
1.381 0.83668751 0.87682581 4294967295
1.3847353 0.79100436 0.86461508 4294967295
1.3939302 0.7750355 0.86477149 4294967295
1.3925881 0.51693124 0.86408597 4294967295
1.3906934 0.49439725 0.86465526 4294967295
1.3974898 0.47268215 0.86444163 4294967295
1.3960003 -0.92734581 0.87028146 4294967295
1.3885499 -0.93205243 0.86355388 4294967295
1.3837543 0.78778601 0.83513534 4294967295
1.39235 0.77428252 0.83673632 4294967295
1.3907599 0.51634836 0.84014863 4294967295
1.3932632 0.49491039 0.83385956 4294967295
1.3986998 0.473333 0.83657491 4294967295
1.391314 -0.92864978 0.83721375 4294967295
1.3934705 -0.93149883 0.826913 4294967295
1.3845193 0.78657043 0.80535281 4294967295
1.3917307 0.77657491 0.80379236 4294967295
1.3949132 0.5152337 0.80678439 4294967295
1.3965688 0.4952943 0.80390608 4294967295
1.4024615 0.47430715 0.80461359 4294967295
1.3947744 -0.9243266 0.79784888 4294967295
1.3933213 -0.93239105 0.8133077 4294967295
1.3863019 0.78518778 0.77512556 4294967295
1.3972592 0.77808744 0.77451575 4294967295
1.393 0.51213932 0.77111578 4294967295
1.3921492 0.49479184 0.77444541 4294967295
1.3950497 0.47047186 0.77333033 4294967295
1.3900908 -0.91717362 0.7745657 4294967295
1.3829311 0.78426641 0.74739909 4294967295
1.3901626 0.77526426 0.74428618 4294967295
1.3908335 0.51657981 0.74223816 4294967295
1.3882225 0.49432817 0.74421698 4294967295
1.3879638 0.46982393 0.74468696 4294967295
1.392388 -0.92406964 0.74630255 4294967295
1.3832859 -0.9322477 0.7393316 4294967295
1.3829093 0.78276074 0.71284914 4294967295
1.3897672 0.77512223 0.71525675 4294967295
1.3832926 0.51819545 0.71511787 4294967295
1.3853896 0.49487549 0.71509767 4294967295
1.3884503 0.46906257 0.71422887 4294967295
1.3906766 -0.91972518 0.71456105 4294967295
1.381 -0.93093842 0.7272985 4294967295
1.3858477 0.78490585 0.68524849 4294967295
1.3951082 0.7764895 0.68402386 4294967295
1.3913226 0.52081203 0.68527722 4294967295
1.3891428 0.49478334 0.68515903 4294967295
1.393424 0.47074032 0.68575937 4294967295
1.3905919 -0.91925627 0.68497384 4294967295
1.3813334 -0.93116307 0.68408203 4294967295
1.3813334 0.84223068 0.64295155 4294967295
1.381143 0.83234936 0.64171427 4294967295
1.3850002 0.78368127 0.65484494 4294967295
1.3891943 0.77475798 0.65851223 4294967295
1.3978285 0.51752657 0.65781558 4294967295
1.3944929 0.49471471 0.65519166 4294967295
1.3966048 0.47351354 0.65578479 4294967295
1.3907059 -0.91651773 0.65686822 4294967295
1.3833202 0.84699285 0.62520278 4294967295
1.382059 0.83095032 0.63022178 4294967295
1.3887743 0.78331101 0.62671006 4294967295
1.3874729 0.4895615 0.62486202 4294967295
1.3928627 0.4720895 0.62478763 4294967295
1.3922272 -0.91711444 0.62663364 4294967295
1.3922708 0.78467751 0.59453607 4294967295
1.3852687 0.48958102 0.59423655 4294967295
1.3911563 0.47038949 0.59547168 4294967295
1.3924913 -0.92452717 0.59512872 4294967295
1.3900515 0.78417778 0.56368434 4294967295
1.3857459 0.49028498 0.56445032 4294967295
1.3906295 0.47079808 0.56335938 4294967295
1.3932735 -0.91750318 0.56335789 4294967295
1.3888528 0.78269857 0.53635859 4294967295
1.3846483 0.48597145 0.53595942 4294967295
1.3870224 0.47060466 0.53704613 4294967295
1.3938065 -0.92253321 0.53669876 4294967295
1.3927619 0.78363091 0.50918394 4294967295
1.3876667 0.77847761 0.49219325 4294967295
1.385 0.47385031 0.51902556 4294967295
1.3941786 -0.92673522 0.51312762 4294967295
1.3923244 -0.93390256 0.49824393 4294967295
1.381 0.81853062 0.48538476 4294967295
1.3969091 0.7816667 0.46719283 4294967295
1.3895 0.77742028 0.47610506 4294967295
1.3924134 -0.91549098 0.47491512 4294967295
1.3912143 -0.93294048 0.48744601 4294967295
1.3904999 0.7848919 0.44493186 4294967295
1.3845381 0.49074295 0.44028318 4294967295
1.3842176 0.47330266 0.43817747 4294967295
1.3917857 -0.91274834 0.44399917 4294967295
1.3890555 0.78613377 0.41580498 4294967295
1.382 0.51130158 0.40359455 4294967295
1.3821415 0.49456415 0.41433945 4294967295
1.3846871 0.47387484 0.41494593 4294967295
1.3918628 -0.92113417 0.41569012 4294967295
1.3898058 0.78440869 0.38341278 4294967295
1.3839999 0.51204151 0.38415942 4294967295
1.3831615 0.49568444 0.38423777 4294967295
1.3848257 0.47364932 0.38442913 4294967295
1.3919423 -0.92450088 0.38456213 4294967295
1.409 -0.93019867 0.37189829 4294967295
1.3895384 0.78405231 0.35684091 4294967295
1.3889999 0.77895004 0.34257668 4294967295
1.3841249 0.51208776 0.35444054 4294967295
1.3832479 0.49571958 0.35535091 4294967295
1.383391 0.4730891 0.35561663 4294967295
1.3901052 -0.92789388 0.35436845 4294967295
1.3959168 -0.93093896 0.3576079 4294967295
1.3835883 0.7737999 0.32907107 4294967295
1.3869091 0.51370317 0.32390019 4294967295
1.3840905 0.49588481 0.32490078 4294967295
1.3862306 0.47276771 0.32363075 4294967295
1.3918406 -0.9215982 0.32340235 4294967295
1.3822002 0.77322078 0.29438305 4294967295
1.3831668 0.51315987 0.29742724 4294967295
1.382941 0.49556857 0.29446054 4294967295
1.3867104 0.46984181 0.2954855 4294967295
1.3902119 -0.91061699 0.29532716 4294967295
1.381 0.77046829 0.27711463 4294967295
1.3824444 0.51146603 0.26563278 4294967295
1.3843009 0.49448222 0.26529324 4294967295
1.3916957 0.47268289 0.26491824 4294967295
1.3929223 -0.91530007 0.26501033 4294967295
1.39825 0.8501243 0.22568676 4294967295
1.3848666 0.83089763 0.2272737 4294967295
1.3816667 0.77084023 0.23318058 4294967295
1.3811001 0.51128906 0.23544106 4294967295
1.3819486 0.49574661 0.23770624 4294967295
1.3873148 0.4690761 0.23972115 4294967295
1.3921113 -0.91959119 0.23493347 4294967295
1.3963244 0.85424995 0.20820177 4294967295
1.3842964 0.8340475 0.20772851 4294967295
1.3863531 0.77534348 0.20303679 4294967295
1.3834616 0.51258045 0.20715919 4294967295
1.3830805 0.4963845 0.2024678 4294967295
1.3813002 0.47450763 0.19565788 4294967295
1.3921324 -0.91802436 0.20357829 4294967295
1.4012221 0.78099597 0.17082843 4294967295
1.3899258 0.77830535 0.1761128 4294967295
1.4006332 0.51657623 0.17257953 4294967295
1.3889143 0.49403426 0.17448673 4294967295
1.3849229 0.46974275 0.17322382 4294967295
1.394226 -0.89579433 0.16758123 4294967295
1.389438 -0.91084266 0.18010905 4294967295
1.3905799 0.7840423 0.14471495 4294967295
1.398 0.77995265 0.158977 4294967295
1.3915088 0.52045107 0.14370239 4294967295
1.3869137 0.49413407 0.14436314 4294967295
1.3898573 0.46930245 0.14510369 4294967295
1.3994999 -0.89739227 0.15642723 4294967295
1.3920892 -0.91542709 0.14625445 4294967295
1.3877587 0.78333002 0.11622778 4294967295
1.409 0.54482853 0.10252273 4294967295
1.3979462 0.52266926 0.11387464 4294967295
1.3860005 0.49364954 0.11403653 4294967295
1.392303 0.46985841 0.11504346 4294967295
1.3933333 -0.92214012 0.11478037 4294967295
1.39525 0.84883559 0.07592988 4294967295
1.3847778 0.83433962 0.076004595 4294967295
1.3871 0.78448111 0.084344178 4294967295
1.409 0.54254019 0.095657587 4294967295
1.3970273 0.52056319 0.088895202 4294967295
1.3847129 0.49444163 0.085477501 4294967295
1.3914737 0.473147 0.085794061 4294967295
1.3886666 -0.92589086 0.095345914 4294967295
1.392909 -0.93335623 0.081881493 4294967295
1.3956001 0.8514365 0.05755353 4294967295
1.3843334 0.82952231 0.052943319 4294967295
1.3889456 0.78968823 0.052809685 4294967295
1.3947333 0.51850104 0.053268313 4294967295
1.3834835 0.49392816 0.055360436 4294967295
1.3951666 0.47677401 0.05655551 4294967295
1.3910552 -0.93591923 0.054093122 4294967295
1.4013332 0.84575987 0.024161577 4294967295
1.386517 0.82409024 0.024722546 4294967295
1.3880595 0.79037809 0.024032593 4294967295
1.3926471 0.52241951 0.022385955 4294967295
1.3822031 0.49539542 0.027363956 4294967295
1.3935115 0.47651851 0.023017943 4294967295
1.3899999 -0.92351043 0.019485593 4294967295
1.3979999 -0.93330634 0.029879928 4294967295
1.3984998 1.20954 -0.0086494684 4294967295
1.3921463 1.1848859 -0.011948228 4294967295
1.3935711 1.1556638 -0.01530242 4294967295
1.3926001 1.1252946 -0.014154077 4294967295
1.3905587 1.0942333 -0.014350295 4294967295
1.391838 1.0647587 -0.014927983 4294967295
1.390025 1.034779 -0.013902187 4294967295
1.3916745 1.0048947 -0.010871828 4294967295
1.3922621 0.97560263 -0.0099523067 4294967295
1.3908836 0.94608891 -0.011554241 4294967295
1.3917564 0.91504472 -0.012282848 4294967295
1.3928378 0.88570601 -0.01225692 4294967295
1.3920001 0.85518026 -0.0047235489 4294967295
1.3851111 0.82966256 0.0035316348 4294967295
1.3894075 0.78408188 0.0045754313 4294967295
1.3915437 0.76703638 -0.0080202818 4294967295
1.3924515 0.7372359 -0.016740561 4294967295
1.3903333 0.54339498 0.005079329 4294967295
1.3850856 0.52787423 0.0046664476 4294967295
1.381 0.4949109 0.009567678 4294967295
1.3911548 0.46565217 -0.0027100444 4294967295
1.3924443 0.43546098 -0.014389634 4294967295
1.3925385 0.41379076 -0.018791854 4294967295
1.3987777 0.33468616 -0.018990159 4294967295
1.3964615 0.31513429 -0.018692911 4294967295
1.398 0.29990005 -0.019420922 4294967295
1.3925998 -0.22469224 -0.019269884 4294967295
1.3980001 -0.31205887 -0.019420922 4294967295
1.388 -0.56852496 -0.019851625 4294967295
1.3910416 -0.58726066 -0.0180673 4294967295
1.3930416 -0.61409324 -0.017899752 4294967295
1.391 -0.63108051 -0.01994729 4294967295
1.3910002 -0.6633541 -0.01994729 4294967295
1.3895453 -0.86400658 -0.018497467 4294967295
1.3924088 -0.88765043 -0.012547135 4294967295
1.3922081 -0.90932769 0.00060075521 4294967295
1.3947858 0.72312355 -0.025801778 4294967295
1.3916087 0.71081376 -0.038993955 4294967295
1.3908571 0.67546803 -0.04570806 4294967295
1.3923751 0.40031213 -0.022478223 4294967295
1.3929794 0.3736681 -0.026757777 4294967295
1.3919091 0.34821284 -0.025634289 4294967295
1.3853477 0.31240773 -0.022920132 4294967295
1.392913 0.2860173 -0.023193359 4294967295
1.3932414 0.25595903 -0.024924576 4294967295
1.3935186 0.22517008 -0.025938928 4294967295
1.393654 0.19573659 -0.025069177 4294967295
1.3941817 0.16311368 -0.030769229 4294967295
1.3919575 0.13588978 -0.025242269 4294967295
1.3915358 0.10605925 -0.0230214 4294967295
1.3929199 0.075294808 -0.028693914 4294967295
1.3920301 0.044938315 -0.026691973 4294967295
1.3931175 0.015077678 -0.022649169 4294967295
1.3939375 -0.013458969 -0.026935935 4294967295
1.3920908 -0.043426733 -0.031517446 4294967295
1.3933002 -0.079499364 -0.036501765 4294967295
1.3965 -0.10436726 -0.031564772 4294967295
1.3943795 -0.13461398 -0.033734858 4294967295
1.3927058 -0.1646305 -0.036185622 4294967295
1.3935 -0.19700374 -0.030948937 4294967295
1.3929501 -0.22440705 -0.021155715 4294967295
1.394262 -0.25476584 -0.029353321 4294967295
1.3929129 -0.28570747 -0.026921451 4294967295
1.3924562 -0.31427753 -0.022518456 4294967295
1.3949118 -0.34451813 -0.026202917 4294967295
1.3941578 -0.37339604 -0.034949958 4294967295
1.3936365 -0.40899518 -0.031250179 4294967295
1.3931115 -0.43324193 -0.026222944 4294967295
1.3904548 -0.46437907 -0.023533106 4294967295
1.3932143 -0.49560809 -0.02459842 4294967295
1.392909 -0.52453959 -0.027874649 4294967295
1.3924092 -0.55357516 -0.023863673 4294967295
1.4061667 -0.57869464 -0.021482348 4294967295
1.3844999 -0.62331426 -0.020636439 4294967295
1.3943074 -0.64600462 -0.021217585 4294967295
1.3932593 -0.67697549 -0.021880209 4294967295
1.3905187 -0.70553023 -0.022732913 4294967295
1.392909 -0.73366147 -0.023409486 4294967295
1.3950869 -0.76435 -0.02897054 4294967295
1.3925358 -0.79584557 -0.028495193 4294967295
1.3919998 -0.82289243 -0.022954524 4294967295
1.3957777 -0.85183132 -0.021784723 4294967295
1.4089999 -0.8746236 -0.020396173 4294967295
1.4295557 -0.92586476 1.3105065 4294967295
1.4283704 -0.92571002 1.285507 4294967295
1.4273334 -0.93070108 1.2718397 4294967295
1.4300556 -0.92646092 1.2514362 4294967295
1.4243182 -0.93127942 1.2616363 4294967295
1.4267759 -0.92620611 1.225626 4294967295
1.4274894 -0.92701089 1.1954668 4294967295
1.4280769 -0.92552263 1.1662707 4294967295
1.4273448 -0.92777264 1.1352931 4294967295
1.4307059 -0.93104899 1.1309506 4294967295
1.4269652 -0.92807966 1.1078545 4294967295
1.4288331 -0.93099159 1.1027246 4294967295
1.4218094 -0.92840904 1.0723813 4294967295
1.4314545 -0.93097728 1.0757447 4294967295
1.4343333 0.4840675 1.0314872 4294967295
1.426625 -0.92895222 1.0531288 4294967295
1.4300512 -0.93310428 1.0434791 4294967295
1.4235715 0.48395762 1.0224609 4294967295
1.4283333 0.47165006 1.0107898 4294967295
1.428069 -0.92596561 1.009833 4294967295
1.4266843 -0.93261749 1.0230079 4294967295
1.4258749 0.45596731 0.994133 4294967295
1.426 0.44817486 0.98550415 4294967295
1.4287499 -0.92690867 0.99010038 4294967295
1.4284999 -0.93234223 0.98134685 4294967295
1.4271053 -0.91703135 0.95536065 4294967295
1.4294 0.76575094 0.92519045 4294967295
1.416375 0.43692979 0.91293687 4294967295
1.4293998 -0.92326999 0.93209732 4294967295
1.4276043 -0.93555158 0.92142183 4294967295
1.431 0.78264141 0.89306402 4294967295
1.420909 0.77742505 0.90025008 4294967295
1.4217932 0.458433 0.89141554 4294967295
1.4168333 0.44364777 0.9068982 4294967295
1.4306591 -0.92636335 0.89190197 4294967295
1.424381 -0.93371493 0.90376782 4294967295
1.430923 0.78273803 0.86783695 4294967295
1.4161428 0.77786785 0.86351651 4294967295
1.4234569 0.46613389 0.8666051 4294967295
1.4322104 -0.92616272 0.86900663 4294967295
1.426025 -0.93289232 0.86142421 4294967295
1.4288334 0.78581887 0.83725119 4294967295
1.418 0.77795076 0.84800255 4294967295
1.4241363 0.47010535 0.83559221 4294967295
1.4359708 -0.92438471 0.83325511 4294967295
1.4245576 -0.93281281 0.83565831 4294967295
1.426 0.78685641 0.80318475 4294967295
1.4245294 0.47103149 0.80497479 4294967295
1.4285864 -0.92303365 0.80507886 4294967295
1.4198999 -0.93177927 0.81582701 4294967295
1.4262272 0.7850076 0.77588308 4294967295
1.4238461 0.46654424 0.7812463 4294967295
1.4275872 -0.92033774 0.77504265 4294967295
1.4294616 0.78525287 0.74604976 4294967295
1.415 0.77958792 0.74060977 4294967295
1.4280612 -0.92658901 0.74564648 4294967295
1.4277501 -0.93015254 0.73845464 4294967295
1.4265001 0.78426075 0.71715927 4294967295
1.415 0.77958792 0.70777935 4294967295
1.434 0.46732482 0.70198298 4294967295
1.4280999 -0.9240613 0.71655136 4294967295
1.4279332 0.78472114 0.6866436 4294967295
1.4119999 0.77793509 0.67625844 4294967295
1.4245001 0.46823525 0.6828267 4294967295
1.4262925 -0.91842467 0.68485653 4294967295
1.4268668 0.78810203 0.65274465 4294967295
1.4119999 0.77793509 0.65987808 4294967295
1.4258946 0.47233358 0.65516031 4294967295
1.4261253 -0.91947639 0.65581644 4294967295
1.425 0.7956233 0.62420124 4294967295
1.4256877 0.47060019 0.62628949 4294967295
1.4278296 -0.92490989 0.62359816 4294967295
1.4322352 0.79748273 0.59463781 4294967295
1.4281539 0.47025716 0.59469008 4294967295
1.4266059 -0.92508149 0.59437698 4294967295
1.4308666 0.7962907 0.56680614 4294967295
1.4238889 0.47136503 0.57039362 4294967295
1.4270163 -0.91371989 0.56637335 4294967295
1.4288334 0.795766 0.53556484 4294967295
1.4277546 -0.9236601 0.53480041 4294967295
1.4326667 0.79707378 0.50420922 4294967295
1.4306412 -0.92684358 0.5086816 4294967295
1.4215714 -0.93176401 0.4999187 4294967295
1.4273683 0.78952736 0.47523382 4294967295
1.4265116 -0.92079598 0.47773787 4294967295
1.414 -0.93021882 0.48947868 4294967295
1.4259001 0.79567099 0.4453966 4294967295
1.4277691 -0.91878068 0.44502237 4294967295
1.4292144 0.79925573 0.416668 4294967295
1.4277949 -0.92617893 0.41605568 4294967295
1.42975 -0.93062258 0.4078649 4294967295
1.4273158 0.79647273 0.38566071 4294967295
1.4291713 -0.92727399 0.38730264 4294967295
1.4279 -0.93089992 0.38118947 4294967295
1.4265555 0.7951436 0.35758233 4294967295
1.438 -0.92932546 0.35967493 4294967295
1.42838 -0.93501127 0.35535064 4294967295
1.438 0.79559606 0.33882242 4294967295
1.4240667 0.47067785 0.31965154 4294967295
1.4278331 -0.9261288 0.3250235 4294967295
1.4289999 -0.93163115 0.33664358 4294967295
1.4263333 0.46886498 0.29544908 4294967295
1.4282333 -0.91394293 0.29577413 4294967295
1.4274501 0.47230163 0.26514021 4294967295
1.4269512 -0.91448528 0.26262286 4294967295
1.414 0.86761647 0.22045955 4294967295
1.4274 0.46781194 0.24191403 4294967295
1.4276268 -0.91724128 0.23453385 4294967295
1.4133333 0.8726722 0.21622956 4294967295
1.4119999 0.86638927 0.21760717 4294967295
1.431 0.78840309 0.19527432 4294967295
1.415 0.77958792 0.21368164 4294967295
1.4281125 -0.91449845 0.20591334 4294967295
1.4280454 0.78751719 0.17350611 4294967295
1.4176668 -0.89808369 0.16485679 4294967295
1.42735 -0.90676844 0.17764968 4294967295
1.4286362 0.78788185 0.14625579 4294967295
1.4119999 0.53550506 0.15536162 4294967295
1.4205 0.46622109 0.13503674 4294967295
1.4184999 -0.89778847 0.15698117 4294967295
1.4276943 -0.911587 0.1423035 4294967295
1.4170001 -0.93054509 0.13105661 4294967295
1.4270667 0.79681861 0.11329883 4294967295
1.4176251 0.54504061 0.11114302 4294967295
1.4134285 0.53839022 0.11189091 4294967295
1.4275185 0.4651981 0.11260188 4294967295
1.4265715 -0.92773145 0.11079547 4294967295
1.4293599 -0.93181694 0.11890674 4294967295
1.429 0.87682033 0.071398884 4294967295
1.4184999 0.86708647 0.073054761 4294967295
1.4259446 0.79718602 0.085624903 4294967295
1.424647 0.54768336 0.081878483 4294967295
1.4167777 0.53439438 0.080340952 4294967295
1.428 0.46619678 0.085358083 4294967295
1.4297776 -0.92765343 0.096970528 4294967295
1.4289997 -0.93882138 0.086331636 4294967295
1.4260557 0.88274843 0.058546841 4294967295
1.4135 0.86894768 0.06479153 4294967295
1.4293125 0.80135119 0.055343181 4294967295
1.435077 0.54451537 0.057204247 4294967295
1.4240909 0.53379184 0.06152305 4294967295
1.4271849 0.47464693 0.055923164 4294967295
1.4296248 -0.9513607 0.052454263 4294967295
1.4335715 0.87796527 0.023638964 4294967295
1.4172727 0.8612538 0.024558902 4294967295
1.4259999 0.79755235 0.024194896 4294967295
1.4261539 0.54851991 0.016559958 4294967295
1.4136667 0.53777832 0.022090197 4294967295
1.428237 0.4763284 0.025180161 4294967295
1.4149998 -0.92759359 0.010133088 4294967295
1.4299024 -0.94577014 0.023807913 4294967295
1.4318665 1.2402421 -0.012767136 4294967295
1.4300642 1.2140644 -0.012405097 4294967295
1.4268538 1.1851256 -0.013410807 4294967295
1.4264721 1.1548899 -0.012735248 4294967295
1.4262757 1.1251277 -0.015939176 4294967295
1.4267666 1.0936705 -0.016819656 4294967295
1.4271333 1.0650445 -0.015188992 4294967295
1.4259617 1.0338562 -0.013140082 4294967295
1.4289999 1.0047853 -0.011344612 4294967295
1.428296 0.97615069 -0.011829436 4294967295
1.4260002 0.94497138 -0.013333201 4294967295
1.4264166 0.91409481 -0.012160599 4294967295
1.4275895 0.88535857 -0.0053235292 4294967295
1.4178888 0.86561185 0.0028939247 4294967295
1.4281249 0.7876333 -0.0010747313 4294967295
1.4279392 0.76610988 -0.015502155 4294967295
1.4295999 0.74249238 -0.018650353 4294967295
1.4275 0.55380398 0.0081312656 4294967295
1.4287605 0.46336737 -0.0036740899 4294967295
1.4287239 0.43849829 -0.016966224 4294967295
1.438 0.41691408 -0.01817292 4294967295
1.438 0.36686799 -0.01817292 4294967295
1.4308213 0.34038091 -0.017719269 4294967295
1.4273423 0.31698543 -0.017814934 4294967295
1.4379998 0.28846246 -0.01817292 4294967295
1.4380001 0.18503389 -0.01817292 4294967295
1.4372857 0.16612408 -0.016714156 4294967295
1.4380001 0.14499703 -0.01817292 4294967295
1.438 -0.30541769 -0.01817292 4294967295
1.4146667 -0.61391848 -0.019287288 4294967295
1.4254285 -0.89471638 -0.016520441 4294967295
1.4278725 -0.91395992 -0.0034071207 4294967295
1.4336666 -0.93317431 0.0083987713 4294967295
1.4298359 0.72927606 -0.0303846 4294967295
1.413 0.71783447 -0.046519458 4294967295
1.4300001 0.42537418 -0.020562053 4294967295
1.4282501 0.40421477 -0.023283839 4294967295
1.427381 0.37574083 -0.023715198 4294967295
1.4223332 0.3524169 -0.021313608 4294967295
1.4278001 0.30297634 -0.020308197 4294967295
1.4268918 0.28416237 -0.022139549 4294967295
1.4287577 0.25576168 -0.028861463 4294967295
1.4281082 0.2240579 -0.026717603 4294967295
1.4276077 0.193948 -0.025296926 4294967295
1.4260665 0.16546318 -0.02641511 4294967295
1.4264444 0.13582328 -0.023203611 4294967295
1.4274347 0.10403961 -0.028605402 4294967295
1.4311026 0.072360128 -0.03200382 4294967295
1.42775 0.046410296 -0.027562499 4294967295
1.429161 0.013504819 -0.024795771 4294967295
1.4303042 -0.011314501 -0.032302439 4294967295
1.4302727 -0.044338807 -0.041822493 4294967295
1.4286002 -0.077824987 -0.03716445 4294967295
1.425702 -0.10454059 -0.026842713 4294967295
1.4288377 -0.13394973 -0.034434795 4294967295
1.4283528 -0.16436915 -0.04046911 4294967295
1.4308033 -0.19437228 -0.033263683 4294967295
1.4286561 -0.22418369 -0.022322416 4294967295
1.4281913 -0.25658086 -0.025328934 4294967295
1.427923 -0.28357679 -0.025524259 4294967295
1.4265484 -0.31450698 -0.021343708 4294967295
1.4275587 -0.34585375 -0.024860799 4294967295
1.4293693 -0.37554276 -0.033738792 4294967295
1.4291024 -0.40348807 -0.037953854 4294967295
1.4288332 -0.43374577 -0.029534578 4294967295
1.427174 -0.46347591 -0.029797077 4294967295
1.4292381 -0.49745387 -0.029412508 4294967295
1.429059 -0.5265277 -0.030504167 4294967295
1.4295527 -0.55462599 -0.030097544 4294967295
1.4289999 -0.5842815 -0.024167717 4294967295
1.4307618 -0.61448848 -0.021146178 4294967295
1.4278967 -0.6441527 -0.023170233 4294967295
1.4285554 -0.67462498 -0.024569809 4294967295
1.4271997 -0.70566189 -0.025554955 4294967295
1.4282759 -0.735829 -0.025484502 4294967295
1.4280744 -0.76666909 -0.02879566 4294967295
1.4296819 -0.79569191 -0.033282042 4294967295
1.4276901 -0.82404584 -0.027229905 4294967295
1.4289672 -0.85406673 -0.025575638 4294967295
1.4295197 -0.88111448 -0.022946775 4294967295
1.434 0.72240359 -0.052164495 4294967295
1.4265716 0.70675266 -0.055737138 4294967295
1.4365 0.67644906 -0.06093955 4294967295
1.434 0.63368106 -0.056601465 4294967295
1.4644285 -0.92455757 1.3329647 4294967295
1.4533128 -0.92381722 1.3136799 4294967295
1.4534782 -0.92434275 1.2840259 4294967295
1.4519459 -0.923926 1.2544301 4294967295
1.4503055 -0.92604136 1.2243876 4294967295
1.466 -0.93041396 1.2207847 4294967295
1.449893 -0.92666572 1.1944079 4294967295
1.4659998 -0.93041408 1.197542 4294967295
1.4553262 -0.92757016 1.1641026 4294967295
1.4512974 -0.92788202 1.1358893 4294967295
1.466 -0.93041402 1.1380179 4294967295
1.4480768 -0.92755562 1.1103055 4294967295
1.4571667 -0.93322676 1.1007721 4294967295
1.4541289 -0.92762774 1.0684537 4294967295
1.4534 -0.93204868 1.0838997 4294967295
1.4547777 0.48120865 1.0372745 4294967295
1.469 0.47873092 1.030216 4294967295
1.4533094 -0.92851365 1.0452085 4294967295
1.4481667 -0.93052477 1.0409061 4294967295
1.4500769 0.46891621 1.0150862 4294967295
1.4524345 -0.92551023 1.0146292 4294967295
1.4495 0.45387504 0.99821609 4294967295
1.4513714 -0.92725962 0.98578858 4294967295
1.459125 -0.93149984 0.98657799 4294967295
1.4528749 -0.9183712 0.95401704 4294967295
1.4647501 0.78405213 0.91829467 4294967295
1.4534816 0.7712881 0.92903143 4294967295
1.4511957 -0.92428118 0.92439997 4294967295
1.4518501 0.78690892 0.89524257 4294967295
1.4400001 0.77999741 0.9065482 4294967295
1.449 0.46042398 0.89499205 4294967295
1.4520445 -0.92197162 0.89516699 4294967295
1.4519231 0.78851771 0.86828756 4294967295
1.4516155 0.46761826 0.86432272 4294967295
1.451044 -0.91647041 0.86405832 4294967295
1.442 0.79194844 0.83349395 4294967295
1.4504286 0.47290975 0.83675587 4294967295
1.4490359 -0.91595209 0.83631313 4294967295
1.4536667 0.7946924 0.80224764 4294967295
1.4424286 0.4719834 0.80536652 4294967295
1.4523501 -0.91953385 0.80504304 4294967295
1.4544286 0.79358906 0.77450705 4294967295
1.4537659 -0.91996253 0.77431309 4294967295
1.447125 0.79014587 0.74687743 4294967295
1.453653 -0.92460793 0.74424523 4294967295
1.469 0.79911399 0.71324134 4294967295
1.4538112 -0.92232311 0.71607524 4294967295
1.4573334 0.79501265 0.68796897 4294967295
1.469 0.47532257 0.69279134 4294967295
1.4526753 -0.92056483 0.68530965 4294967295
1.4503 0.79601032 0.65522957 4294967295
1.4528332 0.47541422 0.65096909 4294967295
1.4538928 -0.92451519 0.65450382 4294967295
1.466 0.81108749 0.61420697 4294967295
1.4514377 0.80449241 0.62505341 4294967295
1.4535714 0.47319481 0.62925303 4294967295
1.4529488 -0.92461079 0.6244266 4294967295
1.453889 0.80475819 0.5965569 4294967295
1.4503332 0.47487658 0.5828926 4294967295
1.4533685 -0.92227906 0.59439778 4294967295
1.4555714 0.8041023 0.56384254 4294967295
1.4443334 0.47404343 0.57037562 4294967295
1.4520555 -0.91105533 0.56539029 4294967295
1.469 0.8127473 0.52919149 4294967295
1.4516667 0.80314618 0.54146153 4294967295
1.4520001 -0.92051715 0.53663933 4294967295
1.466 0.81108749 0.50706381 4294967295
1.4473 0.80173683 0.50451386 4294967295
1.4509997 -0.92570961 0.50647444 4294967295
1.467 -0.93104863 0.49967721 4294967295
1.4523888 0.79605621 0.47571757 4294967295
1.452143 -0.92400759 0.4735578 4294967295
1.4679999 -0.9316833 0.48490942 4294967295
1.4512666 0.80337679 0.44422352 4294967295
1.4540645 -0.92238206 0.44464847 4294967295
1.4625001 0.81169403 0.41208833 4294967295
1.449 0.80436695 0.42417234 4294967295
1.4517273 -0.92694724 0.41355038 4294967295
1.4675 -0.93136597 0.41511959 4294967295
1.464 0.81167352 0.39157525 4294967295
1.4511111 0.80434024 0.38280284 4294967295
1.4532955 -0.92576927 0.38510144 4294967295
1.4520001 0.80417717 0.35474631 4294967295
1.4532001 -0.92709547 0.35469529 4294967295
1.4402502 -0.93203247 0.351906 4294967295
1.4584999 0.80355406 0.33455974 4294967295
1.4555 0.47319841 0.31804341 4294967295
1.4525642 -0.92609113 0.32749844 4294967295
1.466 -0.93041396 0.31488639 4294967295
1.449 0.47221315 0.29939419 4294967295
1.4546072 -0.92148209 0.29745245 4294967295
1.4505334 0.47314692 0.26322493 4294967295
1.4517308 -0.91732299 0.26299313 4294967295
1.4535556 0.46994194 0.2409361 4294967295
1.4521333 -0.91132408 0.23372981 4294967295
1.443 0.79166639 0.1959022 4294967295
1.4528749 -0.91000432 0.20700705 4294967295
1.4506 0.79290646 0.17164111 4294967295
1.4533105 -0.91036987 0.17553446 4294967295
1.4515998 0.78946477 0.14531782 4294967295
1.4523332 -0.90885556 0.14434776 4294967295
1.4579999 0.81004417 0.10288876 4294967295
1.4548999 0.80121267 0.12033537 4294967295
1.4526 0.46528897 0.10961592 4294967295
1.450081 -0.9266485 0.11480606 4294967295
1.4573333 -0.93123627 0.11208948 4294967295
1.4649999 0.81308126 0.085586369 4294967295
1.4498571 0.80503494 0.076394498 4294967295
1.4561864 0.45904276 0.083622307 4294967295
1.454857 -0.92668617 0.09254542 4294967295
1.4535832 -0.9414565 0.079004854 4294967295
1.4593333 0.8119033 0.049488306 4294967295
1.4510001 0.80613917 0.061723351 4294967295
1.4484446 0.55624449 0.054093748 4294967295
1.4588637 0.46716392 0.055724204 4294967295
1.451243 -0.9514153 0.050144047 4294967295
1.4631426 -0.96302909 0.056799591 4294967295
1.4626666 0.90651262 0.021195382 4294967295
1.44675 0.89065444 0.019257486 4294967295
1.4606667 0.81264913 0.027554035 4294967295
1.4456668 0.8028174 0.020705879 4294967295
1.4554822 0.46947104 0.02295357 4294967295
1.469 0.33217269 0.011125267 4294967295
1.469 0.31939149 0.011551321 4294967295
1.4576936 -0.91736645 0.018879175 4294967295
1.4497283 -0.93977302 0.025675565 4294967295
1.464 1.2691956 -0.017024636 4294967295
1.4541175 1.2466328 -0.013276458 4294967295
1.4512352 1.2144688 -0.011232853 4294967295
1.4531786 1.182518 -0.010472596 4294967295
1.4515501 1.1532798 -0.013977408 4294967295
1.4521998 1.126328 -0.016866803 4294967295
1.4536666 1.0960174 -0.015144169 4294967295
1.4549631 1.0659924 -0.014375389 4294967295
1.4537307 1.034385 -0.012231469 4294967295
1.4546399 1.0046959 -0.010746717 4294967295
1.4517694 0.97471231 -0.012301266 4294967295
1.4510802 0.94419158 -0.011735082 4294967295
1.4532498 0.91390693 -0.0064591765 4294967295
1.4462729 0.89351547 0.0025432706 4294967295
1.4533929 0.79169405 -0.0045295954 4294967295
1.4530712 0.76561928 -0.016452789 4294967295
1.4525454 0.73612326 -0.017055988 4294967295
1.4509565 0.45847788 0.0018159747 4294967295
1.4554759 0.43476418 -0.0070287585 4294967295
1.4551198 0.40599528 -0.011740923 4294967295
1.4551802 0.37490827 -0.012935579 4294967295
1.4558427 0.34423661 -0.0065088272 4294967295
1.4569484 0.31456876 -0.0039342046 4294967295
1.4575003 0.28604487 -0.0085035563 4294967295
1.4596667 0.25694725 -0.014546037 4294967295
1.458195 0.22435595 -0.015971243 4294967295
1.4532592 0.19510406 -0.013851583 4294967295
1.4547737 0.16399851 -0.010910153 4294967295
1.4558214 0.14268549 -0.0147928 4294967295
1.469 0.090181209 -0.019549727 4294967295
1.4643748 0.076092564 -0.018269837 4294967295
1.469 0.041612506 -0.019549727 4294967295
1.4610001 0.011924086 -0.019096434 4294967295
1.4637691 -0.011774081 -0.018930495 4294967295
1.4575454 -0.20225663 -0.01932025 4294967295
1.453735 -0.22443454 -0.018680334 4294967295
1.4551878 -0.2557736 -0.019201577 4294967295
1.4528332 -0.28495073 -0.018642426 4294967295
1.4515996 -0.31434241 -0.018412411 4294967295
1.4545 -0.33085239 -0.019280851 4294967295
1.4435556 -0.62254304 -0.019131184 4294967295
1.4484446 -0.63584322 -0.019083619 4294967295
1.4656667 -0.6864801 -0.019453824 4294967295
1.4561378 -0.70429182 -0.018305659 4294967295
1.4597776 -0.72625643 -0.018785536 4294967295
1.4466001 -0.8942641 -0.017692566 4294967295
1.4531789 -0.91266251 -0.0010959506 4294967295
1.4425 -0.93055737 0.0085940361 4294967295
1.4525909 0.72244292 -0.035243452 4294967295
1.4453529 0.71858269 -0.033353031 4294967295
1.4457879 0.25189522 -0.024023712 4294967295
1.4445555 0.22964153 -0.022856176 4294967295
1.4554375 0.12711984 -0.022991836 4294967295
1.4547296 0.10334408 -0.027508438 4294967295
1.4490001 0.076840997 -0.023909569 4294967295
1.452921 0.044925347 -0.022492409 4294967295
1.4485416 0.018227175 -0.021541774 4294967295
1.4519999 -0.018278612 -0.028300047 4294967295
1.4617367 -0.045426089 -0.037559569 4294967295
1.4528105 -0.073187433 -0.029427946 4294967295
1.452294 -0.10528217 -0.021813929 4294967295
1.4515607 -0.13611357 -0.028393626 4294967295
1.4495554 -0.16645645 -0.029178023 4294967295
1.4481287 -0.19018237 -0.022156835 4294967295
1.443 -0.23784553 -0.020044208 4294967295
1.443 -0.25067952 -0.020044208 4294967295
1.4536072 -0.34703156 -0.021824241 4294967295
1.4540454 -0.37582088 -0.024682462 4294967295
1.453019 -0.40434176 -0.02991122 4294967295
1.4544287 -0.43393803 -0.028254092 4294967295
1.454963 -0.46415678 -0.029620349 4294967295
1.4522353 -0.49692741 -0.032210827 4294967295
1.4528288 -0.52648628 -0.026204646 4294967295
1.4520426 -0.55394816 -0.023755312 4294967295
1.4540268 -0.58423752 -0.022503555 4294967295
1.457762 -0.61175472 -0.021205723 4294967295
1.4521577 -0.65116835 -0.020967484 4294967295
1.451472 -0.67532855 -0.021509647 4294967295
1.4415295 -0.70377904 -0.021262646 4294967295
1.45084 -0.73659682 -0.022418797 4294967295
1.4525558 -0.76457679 -0.026343763 4294967295
1.4524996 -0.79665542 -0.027130365 4294967295
1.4518845 -0.82438809 -0.025688052 4294967295
1.4539285 -0.85439962 -0.023996353 4294967295
1.4550436 -0.88234818 -0.022770762 4294967295
1.452818 0.72225374 -0.053735733 4294967295
1.4502667 0.70993793 -0.061794341 4294967295
1.443 0.6845302 -0.063568294 4294967295
1.4875624 -0.92454511 1.3416718 4294967295
1.4965 -0.89942229 1.3088608 4294967295
1.4869325 -0.91867846 1.3137772 4294967295
1.4860106 -0.91849703 1.2857648 4294967295
1.4873439 -0.92536998 1.2566787 4294967295
1.4814287 -0.93087351 1.2471457 4294967295
1.4910868 -0.925188 1.2258253 4294967295
1.478862 -0.93182552 1.2247133 4294967295
1.4909999 -0.92704827 1.1934327 4294967295
1.4793636 -0.93217903 1.1957667 4294967295
1.4872309 -0.92780107 1.1659921 4294967295
1.4826666 -0.93067151 1.1553626 4294967295
1.4923236 -0.92735261 1.1366875 4294967295
1.4799032 -0.93146932 1.1335579 4294967295
1.495 -0.92800033 1.1014869 4294967295
1.4839199 -0.93432397 1.1056292 4294967295
1.4903673 -0.92574209 1.0734863 4294967295
1.4797502 -0.9314093 1.0779321 4294967295
1.4842352 0.48185593 1.0452311 4294967295
1.4917779 0.47807127 1.0427272 4294967295
1.4879498 -0.92412025 1.0441633 4294967295
1.4757501 -0.93031645 1.0525334 4294967295
1.4851428 0.46650109 1.0188324 4294967295
1.4855554 -0.92689854 1.0155935 4294967295
1.482 -0.93025309 1.0003464 4294967295
1.4892052 -0.92713302 0.98327696 4294967295
1.4788748 -0.93150073 0.9894619 4294967295
1.4775 0.76774156 0.94061089 4294967295
1.4869584 -0.92413646 0.9545033 4294967295
1.4852186 0.78627741 0.91748512 4294967295
1.4878843 0.76776564 0.92472434 4294967295
1.4861356 -0.92585838 0.92529249 4294967295
1.4886945 0.79550278 0.89908743 4294967295
1.48575 0.4703944 0.88953006 4294967295
1.4865533 -0.92174309 0.8942734 4294967295
1.498 0.81141394 0.85260522 4294967295
1.4868332 0.80248362 0.8664099 4294967295
1.4852222 0.47328871 0.865264 4294967295
1.485 -0.91403484 0.86700511 4294967295
1.4903332 0.81263518 0.8359226 4294967295
1.479 0.80798542 0.84323573 4294967295
1.4868332 0.48108363 0.8311553 4294967295
1.4829091 0.47824204 0.84019822 4294967295
1.4868946 -0.91888666 0.83312434 4294967295
1.4935 0.81070614 0.81521297 4294967295
1.4860001 0.80596316 0.80086076 4294967295
1.4860001 0.48079541 0.81714517 4294967295
1.4904001 0.47809339 0.80043364 4294967295
1.4875615 -0.91980344 0.8052249 4294967295
1.4872609 0.80558026 0.77400053 4294967295
1.4855345 -0.91972089 0.77489507 4294967295
1.4847895 0.80515063 0.7465049 4294967295
1.4844927 -0.92066592 0.74574399 4294967295
1.4873847 0.80618739 0.71697795 4294967295
1.4834 -0.92126471 0.71533018 4294967295
1.4866923 0.80634379 0.68611395 4294967295
1.484 0.48017612 0.67045379 4294967295
1.4892727 0.47936279 0.68167567 4294967295
1.4872198 -0.925156 0.68388939 4294967295
1.4892727 0.81421167 0.64995539 4294967295
1.482 0.80616027 0.66339958 4294967295
1.4914166 0.48141718 0.65446782 4294967295
1.494 0.47994548 0.66800129 4294967295
1.4882263 -0.92566121 0.65452689 4294967295
1.4766668 -0.93032295 0.65658122 4294967295
1.4873527 0.81782174 0.62511653 4294967295
1.4886667 0.48052913 0.63753659 4294967295
1.4880002 0.47801015 0.62664753 4294967295
1.4840436 -0.92326427 0.62509423 4294967295
1.4859231 0.81533235 0.59427488 4294967295
1.4893333 0.48074332 0.58345753 4294967295
1.4856666 0.47841227 0.5919137 4294967295
1.4871975 -0.91918564 0.59421885 4294967295
1.4880953 0.81540704 0.56530112 4294967295
1.4841001 0.48192078 0.57060266 4294967295
1.4878592 -0.91220719 0.56593466 4294967295
1.4878182 0.8193866 0.53527206 4294967295
1.486486 -0.92095882 0.53533155 4294967295
1.4888459 0.81707239 0.50140685 4294967295
1.474 0.8086738 0.49160352 4294967295
1.4912606 -0.92597067 0.50540543 4294967295
1.4796001 -0.9321717 0.50316519 4294967295
1.4903334 0.81186825 0.4693934 4294967295
1.4849474 0.80596536 0.47470313 4294967295
1.4907144 -0.92452157 0.47356519 4294967295
1.4799523 -0.93206716 0.47759411 4294967295
1.4841251 0.81508058 0.44492254 4294967295
1.4866002 -0.92514241 0.44520637 4294967295
1.488524 0.81975514 0.41665354 4294967295
1.4914564 -0.92609346 0.41543823 4294967295
1.479875 -0.93205875 0.41438574 4294967295
1.4886 0.82059091 0.38541558 4294967295
1.484984 -0.92537177 0.38480875 4294967295
1.4870001 0.81818843 0.35707712 4294967295
1.4857972 -0.92365229 0.35504118 4294967295
1.4893333 0.81822759 0.33465484 4294967295
1.4773332 0.47687283 0.31558529 4294967295
1.4869218 -0.92004555 0.32504144 4294967295
1.4763637 -0.9310686 0.31779787 4294967295
1.4875 0.47827905 0.29461819 4294967295
1.4855907 -0.92192602 0.29736376 4294967295
1.4870586 0.47749841 0.26345307 4294967295
1.4868571 -0.9263618 0.25939095 4294967295
1.4903332 -0.93201685 0.26681584 4294967295
1.4842306 0.47573891 0.24135199 4294967295
1.486878 -0.9117409 0.23771596 4294967295
1.493 0.81216967 0.19333223 4294967295
1.4865489 -0.91238528 0.20401227 4294967295
1.484 0.81071693 0.18841517 4294967295
1.4866668 0.80564398 0.1730082 4294967295
1.4878143 -0.91369408 0.17544019 4294967295
1.4862499 0.79899901 0.14682335 4294967295
1.4876051 -0.91549313 0.14466301 4294967295
1.48525 0.81482536 0.1086027 4294967295
1.4873 0.80284458 0.12418607 4294967295
1.498 0.4812305 0.11229905 4294967295
1.4872499 0.47029585 0.10517019 4294967295
1.4896364 -0.92307734 0.11451203 4294967295
1.4783847 -0.93166995 0.10734734 4294967295
1.4870588 0.82090634 0.083430171 4294967295
1.4817742 0.45537943 0.091914952 4294967295
1.4828949 0.43525642 0.085341692 4294967295
1.4858918 0.40497836 0.084992886 4294967295
1.4875865 0.37475729 0.082974613 4294967295
1.4879165 0.34490502 0.081278503 4294967295
1.4891995 0.31468257 0.081247389 4294967295
1.4883749 0.2847569 0.082123846 4294967295
1.487727 0.25481817 0.082631677 4294967295
1.4864842 0.22553344 0.080787987 4294967295
1.4914132 0.19595484 0.080395758 4294967295
1.4922261 0.16457619 0.080820918 4294967295
1.4916002 0.13482732 0.07943216 4294967295
1.4930888 0.10551385 0.079000652 4294967295
1.4928163 0.073620431 0.079930454 4294967295
1.4922764 0.045125339 0.08078748 4294967295
1.4898301 0.01456816 0.080358207 4294967295
1.4945205 -0.014748823 0.07929635 4294967295
1.4987409 -0.044123005 0.074748695 4294967295
1.4979259 -0.074865706 0.074090809 4294967295
1.496781 -0.10660391 0.075517714 4294967295
1.4969482 -0.13572983 0.077589661 4294967295
1.4981999 -0.16386977 0.075796515 4294967295
1.499 -0.18621194 0.071161121 4294967295
1.4990001 -0.22701976 0.071914613 4294967295
1.4990002 -0.25735155 0.072979063 4294967295
1.499 -0.27316034 0.072030634 4294967295
1.4988333 -0.31949642 0.073239654 4294967295
1.4986665 -0.34051886 0.073675931 4294967295
1.4985714 -0.4084332 0.07191056 4294967295
1.4985652 -0.43423051 0.07374841 4294967295
1.4989998 -0.45500669 0.071782261 4294967295
1.4981052 -0.53423291 0.077328831 4294967295
1.4975758 -0.5531916 0.076300561 4294967295
1.499 -0.57400179 0.070291668 4294967295
1.4985 -0.62031168 0.076091856 4294967295
1.4989998 -0.63356143 0.076378077 4294967295
1.499 -0.70500404 0.071450919 4294967295
1.4962381 -0.89322782 0.075916499 4294967295
1.4892262 -0.91797245 0.085022449 4294967295
1.4774374 -0.93444777 0.079976737 4294967295
1.4870999 0.81878 0.054210782 4294967295
1.4746064 0.45618877 0.052102417 4294967295
1.4799739 0.43400019 0.054632694 4294967295
1.4833834 0.40425768 0.054333448 4294967295
1.4832231 0.3749665 0.054386377 4294967295
1.4837289 0.3458235 0.054225087 4294967295
1.4879084 0.31617847 0.055238545 4294967295
1.4879855 0.2846849 0.054600418 4294967295
1.4867029 0.25511479 0.055007219 4294967295
1.4865276 0.22576778 0.055060774 4294967295
1.4889346 0.19458401 0.055319339 4294967295
1.4925294 0.16434415 0.054920167 4294967295
1.4932905 0.13498245 0.054681957 4294967295
1.4922084 0.10545404 0.055017233 4294967295
1.4925265 0.074637607 0.056221753 4294967295
1.4935157 0.044906177 0.056332737 4294967295
1.4914091 0.015567101 0.054731101 4294967295
1.4941229 -0.015751442 0.054427743 4294967295
1.4953618 -0.045242272 0.054048777 4294967295
1.4944938 -0.074695617 0.05431363 4294967295
1.4952829 -0.10555697 0.054597884 4294967295
1.496938 -0.1355976 0.055283934 4294967295
1.4970137 -0.1646754 0.054248691 4294967295
1.4981275 -0.19460103 0.054722548 4294967295
1.4977541 -0.22446971 0.054818153 4294967295
1.4973428 -0.25539503 0.054946035 4294967295
1.4987857 -0.27734432 0.048498452 4294967295
1.4988226 -0.31941673 0.056898087 4294967295
1.4981648 -0.34496635 0.054511011 4294967295
1.4989448 -0.37374932 0.053048462 4294967295
1.498306 -0.40513203 0.054856867 4294967295
1.4987174 -0.43352404 0.053842694 4294967295
1.4990003 -0.46194986 0.049869925 4294967295
1.49875 -0.53478539 0.066019863 4294967295
1.4985663 -0.55622137 0.057955295 4294967295
1.4988749 -0.57351935 0.061199874 4294967295
1.499 -0.61560321 0.064673513 4294967295
1.4984519 -0.70624012 0.054754078 4294967295
1.4985514 -0.73238432 0.051552325 4294967295
1.499 -0.81919622 0.052901983 4294967295
1.4968402 -0.89087045 0.055863649 4294967295
1.4917777 -0.9151293 0.054825932 4294967295
1.4852304 -0.94533861 0.05303967 4294967295
1.4799129 -0.96371496 0.054669708 4294967295
1.487 0.9400093 0.032490611 4294967295
1.4865 0.92417824 0.011960924 4294967295
1.4868001 0.82275838 0.02514568 4294967295
1.4753727 0.45838147 0.026774108 4294967295
1.4778199 0.4342626 0.025227547 4294967295
1.4791993 0.40521446 0.024546891 4294967295
1.480885 0.37556228 0.023972571 4294967295
1.478687 0.3450478 0.024894625 4294967295
1.4798774 0.31455299 0.025857896 4294967295
1.4840943 0.28504372 0.024050832 4294967295
1.4876106 0.25526986 0.025392085 4294967295
1.4880363 0.22599591 0.025250196 4294967295
1.4883572 0.19496503 0.025146723 4294967295
1.488948 0.16448373 0.025352061 4294967295
1.4903458 0.13533249 0.024068236 4294967295
1.494236 0.10558654 0.024912268 4294967295
1.4983125 0.077205263 0.028451979 4294967295
1.4978752 0.041349214 0.026246607 4294967295
1.4911418 0.015486224 0.026086241 4294967295
1.4915588 -0.015305229 0.025181085 4294967295
1.49278 -0.045165986 0.025399029 4294967295
1.4935975 -0.074650191 0.02512759 4294967295
1.4962008 -0.10547839 0.025062591 4294967295
1.4966761 -0.1345543 0.025617659 4294967295
1.4955271 -0.16541849 0.02531001 4294967295
1.4959449 -0.19451116 0.026086897 4294967295
1.496751 -0.22395803 0.025644451 4294967295
1.4965255 -0.25543481 0.025717288 4294967295
1.4981182 -0.28445372 0.024909794 4294967295
1.4989998 -0.31246099 0.012905777 4294967295
1.4985292 -0.3466334 0.02434054 4294967295
1.4987504 -0.3748742 0.025481164 4294967295
1.4988486 -0.4055883 0.025039256 4294967295
1.4988339 -0.43483546 0.025132746 4294967295
1.4984595 -0.46171546 0.028106004 4294967295
1.499 -0.48322767 0.036207944 4294967295
1.4989287 -0.56627351 0.018892229 4294967295
1.4974563 -0.58510828 0.02339676 4294967295
1.4980977 -0.61091763 0.02097106 4294967295
1.499 -0.63138771 0.014644742 4294967295
1.499 -0.6852957 0.038990259 4294967295
1.4990003 -0.70914429 0.032779694 4294967295
1.4988613 -0.7356568 0.025169581 4294967295
1.4975405 -0.7650063 0.022533745 4294967295
1.4960495 -0.79493332 0.022420377 4294967295
1.4967539 -0.82562613 0.025402606 4294967295
1.4960803 -0.85425383 0.025221854 4294967295
1.4943155 -0.88660067 0.025212705 4294967295
1.4844997 -0.91294497 0.027584136 4294967295
1.4808927 -0.93887037 0.03499192 4294967295
1.4926667 1.2933757 -0.019004166 4294967295
1.4885653 1.2738835 -0.016959727 4294967295
1.4857367 1.2474437 -0.015886664 4294967295
1.484565 1.2156343 -0.013717532 4294967295
1.4868886 1.1849779 -0.015506864 4294967295
1.4872917 1.157252 -0.018488348 4294967295
1.486647 1.1237863 -0.016370893 4294967295
1.4879142 1.0939431 -0.013556659 4294967295
1.4865128 1.0657021 -0.011988759 4294967295
1.4876584 1.0353569 -0.010639131 4294967295
1.4884388 1.0054249 -0.010411859 4294967295
1.485303 0.97681344 -0.013925731 4294967295
1.4865456 0.94480687 -0.0083984733 4294967295
1.4808236 0.92296648 0.00017601252 4294967295
1.4898461 0.81496227 0.003911078 4294967295
1.4875001 0.79490197 -0.0076146722 4294967295
1.4859055 0.76633108 -0.013497114 4294967295
1.4873333 0.73901427 -0.015797913 4294967295
1.474 0.45299858 0.006952703 4294967295
1.4730906 0.4357914 0.0059823394 4294967295
1.4742726 0.40317237 0.0021522641 4294967295
1.474979 0.37558725 0.0015044808 4294967295
1.47365 0.35015234 0.0049027205 4294967295
1.4748001 0.27845305 0.0037850142 4294967295
1.4804851 0.25502878 -0.00069087744 4294967295
1.482757 0.22524123 -0.0026358962 4294967295
1.4823436 0.19508937 -0.00073206425 4294967295
1.4802781 0.16579857 0.00081121922 4294967295
1.4820503 0.1345381 -0.0036895871 4294967295
1.4873788 0.10475707 -0.0048308372 4294967295
1.4872872 0.074116841 -0.0046309233 4294967295
1.4891332 0.045115128 -0.0065138936 4294967295
1.4895351 0.015414612 -0.0063156486 4294967295
1.4879361 -0.016004786 -0.006293714 4294967295
1.4899756 -0.044756833 -0.0056622028 4294967295
1.4917777 -0.074554637 -0.0053990483 4294967295
1.4890095 -0.10533085 -0.0054154396 4294967295
1.4912497 -0.13508306 -0.005209446 4294967295
1.4907584 -0.16458084 -0.0052412152 4294967295
1.4895473 -0.19482538 -0.0068321228 4294967295
1.4909166 -0.2249819 -0.0067944527 4294967295
1.4912292 -0.25519663 -0.0065820813 4294967295
1.4905257 -0.28518865 -0.0071680546 4294967295
1.4913827 -0.31498301 -0.0067033172 4294967295
1.4932393 -0.34518045 -0.0055926442 4294967295
1.4906151 -0.3754518 -0.0062107444 4294967295
1.4915932 -0.40477121 -0.0054424405 4294967295
1.494301 -0.43475047 -0.0064677596 4294967295
1.4943649 -0.46300417 -0.010518551 4294967295
1.4940816 -0.496526 -0.012618899 4294967295
1.4932144 -0.52530622 -0.0096145868 4294967295
1.4920833 -0.55568385 -0.0069367886 4294967295
1.4915768 -0.58477551 -0.0049796104 4294967295
1.4925113 -0.61488271 -0.0061368346 4294967295
1.4930583 -0.64364928 -0.008541584 4294967295
1.4899331 -0.6753701 -0.013152957 4294967295
1.4884301 -0.70564419 -0.01002866 4294967295
1.4905543 -0.73464948 -0.0059916377 4294967295
1.4930109 -0.76477534 -0.0051655173 4294967295
1.4934151 -0.79543889 -0.0044701099 4294967295
1.4938766 -0.82489729 -0.0046595335 4294967295
1.4931878 -0.85469431 -0.0049937367 4294967295
1.4895836 -0.88459194 -0.0052995682 4294967295
1.4793601 -0.90626931 -0.0069466829 4294967295
1.4918001 1.3002388 -0.021684527 4294967295
1.4784999 1.2879584 -0.021320939 4294967295
1.4809999 1.149259 -0.020521045 4294967295
1.4871469 0.72757685 -0.032997906 4294967295
1.4754286 0.1248017 -0.022396803 4294967295
1.4761361 0.109463 -0.023721755 4294967295
1.471 0.049348339 -0.020284295 4294967295
1.471 -0.029149991 -0.020284295 4294967295
1.4754002 -0.049643453 -0.024357796 4294967295
1.478318 -0.072949022 -0.022186756 4294967295
1.4757692 -0.10590044 -0.020978332 4294967295
1.4791563 -0.13677235 -0.024342477 4294967295
1.4784285 -0.16371915 -0.022681057 4294967295
1.4709998 -0.19354141 -0.020284235 4294967295
1.4710001 -0.32607844 -0.020284295 4294967295
1.4788235 -0.34577727 -0.021337867 4294967295
1.4775 -0.37305197 -0.021444201 4294967295
1.4778749 -0.40761411 -0.023515642 4294967295
1.4803824 -0.43462938 -0.025436759 4294967295
1.4802943 -0.46582124 -0.025505602 4294967295
1.4829832 -0.49540612 -0.030437768 4294967295
1.481081 -0.52352136 -0.025835693 4294967295
1.4780622 -0.55440587 -0.021160066 4294967295
1.4801763 -0.58487695 -0.022034883 4294967295
1.4793887 -0.61453611 -0.021645248 4294967295
1.4766663 -0.64424735 -0.020647585 4294967295
1.4754999 -0.66974586 -0.020906329 4294967295
1.4736667 -0.74381071 -0.021263778 4294967295
1.4807777 -0.7669912 -0.024499714 4294967295
1.483475 -0.79409486 -0.024676621 4294967295
1.4832306 -0.82494962 -0.024756312 4294967295
1.4844115 -0.85344362 -0.024083138 4294967295
1.4801426 -0.8851608 -0.023267567 4294967295
1.4873846 0.72454929 -0.063720345 4294967295
1.4814001 0.70616955 -0.075660706 4294967295
1.5215001 -0.92678976 1.3661554 4294967295
1.5155834 -0.9209168 1.3440961 4294967295
1.5142257 -0.9062593 1.3160777 4294967295
