# .PCD v0.7 - Point Cloud Data file format
VERSION 0.7
FIELDS x y z rgb
SIZE 4 4 4 4
TYPE F F F U
COUNT 1 1 1 1
WIDTH 1056
HEIGHT 1
VIEWPOINT 0 0 0 1 0 0 0
POINTS 1056
DATA ascii
-1.3839396 0.81878567 -0.027400278 4278190080
-1.3767794 0.82105088 -0.027313014 4278190080
-1.3653356 0.82070059 -0.02713849 4278190080
-1.3581866 0.82287133 -0.027051229 4278190080
-1.3467728 0.8223964 -0.026876705 4278190080
-1.3353789 0.82185185 -0.026702181 4278190080
-1.3197569 0.8186028 -0.026440395 4278190080
-1.3126523 0.82055461 -0.026353134 4278190080
-1.3013202 0.81980246 -0.02617861 4278190080
-1.2900096 0.81898093 -0.026004085 4278190080
-1.2829318 0.82078469 -0.025916824 4278190080
-1.2716556 0.81984019 -0.0257423 4278190080
-1.2604015 0.81882691 -0.025567774 4278190080
-1.2533528 0.82048368 -0.025480513 4278190080
-1.2421348 0.81934822 -0.025305988 4278190080
-1.2309403 0.8181445 -0.025131464 4278190080
-1.2239232 0.81965446 -0.025044203 4278190080
-1.2127665 0.81832922 -0.024869679 4278190080
-1.2016339 0.81693637 -0.024695154 4278190080
-1.1946505 0.81830072 -0.024607893 4278190080
-1.1835577 0.81678677 -0.024433369 4278190080
-1.1765949 0.81805927 -0.024346106 4278190080
-1.165543 0.81642497 -0.024171583 4278190080
-1.1586012 0.81760633 -0.02408432 4278190080
-1.1475912 0.81585222 -0.023909796 4278190080
-1.1406721 0.81694216 -0.023822535 4278190080
-1.1337593 0.81799376 -0.023735274 4278190080
-1.1268531 0.8190071 -0.023648011 4278190080
-1.1159199 0.81702924 -0.023473486 4278190080
-1.1090378 0.81795204 -0.023386223 4278190080
-1.0981499 0.81585556 -0.023211699 4278190080
-1.0872904 0.81369305 -0.023037175 4278190080
-1.0804515 0.81447411 -0.022949914 4278190080
-1.0696386 0.81219441 -0.022775389 4278190080
-1.0628262 0.812886 -0.022688128 4278190080
-1.0560219 0.81353998 -0.022600865 4278190080
-1.049226 0.81415641 -0.022513604 4278190080
-1.0424389 0.81473541 -0.022426343 4278190080
-1.0356603 0.81527716 -0.02233908 4278190080
-1.0288908 0.81578135 -0.022251818 4278190080
-1.0221305 0.81624824 -0.022164555 4278190080
-1.0152369 0.81685525 -0.022077294 4278190080
-1.0084953 0.81724656 -0.021990033 4278190080
-0.99774837 0.81461388 -0.021815509 4278190080
-0.99103737 0.81491649 -0.021728246 4278190080
-0.9807694 0.81165141 -0.021553721 4278190080
-0.98177058 0.81827068 -0.021640984 4278190080
-0.95196509 0.7993601 -0.021030148 4278190080
-0.9987936 0.84464389 -0.022164555 4278190080
-0.98061532 0.83515942 -0.021815509 4278190080
-0.98148876 0.84183192 -0.02190277 4278190080
-0.95295674 0.82897693 -0.021379199 4278190080
-0.78381681 0.85929221 -0.019633958 4278190080
-0.7741003 0.85461259 -0.019459434 4278190080
-0.75105321 0.83500791 -0.018935859 4278190080
-0.75146425 0.84135306 -0.019023124 4278190080
-0.73857129 0.8327505 -0.018761335 4278190080
-0.73235565 0.83157194 -0.018674074 4278190080
-0.72615755 0.83036 -0.018586813 4278190080
-0.71997684 0.82911497 -0.018499549 4278190080
-0.71707839 0.83162308 -0.018499549 4278190080
-0.71417117 0.83412105 -0.018499549 4278190080
-0.71125501 0.83660907 -0.018499549 4278190080
-0.7051056 0.83526659 -0.018412288 4278190080
-0.70218569 0.83772272 -0.018412288 4278190080
-0.69925731 0.84016865 -0.018412288 4278190080
-0.69298917 0.83887184 -0.018325025 4278190080
-0.68688631 0.83742034 -0.018237764 4278190080
-0.68080211 0.83593655 -0.018150503 4278190080
-0.67473662 0.83442056 -0.01806324 4278190080
-0.66883534 0.83275574 -0.017975979 4278190080
-0.66592443 0.83508533 -0.017975979 4278190080
-0.6597566 0.83360052 -0.017888715 4278190080
-0.65684283 0.83589834 -0.017888715 4278190080
-0.65392101 0.83818603 -0.017888715 4278190080
-0.64792973 0.83651137 -0.017801454 4278190080
-0.64500588 0.83876795 -0.017801454 4278190080
-0.63904053 0.83704072 -0.017714193 4278190080
-0.63611484 0.83926624 -0.017714193 4278190080
-0.63017559 0.83748686 -0.01762693 4278190080
-0.62425631 0.83567649 -0.017539669 4278190080
-0.62133551 0.83785045 -0.017539669 4278190080
-0.61544329 0.83598822 -0.017452406 4278190080
-0.6095717 0.83409518 -0.017365145 4278190080
-0.60665649 0.83621788 -0.017365145 4278190080
-0.60081214 0.83427376 -0.017277882 4278190080
-0.594989 0.83229893 -0.01719062 4278190080
-0.59208018 0.83437073 -0.01719062 4278190080
-0.58628523 0.83234525 -0.017103357 4278190080
-0.58337629 0.83438671 -0.017103357 4278190080
-0.5803141 0.8365193 -0.017103357 4278190080
-0.5745554 0.83442235 -0.017016096 4278190080
-0.5716393 0.8364228 -0.017016096 4278190080
-0.56590956 0.83427602 -0.016928833 4278190080
-0.56020212 0.83209932 -0.016841572 4278190080
-0.55729419 0.83404964 -0.016841572 4278190080
-0.55161655 0.83182347 -0.016754311 4278190080
-0.54870963 0.83374387 -0.016754311 4278190080
-0.54306203 0.8314687 -0.016667048 4278190080
-0.54015642 0.83335924 -0.016667048 4278190080
-0.53453976 0.83103508 -0.016579786 4278190080
-0.5316357 0.83289593 -0.016579786 4278190080
-0.52605009 0.83052325 -0.016492523 4278190080
-0.52314764 0.83235455 -0.016492523 4278190080
-0.51759356 0.82993364 -0.016405262 4278190080
-0.51206279 0.82748419 -0.016318001 4278190080
-0.50917125 0.82926655 -0.016318001 4278190080
-0.50367254 0.82676947 -0.016230738 4278190080
-0.50063884 0.82861 -0.016230738 4278190080
-0.49774343 0.83035249 -0.016230738 4278190080
-0.49228662 0.827788 -0.016143475 4278190080
-0.48939392 0.82950145 -0.016143475 4278190080
-0.48397022 0.82689011 -0.016056214 4278190080
-0.48108092 0.82857442 -0.016056214 4278190080
-0.47818577 0.83024865 -0.016056214 4278190080
-0.47528481 0.83191276 -0.016056214 4278190080
-0.46991304 0.82921743 -0.01596895 4278190080
-0.46701571 0.83085269 -0.01596895 4278190080
-0.46167833 0.82811129 -0.015881689 4278190080
-0.45878491 0.82971776 -0.015881689 4278190080
-0.45333764 0.82700998 -0.015794428 4278190080
-0.4504481 0.82858735 -0.015794428 4278190080
-0.44518071 0.82575417 -0.015707165 4278190080
-0.43993863 0.82289433 -0.015619904 4278190080
-0.43720734 0.82434875 -0.015619904 4278190080
-0.43200028 0.82144517 -0.015532642 4278190080
-0.42913008 0.82294822 -0.015532642 4278190080
-0.4239589 0.82000035 -0.01544538 4278190080
-0.42109403 0.82147521 -0.01544538 4278190080
-0.41595909 0.81848335 -0.015358117 4278190080
-0.41309956 0.81993032 -0.015358117 4278190080
-0.41023475 0.82136738 -0.015358117 4278190080
-0.40722167 0.82286537 -0.015358117 4278190080
-0.40434688 0.82428181 -0.015358117 4278190080
-0.40146697 0.8256883 -0.015358117 4278190080
-0.39641207 0.82258111 -0.015270855 4278190080
-0.39138377 0.81944871 -0.015183594 4278190080
-0.38852102 0.82080984 -0.015183594 4278190080
-0.38338763 0.817702 -0.015096332 4278190080
-0.38053101 0.81903523 -0.015096332 4278190080
-0.37766978 0.82035851 -0.015096332 4278190080
-0.37480393 0.82167184 -0.015096332 4278190080
-0.36987466 0.81841946 -0.015009069 4278190080
-0.36701542 0.81970567 -0.015009069 4278190080
-0.36429513 0.82091826 -0.015009069 4278190080
-0.35941559 0.8176083 -0.014921807 4278190080
-0.35655946 0.81885791 -0.014921807 4278190080
-0.35369897 0.82009751 -0.014921807 4278190080
-0.3487277 0.8167907 -0.014834545 4278190080
-0.34587449 0.818003 -0.014834545 4278190080
-0.34301707 0.81920528 -0.014834545 4278190080
-0.33824071 0.81577963 -0.014747282 4278190080
-0.3353911 0.81695533 -0.014747282 4278190080
-0.33253717 0.81812114 -0.014747282 4278190080
-0.32967943 0.81927693 -0.014747282 4278190080
-0.32681763 0.82042271 -0.014747282 4278190080
-0.32380834 0.8216151 -0.014747282 4278190080
-0.32093847 0.82274038 -0.014747282 4278190080
-0.31806463 0.82385558 -0.014747282 4278190080
-0.31340271 0.8202908 -0.014660021 4278190080
-0.31053752 0.82137978 -0.014660021 4278190080
-0.3076683 0.82245886 -0.014660021 4278190080
-0.30306032 0.81883937 -0.014572759 4278190080
-0.30020022 0.81989223 -0.014572759 4278190080
-0.29563403 0.81623471 -0.014485497 4278190080
-0.29278308 0.81726164 -0.014485497 4278190080
-0.28825873 0.81356657 -0.014398235 4278190080
-0.28541714 0.8145678 -0.014398235 4278190080
-0.28257209 0.81555909 -0.014398235 4278190080
-0.27972358 0.81654048 -0.014398235 4278190080
-0.27687165 0.81751192 -0.014398235 4278190080
-0.27401614 0.81847346 -0.014398235 4278190080
-0.27101457 0.81947219 -0.014398235 4278190080
-0.26815248 0.82041323 -0.014398235 4278190080
-0.26528689 0.82134432 -0.014398235 4278190080
-0.2624183 0.82226533 -0.014398235 4278190080
-0.25954649 0.82317632 -0.014398235 4278190080
-0.25518489 0.81930417 -0.014310973 4278190080
-0.25232348 0.82018995 -0.014310973 4278190080
-0.24945876 0.82106578 -0.014310973 4278190080
-0.24515465 0.81714314 -0.014223712 4278190080
-0.24230084 0.81799394 -0.014223712 4278190080
-0.23944408 0.81883472 -0.014223712 4278190080
-0.2365844 0.81966555 -0.014223712 4278190080
-0.23372161 0.82048643 -0.014223712 4278190080
-0.2308562 0.82129723 -0.014223712 4278190080
-0.22650942 0.81732017 -0.014136449 4278190080
-0.22365488 0.81810594 -0.014136449 4278190080
-0.22079784 0.81888163 -0.014136449 4278190080
-0.21793811 0.81964737 -0.014136449 4278190080
-0.21380797 0.81556726 -0.014049187 4278190080
-0.21095985 0.81630862 -0.014049187 4278190080
-0.20796642 0.81707639 -0.014049187 4278190080
-0.20511307 0.8177973 -0.014049187 4278190080
-0.20225722 0.81850833 -0.014049187 4278190080
-0.19939868 0.81920934 -0.014049187 4278190080
-0.19653815 0.81990033 -0.014049187 4278190080
-0.19367479 0.82058144 -0.014049187 4278190080
-0.18967769 0.81638294 -0.013961924 4278190080
-0.18682708 0.81704003 -0.013961924 4278190080
-0.18397376 0.81768721 -0.013961924 4278190080
-0.18003832 0.81344324 -0.013874662 4278190080
-0.17719759 0.81406677 -0.013874662 4278190080
-0.17435472 0.8146804 -0.013874662 4278190080
-0.17253931 0.82017612 -0.013961924 4278190080
-0.16967513 0.82077348 -0.013961924 4278190080
-0.16666584 0.82138979 -0.013961924 4278190080
-0.16379745 0.82196659 -0.013961924 4278190080
-0.16092752 0.82253331 -0.013961924 4278190080
-0.15899797 0.82799965 -0.014049187 4278190080
-0.15518136 0.82363671 -0.013961924 4278190080
-0.15230522 0.82417345 -0.013961924 4278190080
-0.14942721 0.82470006 -0.013961924 4278190080
-0.14654782 0.82521659 -0.013961924 4278190080
-0.14280927 0.82079792 -0.013874662 4278190080
-0.13994355 0.82129139 -0.013874662 4278190080
-0.13625315 0.81684381 -0.0137874 4278190080
-0.13340083 0.81731445 -0.0137874 4278190080
-0.12975924 0.81283838 -0.013700139 4278190080
-0.12692094 0.81328636 -0.013700139 4278190080
-0.12393936 0.81374609 -0.013700139 4278190080
-0.12109793 0.81417382 -0.013700139 4278190080
-0.11825545 0.81459153 -0.013700139 4278190080
-0.1154111 0.81499934 -0.013700139 4278190080
-0.11256535 0.81539726 -0.013700139 4278190080
-0.10971866 0.81578517 -0.013700139 4278190080
-0.10687019 0.81616324 -0.013700139 4278190080
-0.10402086 0.8165313 -0.013700139 4278190080
-0.10102711 0.81690711 -0.013700139 4278190080
-0.09817522 0.81725472 -0.013700139 4278190080
-0.094742768 0.81262684 -0.013612877 4278190080
-0.091905855 0.81295258 -0.013612877 4278190080
-0.089067385 0.81326848 -0.013612877 4278190080
-0.086227834 0.81357443 -0.013612877 4278190080
-0.083387658 0.81387043 -0.013612877 4278190080
-0.080546044 0.81415659 -0.013612877 4278190080
-0.077703871 0.81443274 -0.013612877 4278190080
-0.074860327 0.81469905 -0.013612877 4278190080
-0.071873926 0.81496793 -0.013612877 4278190080
-0.068606742 0.81023246 -0.013525615 4278190080
-0.065778345 0.810467 -0.013525615 4278190080
-0.062948711 0.81069171 -0.013525615 4278190080
-0.059748698 0.80592096 -0.013438352 4278190080
-0.056935403 0.80612457 -0.013438352 4278190080
-0.054120984 0.8063184 -0.013438352 4278190080
-0.051306337 0.8065024 -0.013438352 4278190080
-0.048349705 0.80668503 -0.013438352 4278190080
-0.04581549 0.81184018 -0.013525615 4278190080
-0.042981185 0.81199515 -0.013525615 4278190080
-0.040146358 0.81214029 -0.013525615 4278190080
-0.037311476 0.81227547 -0.013525615 4278190080
-0.034475703 0.81240076 -0.013525615 4278190080
-0.031445421 0.80752069 -0.013438352 4278190080
-0.028626284 0.80762553 -0.013438352 4278190080
-0.025647152 0.80272388 -0.01335109 4278190080
-0.022845224 0.80280846 -0.01335109 4278190080
-0.020042589 0.80288333 -0.01335109 4278190080
-0.017132824 0.79795033 -0.013263829 4278190080
-0.014347183 0.79800528 -0.013263829 4278190080
-0.011561367 0.79805052 -0.013263829 4278190080
-0.0087758359 0.79808599 -0.013263829 4278190080
-0.0059897718 0.79811174 -0.013263829 4278190080
-0.0030838207 0.80312753 -0.01335109 4278190080
-0.00028019247 0.80313343 -0.01335109 4278190080
0.0025230113 0.80312949 -0.01335109 4278190080
0.0053266124 0.80311579 -0.01335109 4278190080
0.0081803249 0.80809128 -0.013438352 4278190080
0.011001213 0.80805784 -0.013438352 4278190080
0.013821966 0.80801451 -0.013438352 4278190080
0.01664212 0.80796134 -0.013438352 4278190080
0.019462502 0.80789828 -0.013438352 4278190080
0.022282217 0.80782545 -0.013438352 4278190080
0.024946805 0.80274594 -0.01335109 4278190080
0.027748931 0.80265397 -0.01335109 4278190080
0.03055029 0.80255222 -0.01335109 4278190080
0.033144102 0.79744577 -0.013263829 4278190080
0.035927251 0.79732519 -0.013263829 4278190080
0.038710386 0.79719496 -0.013263829 4278190080
0.041493051 0.79705495 -0.013263829 4278190080
0.044274785 0.79690528 -0.013263829 4278190080
0.047195595 0.79673761 -0.013263829 4278190080
0.050289221 0.80155748 -0.01335109 4278190080
0.053087041 0.801377 -0.01335109 4278190080
0.056231648 0.80617398 -0.013438352 4278190080
0.059045549 0.80597275 -0.013438352 4278190080
0.061858732 0.80576175 -0.013438352 4278190080
0.064270668 0.80055773 -0.01335109 4278190080
0.067064911 0.80032849 -0.01335109 4278190080
0.069857918 0.80008954 -0.01335109 4278190080
0.072650492 0.79984081 -0.01335109 4278190080
0.075442187 0.7995823 -0.01335109 4278190080
0.078232534 0.79931408 -0.01335109 4278190080
0.081161521 0.79902202 -0.01335109 4278190080
0.083950311 0.79873383 -0.01335109 4278190080
0.086738065 0.79843593 -0.01335109 4278190080
0.089524344 0.79812831 -0.01335109 4278190080
0.092309959 0.79781091 -0.01335109 4278190080
0.095094018 0.79748386 -0.01335109 4278190080
0.097877346 0.79714704 -0.01335109 4278190080
0.10128605 0.80176032 -0.013438352 4278190080
0.10422385 0.80138373 -0.013438352 4278190080
0.10702032 0.80101508 -0.013438352 4278190080
0.1098159 0.80063659 -0.013438352 4278190080
0.11261014 0.80024832 -0.013438352 4278190080
0.11540259 0.7998504 -0.013438352 4278190080
0.11819406 0.79944271 -0.013438352 4278190080
0.12098365 0.7990253 -0.013438352 4278190080
0.1237722 0.79859811 -0.013438352 4278190080
0.12734216 0.80309868 -0.013525615 4278190080
0.13014448 0.80264932 -0.013525615 4278190080
0.13294561 0.80219012 -0.013525615 4278190080
0.13574472 0.80172122 -0.013525615 4278190080
0.13854259 0.80124247 -0.013525615 4278190080
0.14133878 0.80075395 -0.013525615 4278190080
0.14427261 0.80023056 -0.013525615 4278190080
0.14706524 0.79972208 -0.013525615 4278190080
0.15077697 0.8041175 -0.013612877 4278190080
0.15358311 0.80358624 -0.013612877 4278190080
0.15638696 0.80304527 -0.013612877 4278190080
0.15918933 0.80249447 -0.013612877 4278190080
0.16198976 0.80193388 -0.013612877 4278190080
0.16478778 0.80136359 -0.013612877 4278190080
0.16758424 0.80078346 -0.013612877 4278190080
0.17037821 0.80019367 -0.013612877 4278190080
0.17331024 0.79956377 -0.013612877 4278190080
0.17609991 0.79895395 -0.013612877 4278190080
0.17888789 0.79833436 -0.013612877 4278190080
0.18167324 0.79770511 -0.013612877 4278190080
0.18445683 0.79706603 -0.013612877 4278190080
0.18838227 0.80128384 -0.013700139 4278190080
0.19117787 0.80062145 -0.013700139 4278190080
0.19514965 0.8048076 -0.0137874 4278190080
0.1979575 0.80412161 -0.0137874 4278190080
0.20197535 0.80827576 -0.013874662 4278190080
0.20479569 0.80756575 -0.013874662 4278190080
0.20761311 0.80684602 -0.013874662 4278190080
0.20930573 0.80124265 -0.0137874 4278190080
0.21210106 0.80050725 -0.0137874 4278190080
0.21489424 0.79976195 -0.0137874 4278190080
0.21768436 0.799007 -0.0137874 4278190080
0.22047226 0.79824227 -0.0137874 4278190080
0.22460523 0.80228186 -0.013874662 4278190080
0.22740409 0.80149305 -0.013874662 4278190080
0.2302006 0.80069435 -0.013874662 4278190080
0.23299389 0.79988599 -0.013874662 4278190080
0.23578477 0.79906774 -0.013874662 4278190080
0.23857276 0.79823977 -0.013874662 4278190080
0.24135743 0.7974022 -0.013874662 4278190080
0.24427833 0.79651231 -0.013874662 4278190080
0.24705735 0.79565471 -0.013874662 4278190080
0.25133249 0.79955655 -0.013961924 4278190080
0.25412169 0.79867446 -0.013961924 4278190080
0.25690821 0.79778248 -0.013961924 4278190080
0.25969118 0.79688096 -0.013961924 4278190080
0.26417688 0.80067122 -0.014049187 4278190080
0.26696986 0.79974425 -0.014049187 4278190080
0.26976004 0.79880744 -0.014049187 4278190080
0.2725465 0.79786104 -0.014049187 4278190080
0.27696261 0.8016299 -0.014136449 4278190080
0.27975929 0.80065817 -0.014136449 4278190080
0.28255215 0.79967684 -0.014136449 4278190080
0.28702393 0.80339342 -0.014223712 4278190080
0.2898263 0.80238676 -0.014223712 4278190080
0.29262555 0.80137008 -0.014223712 4278190080
0.29556063 0.80029225 -0.014223712 4278190080
0.29835254 0.79925561 -0.014223712 4278190080
0.30114082 0.79820919 -0.014223712 4278190080
0.30570596 0.80182451 -0.014310973 4278190080
0.30850318 0.80075246 -0.014310973 4278190080
0.31129619 0.79967082 -0.014310973 4278190080
0.31591561 0.80323154 -0.014398235 4278190080
0.31871766 0.80212384 -0.014398235 4278190080
0.32151541 0.80100656 -0.014398235 4278190080
0.32430965 0.79987931 -0.014398235 4278190080
0.32723907 0.79868531 -0.014398235 4278190080
0.33002517 0.7975381 -0.014398235 4278190080
0.33280683 0.79638135 -0.014398235 4278190080
0.33752856 0.7998206 -0.014485497 4278190080
0.34031814 0.79863763 -0.014485497 4278190080
0.343104 0.79744476 -0.014485497 4278190080
0.34588569 0.79624218 -0.014485497 4278190080
0.34866273 0.79503006 -0.014485497 4278190080
0.35345978 0.79837936 -0.014572759 4278190080
0.35624421 0.79714084 -0.014572759 4278190080
0.35902476 0.79589236 -0.014572759 4278190080
0.36180091 0.79463422 -0.014572759 4278190080
0.36457226 0.79336655 -0.014572759 4278190080
0.36733958 0.79208905 -0.014572759 4278190080
0.37024012 0.79073745 -0.014572759 4278190080
0.37299824 0.78944016 -0.014572759 4278190080
0.37790281 0.79264605 -0.014660021 4278190080
0.38066754 0.79132205 -0.014660021 4278190080
0.38561049 0.79448581 -0.014747282 4278190080
0.38838115 0.79313505 -0.014747282 4278190080
0.39114752 0.79177445 -0.014747282 4278190080
0.39390871 0.79040438 -0.014747282 4278190080
0.39904958 0.79342139 -0.014834545 4278190080
0.40181646 0.79202372 -0.014834545 4278190080
0.40685624 0.7950666 -0.014921807 4278190080
0.40962881 0.79364169 -0.014921807 4278190080
0.41470519 0.79664123 -0.015009069 4278190080
0.41748363 0.79518872 -0.015009069 4278190080
0.42025656 0.79372674 -0.015009069 4278190080
0.42537951 0.79666483 -0.015096332 4278190080
0.42829648 0.79510045 -0.015096332 4278190080
0.43106943 0.7936005 -0.015096332 4278190080
0.43383676 0.79209107 -0.015096332 4278190080
0.43901598 0.79494804 -0.015183594 4278190080
0.44178796 0.79341084 -0.015183594 4278190080
0.44700223 0.79622304 -0.015270855 4278190080
0.44977903 0.79465777 -0.015270855 4278190080
0.4525499 0.79308307 -0.015270855 4278190080
0.45531571 0.79149842 -0.015270855 4278190080
0.45807552 0.78990442 -0.015270855 4278190080
0.46349165 0.79253542 -0.015358117 4278190080
0.46625504 0.79091287 -0.015358117 4278190080
0.47156698 0.79357815 -0.01544538 4278190080
0.47433439 0.7919271 -0.01544538 4278190080
0.47709557 0.79026669 -0.01544538 4278190080
0.47985139 0.78859639 -0.01544538 4278190080
0.48260093 0.78691679 -0.01544538 4278190080
0.48797345 0.78947979 -0.015532642 4278190080
0.49086365 0.78768605 -0.015532642 4278190080
0.49626917 0.79020125 -0.015619904 4278190080
0.49902421 0.78846431 -0.015619904 4278190080
0.50446188 0.79093236 -0.015707165 4278190080
0.50992286 0.79337204 -0.015794428 4278190080
0.51268888 0.79158741 -0.015794428 4278190080
0.51818132 0.79397941 -0.015881689 4278190080
0.52094942 0.79216594 -0.015881689 4278190080
0.52661186 0.79441792 -0.01596895 4278190080
0.52938139 0.792575 -0.01596895 4278190080
0.53493619 0.79486966 -0.016056214 4278190080
0.53770769 0.79299742 -0.016056214 4278190080
0.54047221 0.79111582 -0.016056214 4278190080
0.54606509 0.79334229 -0.016143475 4278190080
0.54883081 0.79143149 -0.016143475 4278190080
0.5515902 0.78951079 -0.016143475 4278190080
0.55735832 0.79157156 -0.016230738 4278190080
0.56301057 0.79369861 -0.016318001 4278190080
0.56577742 0.79172868 -0.016318001 4278190080
0.57145858 0.79380608 -0.016405262 4278190080
0.57716113 0.79585338 -0.016492523 4278190080
0.58288443 0.79787081 -0.016579786 4278190080
0.58566618 0.79583114 -0.016579786 4278190080
0.59141749 0.79779822 -0.016667048 4278190080
0.59419888 0.7957288 -0.016667048 4278190080
0.59997815 0.79764485 -0.016754311 4278190080
0.60275853 0.79554588 -0.016754311 4278190080
0.60553205 0.79343688 -0.016754311 4278190080
0.61134452 0.79528207 -0.016841572 4278190080
0.61411697 0.79314309 -0.016841572 4278190080
0.61995637 0.7949366 -0.016928833 4278190080
0.62272722 0.79276788 -0.016928833 4278190080
0.62859273 0.79450977 -0.017016096 4278190080
0.63136196 0.79231095 -0.017016096 4278190080
0.63725311 0.79400092 -0.017103357 4278190080
0.64002097 0.79177153 -0.017103357 4278190080
0.64291859 0.78942055 -0.017103357 4278190080
0.64884043 0.79103702 -0.01719062 4278190080
0.65159792 0.78876716 -0.01719062 4278190080
0.65754479 0.79033077 -0.017277882 4278190080
0.66351008 0.79186285 -0.017365145 4278190080
0.66627038 0.78954178 -0.017365145 4278190080
0.67225951 0.79102087 -0.017452406 4278190080
0.67826748 0.7924673 -0.017539669 4278190080
0.68102974 0.79009473 -0.017539669 4278190080
0.68706042 0.79148817 -0.01762693 4278190080
0.68995708 0.78896439 -0.01762693 4278190080
0.69601071 0.79030311 -0.017714193 4278190080
0.69876528 0.78786862 -0.017714193 4278190080
0.7048412 0.78915346 -0.017801454 4278190080
0.70759171 0.78668815 -0.017801454 4278190080
0.71368974 0.78791845 -0.017888715 4278190080
0.71643549 0.78542262 -0.017888715 4278190080
0.72255486 0.78659856 -0.017975979 4278190080
0.72869074 0.78774166 -0.01806324 4278190080
0.73484373 0.78885108 -0.018150503 4278190080
0.73759305 0.78628105 -0.018150503 4278190080
0.74376595 0.78733593 -0.018237764 4278190080
0.74650991 0.78473479 -0.018237764 4278190080
0.75270265 0.78573447 -0.018325025 4278190080
0.75544095 0.7831021 -0.018325025 4278190080
0.76165342 0.78404599 -0.018412288 4278190080
0.7643854 0.7813828 -0.018412288 4278190080
0.77061683 0.78227109 -0.018499549 4278190080
0.77700007 0.78299004 -0.018586813 4278190080
0.78326243 0.78380913 -0.018674074 4278190080
0.78953946 0.78459436 -0.018761335 4278190080
0.79583192 0.7853449 -0.018848598 4278190080
0.80213881 0.78606141 -0.018935859 4278190080
0.80846083 0.7867431 -0.019023124 4278190080
0.81493437 0.78724813 -0.019110385 4278190080
0.81767756 0.78439856 -0.019110385 4278190080
0.82041079 0.78153932 -0.019110385 4278190080
0.82676536 0.78210664 -0.019197648 4278190080
0.82220316 0.77237004 -0.019023124 4278190080
0.82489401 0.76949555 -0.019023124 4278190080
1.1232361 0.81548023 -0.023560749 4278190080
1.1341875 0.81740004 -0.023735274 4278190080
1.1045066 0.79016572 -0.023037175 4278190080
1.1276381 0.80077857 -0.023473486 4278190080
1.1019591 0.77648318 -0.022862652 4278190080
1.092373 0.76403582 -0.022600865 4278190080
1.0910589 0.75717682 -0.022513604 4278190080
1.0936954 0.75336343 -0.022513604 4278190080
1.1044405 0.75537694 -0.022688128 4278190080
1.1153427 0.75713313 -0.022862652 4278190080
1.122125 0.75602835 -0.022949914 4278190080
1.128913 0.75488544 -0.023037175 4278190080
1.1357064 0.75370491 -0.023124438 4278190080
1.1425056 0.75248551 -0.023211699 4278190080
1.1493098 0.75122839 -0.023298962 4278190080
1.1561192 0.74993235 -0.023386223 4278190080
1.1629338 0.74859792 -0.023473486 4278190080
1.1739657 0.74991679 -0.023648011 4278190080
1.1850212 0.75116706 -0.023822535 4278190080
1.1918675 0.74968815 -0.023909796 4278190080
1.2030904 0.75060672 -0.02408432 4278190080
1.2099535 0.74903435 -0.024171583 4278190080
1.2210807 0.7500391 -0.024346106 4278190080
1.2279603 0.74837357 -0.024433369 4278190080
1.239121 0.74925655 -0.024607893 4278190080
1.2460159 0.74749815 -0.024695154 4278190080
1.2572092 0.74825829 -0.024869679 4278190080
1.2684232 0.74894857 -0.025044203 4278190080
1.2753437 0.74704289 -0.025131464 4278190080
1.2865882 0.74761039 -0.025305988 4278190080
1.2935214 0.74561107 -0.025393249 4278190080
1.3004558 0.74357319 -0.025480513 4278190080
1.3073922 0.74149525 -0.025567774 4278190080
1.3099726 0.73692679 -0.025567774 4278190080
1.3126647 0.73212075 -0.025567774 4278190080
1.3195866 0.72995454 -0.025655037 4278190080
1.3221267 0.72534359 -0.025655037 4278190080
1.3290422 0.72311312 -0.0257423 4278190080
1.3403573 0.72321773 -0.025916824 4278190080
1.3472817 0.72089291 -0.026004085 4278190080
1.3586218 0.72087234 -0.02617861 4278190080
1.3699785 0.72078061 -0.026353134 4278190080
1.3813511 0.72061831 -0.026527658 4278190080
1.3927387 0.72038609 -0.026702181 4278190080
1.4041418 0.72008234 -0.026876705 4278190080
1.4155592 0.7197085 -0.027051229 4278190080
1.4269913 0.71926284 -0.027225753 4278190080
1.4384376 0.71874613 -0.027400278 4278190080
1.4498972 0.71815902 -0.0275748 4278190080
1.4658579 0.71970308 -0.027836587 4278190080
1.4773514 0.7189576 -0.028011113 4278190080
1.4888579 0.71813977 -0.028185636 4278190080
1.5048867 0.71940649 -0.028447423 4278190080
1.5164243 0.71843034 -0.028621946 4278190080
1.5324988 0.7195062 -0.028883733 4278190080
1.5440662 0.7183705 -0.029058255 4278190080
1.5603102 0.71898234 -0.029320043 4278190080
1.5719055 0.71768463 -0.029494565 4278190080
1.588066 0.71837425 -0.029756352 4278190080
1.5996877 0.71691608 -0.029930875 4278190080
1.6113189 0.7153846 -0.030105399 4278190080
1.6275351 0.71579325 -0.030367188 4278190080
1.63919 0.71410155 -0.030541711 4278190080
1.6508532 0.71233624 -0.030716235 4278190080
1.6671205 0.71246368 -0.03097802 4278190080
1.6788051 0.71053672 -0.031152545 4278190080
1.695231 0.71017402 -0.03141433 4278190080
1.7115527 0.70999849 -0.031676117 4278190080
1.7325182 0.71161699 -0.032025166 4278190080
1.7488843 0.71121538 -0.032286949 4278190080
1.765269 0.71070725 -0.032548737 4278190080
1.7863148 0.71194506 -0.032897785 4278190080
1.8027405 0.71120888 -0.033159573 4278190080
1.8191826 0.71036673 -0.033421356 4278190080
1.8356402 0.70941925 -0.033683144 4278190080
1.8521136 0.70836455 -0.033944931 4278190080
1.8686016 0.7072044 -0.034206714 4278190080
1.8851041 0.70593673 -0.034468502 4278190080
1.9063083 0.7062993 -0.03481755 4278190080
1.9228435 0.70480281 -0.035079338 4278190080
1.9442142 0.70456392 -0.035428386 4278190080
1.9607799 0.70283318 -0.03569017 4278190080
1.9820693 0.70266587 -0.036039222 4278190080
1.9986627 0.70070535 -0.036301006 4278190080
2.0199904 0.70027399 -0.03665005 4278190080
2.0413389 0.69970322 -0.036999099 4278190080
2.0627081 0.69899082 -0.037348147 4278190080
2.0840969 0.69813764 -0.037697196 4278190080
2.1055045 0.69714481 -0.038046248 4278190080
2.1316819 0.69756448 -0.038482554 4278190080
2.1531303 0.69627279 -0.038831603 4278190080
2.1793582 0.69636029 -0.039267916 4278190080
2.2056124 0.69627297 -0.039704222 4278190080
2.2271194 0.69452369 -0.040053271 4278190080
2.2535403 0.69370943 -0.04048958 4278190080
2.2750802 0.69165611 -0.040838629 4278190080
2.2966332 0.68945956 -0.041187678 4278190080
2.3229914 0.68854284 -0.041623991 4278190080
2.349371 0.68744916 -0.042060297 4278190080
2.375771 0.68617964 -0.04249661 4278190080
2.4021904 0.68473542 -0.04293292 4278190080
2.4334409 0.68446732 -0.043456491 4278190080
2.4599011 0.68265373 -0.043892801 4278190080
2.4912 0.68198246 -0.044416372 4278190080
2.5176976 0.67979771 -0.044852685 4278190080
2.5490406 0.67872381 -0.045376256 4278190080
2.585242 0.67870742 -0.045987092 4278190080
2.6166339 0.67719525 -0.046510663 4278190080
2.6480467 0.67547071 -0.047034234 4278190080
2.6746306 0.67231631 -0.047470547 4278190080
2.5703139 0.63608813 -0.045550779 4278190080
2.4025233 0.58567262 -0.04249661 4278190080
2.3510809 0.5644446 -0.041536726 4278190080
2.3287115 0.55048352 -0.041100416 4278190080
2.3159173 0.53935629 -0.040838629 4278190080
2.3129129 0.5301528 -0.040751372 4278190080
2.3245943 0.52387047 -0.040925894 4278190080
2.3312895 0.51683444 -0.041013155 4278190080
2.3379641 0.50975806 -0.041100416 4278190080
2.3397291 0.50159472 -0.041100416 4278190080
2.3414657 0.49342397 -0.041100416 4278190080
2.3431737 0.48524848 -0.041100416 4278190080
2.3448534 0.4770658 -0.041100416 4278190080
2.3465044 0.46887735 -0.041100416 4278190080
2.3383152 0.45875946 -0.040925894 4278190080
2.3349934 0.44964859 -0.040838629 4278190080
2.3267238 0.43963957 -0.040664107 4278190080
2.323329 0.43060359 -0.040576845 4278190080
2.3199728 0.42119259 -0.04048958 4278190080
2.3165071 0.41221547 -0.040402323 4278190080
2.3130066 0.4032689 -0.040315058 4278190080
2.3144002 0.39519206 -0.040315058 4278190080
2.3157659 0.38711038 -0.040315058 4278190080
2.3417711 0.38306046 -0.040751372 4278190080
2.3184118 0.37093425 -0.040315058 4278190080
2.3690841 0.37056568 -0.041187678 4278190080
2.4395492 0.37286785 -0.042409346 4278190080
2.6040032 0.38870579 -0.045288995 4278190080
2.6498668 0.38610184 -0.046074349 4278190080
2.6709964 0.37966329 -0.046423398 4278190080
2.6673536 0.36965209 -0.046336137 4278190080
2.6636732 0.35966948 -0.046248876 4278190080
2.6649127 0.35036877 -0.046248876 4278190080
2.6661193 0.3410652 -0.046248876 4278190080
2.6672935 0.33175606 -0.046248876 4278190080
2.6634724 0.32184461 -0.046161614 4278190080
2.6645796 0.31254482 -0.046161614 4278190080
2.6656544 0.30324122 -0.046161614 4278190080
2.6617785 0.29292262 -0.046074349 4278190080
2.6627848 0.28362891 -0.046074349 4278190080
2.6638064 0.27386782 -0.046074349 4278190080
2.6647463 0.26456857 -0.046074349 4278190080
2.660588 0.25571638 -0.045987092 4278190080
2.6614645 0.24642849 -0.045987092 4278190080
2.6623499 0.23667106 -0.045987092 4278190080
2.6581786 0.22695184 -0.045899827 4278190080
2.6589546 0.21767111 -0.045899827 4278190080
2.659698 0.20838916 -0.045899827 4278190080
2.6603744 0.19956802 -0.045899827 4278190080
2.6610551 0.1902798 -0.045899827 4278190080
2.6617029 0.18099068 -0.045899827 4278190080
2.6573298 0.1713762 -0.045812566 4278190080
2.6529217 0.16179444 -0.045725305 4278190080
2.6534703 0.15253387 -0.045725305 4278190080
2.6490197 0.14253777 -0.045638043 4278190080
2.6495011 0.13329095 -0.045638043 4278190080
2.6499503 0.12404109 -0.045638043 4278190080
2.650367 0.11479113 -0.045638043 4278190080
2.6507516 0.10553836 -0.045638043 4278190080
2.6560996 0.096465744 -0.045725305 4278190080
2.6564202 0.087194487 -0.045725305 4278190080
2.6567085 0.07792075 -0.045725305 4278190080
2.6569641 0.068647482 -0.045725305 4278190080
2.6571877 0.059371963 -0.045725305 4278190080
2.6573787 0.050095718 -0.045725305 4278190080
2.6575375 0.040820278 -0.045725305 4278190080
2.6576636 0.031542927 -0.045725305 4278190080
2.6577575 0.022266608 -0.045725305 4278190080
2.657819 0.012988601 -0.045725305 4278190080
2.6578484 0.0037104357 -0.045725305 4278190080
2.657845 -0.0055665858 -0.045725305 4278190080
2.6578095 -0.014844162 -0.045725305 4278190080
2.6577413 -0.024121556 -0.045725305 4278190080
2.6526423 -0.033335842 -0.045638043 4278190080
2.6525097 -0.042595088 -0.045638043 4278190080
2.6523449 -0.051853813 -0.045638043 4278190080
2.6521478 -0.061111912 -0.045638043 4278190080
2.6519182 -0.070369259 -0.045638043 4278190080
2.6516564 -0.079625756 -0.045638043 4278190080
2.6513624 -0.088881277 -0.045638043 4278190080
2.651036 -0.09813571 -0.045638043 4278190080
2.6506772 -0.10738896 -0.045638043 4278190080
2.6502659 -0.11710346 -0.045638043 4278190080
2.6498408 -0.1263539 -0.045638043 4278190080
2.6493838 -0.1356028 -0.045638043 4278190080
2.6488943 -0.14485006 -0.045638043 4278190080
2.6483994 -0.1536333 -0.045638043 4278190080
2.6478469 -0.16287701 -0.045638043 4278190080
2.6472623 -0.17211872 -0.045638043 4278190080
2.6466453 -0.18135835 -0.045638043 4278190080
2.6459961 -0.19059575 -0.045638043 4278190080
2.6453147 -0.19983086 -0.045638043 4278190080
2.6445646 -0.20952508 -0.045638043 4278190080
2.6438169 -0.21875505 -0.045638043 4278190080
2.6430373 -0.22798234 -0.045638043 4278190080
2.6422255 -0.23720689 -0.045638043 4278190080
2.6413813 -0.24642853 -0.045638043 4278190080
2.6454809 -0.25612894 -0.045725305 4278190080
2.6445706 -0.26536182 -0.045725305 4278190080
2.6436284 -0.27459148 -0.045725305 4278190080
2.6426537 -0.2838178 -0.045725305 4278190080
2.6416469 -0.29304063 -0.045725305 4278190080
2.6406078 -0.30225992 -0.045725305 4278190080
2.6395366 -0.31147552 -0.045725305 4278190080
2.6384335 -0.32068732 -0.045725305 4278190080
2.6372979 -0.32989523 -0.045725305 4278190080
2.6410887 -0.33973694 -0.045812566 4278190080
2.6398869 -0.34895399 -0.045812566 4278190080
2.6386526 -0.35816678 -0.045812566 4278190080
2.6373863 -0.36737522 -0.045812566 4278190080
2.6360879 -0.3765792 -0.045812566 4278190080
2.6397038 -0.38650277 -0.045899827 4278190080
2.6383386 -0.3957147 -0.045899827 4278190080
2.6369412 -0.4049218 -0.045899827 4278190080
2.923053 -0.46819726 0.7824176 4278190080
2.921401 -0.47839776 0.7824176 4278190080
2.9244769 -0.4893896 0.78371084 4278190080
2.9227507 -0.49959493 0.78371084 4278190080
2.920989 -0.50979418 0.78371084 4278190080
2.9191918 -0.51998729 0.78371084 4278190080
2.9173589 -0.53017396 0.78371084 4278190080
2.9154904 -0.54035419 0.78371084 4278190080
2.9135866 -0.55052787 0.78371084 4278190080
2.9116471 -0.56069481 0.78371084 4278190080
2.9096723 -0.57085502 0.78371084 4278190080
2.9076617 -0.58100814 0.78371084 4278190080
2.9103487 -0.59211713 0.78500408 4278190080
2.9082642 -0.60227251 0.78500408 4278190080
2.9061441 -0.61242062 0.78500408 4278190080
2.9039886 -0.62256122 0.78500408 4278190080
2.9065168 -0.6337232 0.78629738 4278190080
2.9042871 -0.64386493 0.78629738 4278190080
2.9020219 -0.65399885 0.78629738 4278190080
2.8997214 -0.66412485 0.78629738 4278190080
2.9020894 -0.67533737 0.78759056 4278190080
2.8997145 -0.68546343 0.78759056 4278190080
2.9020007 -0.69670868 0.78888386 4278190080
2.8995509 -0.70683432 0.78888386 4278190080
2.8970659 -0.71695131 0.78888386 4278190080
2.8992298 -0.72823626 0.79017711 4278190080
2.8965414 -0.73885757 0.79017711 4278190080
2.8939445 -0.74896383 0.79017711 4278190080
2.8913126 -0.75906104 0.79017711 4278190080
2.8886454 -0.76914895 0.79017711 4278190080
2.8859429 -0.7792275 0.79017711 4278190080
2.8832052 -0.78929663 0.79017711 4278190080
2.8850865 -0.80064762 0.79147035 4278190080
2.8822744 -0.81071359 0.79147035 4278190080
2.8794267 -0.82076967 0.79147035 4278190080
2.8811843 -0.83215594 0.79276359 4278190080
2.8784089 -0.84170562 0.79276359 4278190080
2.8754532 -0.85174805 0.79276359 4278190080
2.8724625 -0.86178011 0.79276359 4278190080
2.869437 -0.87180156 0.79276359 4278190080
2.8663764 -0.88181251 0.79276359 4278190080
2.8678923 -0.89324892 0.79405689 4278190080
2.8647568 -0.90325433 0.79405689 4278190080
2.8615863 -0.91324872 0.79405689 4278190080
2.8629773 -0.92471641 0.79535013 4278190080
2.8643227 -0.93620497 0.79664338 4278190080
2.860872 -0.94669688 0.79664338 4278190080
2.8621302 -0.95821083 0.79793668 4278190080
2.858768 -0.96819568 0.79793668 4278190080
2.8553708 -0.97816879 0.79793668 4278190080
2.851939 -0.98812991 0.79793668 4278190080
2.8530304 -0.99967611 0.79922986 4278190080
2.8495235 -1.009629 0.79922986 4278190080
2.850529 -1.0211984 0.80052316 4278190080
2.846947 -1.0311425 0.80052316 4278190080
2.8433301 -1.0410739 0.80052316 4278190080
2.8443921 -1.0521725 0.8018164 4278190080
2.8407018 -1.0620949 0.8018164 4278190080
2.8414953 -1.0737116 0.80310965 4278190080
2.8377302 -1.0836238 0.80310965 4278190080
2.8339303 -1.0935227 0.80310965 4278190080
2.830096 -1.1034082 0.80310965 4278190080
2.8307207 -1.1150506 0.80440289 4278190080
2.8268111 -1.1249249 0.80440289 4278190080
2.8228672 -1.1347853 0.80440289 4278190080
2.8188889 -1.1446321 0.80440289 4278190080
2.819345 -1.1562976 0.80569613 4278190080
2.8152916 -1.166132 0.80569613 4278190080
2.8156595 -1.1778159 0.80698937 4278190080
2.8115311 -1.1876372 0.80698937 4278190080
2.8073683 -1.1974441 0.80698937 4278190080
2.8076074 -1.2091467 0.80828267 4278190080
2.8033695 -1.2189398 0.80828267 4278190080
2.80352 -1.2306592 0.80957586 4278190080
2.8038397 -1.2419052 0.81086916 4278190080
2.7994876 -1.251685 0.81086916 4278190080
2.7995033 -1.2634362 0.8121624 4278190080
2.7950761 -1.2732005 0.8121624 4278190080
2.7950032 -1.2849669 0.81345564 4278190080
2.7905009 -1.2947154 0.81345564 4278190080
2.7859645 -1.3044482 0.81345564 4278190080
2.7857609 -1.3162284 0.81474888 4278190080
2.7811494 -1.3259444 0.81474888 4278190080
2.7808566 -1.3377383 0.81604218 4278190080
2.7761703 -1.347437 0.81604218 4278190080
2.7757874 -1.3592435 0.81733537 4278190080
2.7753563 -1.3710638 0.81862867 4278190080
2.7748761 -1.3828975 0.81992191 4278190080
2.7700319 -1.3925753 0.81992191 4278190080
2.7694619 -1.4044204 0.82121515 4278190080
2.7645426 -1.4140792 0.82121515 4278190080
2.7595897 -1.4237206 0.82121515 4278190080
2.7588875 -1.4355741 0.82250839 4278190080
2.7538598 -1.4451957 0.82250839 4278190080
2.7530673 -1.4570589 0.8238017 4278190080
2.7479644 -1.46666 0.8238017 4278190080
2.7470808 -1.4785323 0.82509488 4278190080
2.7461481 -1.4904163 0.82638818 4278190080
2.7409289 -1.4999931 0.82638818 4278190080
2.7399049 -1.5118849 0.82768142 4278190080
2.7388315 -1.523788 0.82897466 4278190080
2.7334957 -1.533339 0.82897466 4278190080
2.732331 -1.545249 0.83026797 4278190080
2.7311161 -1.5571694 0.83156121 4278190080
2.7256639 -1.5666933 0.83156121 4278190080
2.7243576 -1.5786197 0.83285445 4278190080
2.7232785 -1.5900806 0.83414769 4278190080
2.7177114 -1.5995768 0.83414769 4278190080
2.7162654 -1.6115181 0.83544093 4278190080
2.7147686 -1.6234686 0.83673418 4278190080
2.7088001 -1.633408 0.83673418 4278190080
2.7072093 -1.645362 0.83802748 4278190080
2.7017384 -1.6543304 0.83802748 4278190080
2.7000573 -1.6662875 0.83932066 4278190080
2.6983256 -1.6782533 0.84061396 4278190080
2.6965432 -1.6902272 0.8419072 4278190080
2.6906269 -1.6996294 0.8419072 4278190080
2.6887522 -1.7116048 0.84320045 4278190080
2.6865256 -1.7240566 0.84449369 4278190080
2.680491 -1.7334238 0.84449369 4278190080
2.6787751 -1.7449394 0.84578699 4278190080
2.6767056 -1.7569296 0.84708017 4278190080
2.6745849 -1.7689269 0.84837347 4278190080
2.6724129 -1.7809305 0.84966671 4278190080
2.6701899 -1.7929406 0.85095996 4278190080
2.6679153 -1.8049568 0.8522532 4278190080
2.6655898 -1.8169788 0.8535465 4278190080
2.6592309 -1.8262724 0.8535465 4278190080
2.6568117 -1.8382919 0.85483968 4278190080
2.6543407 -1.8503168 0.85613298 4278190080
2.6518183 -1.8623466 0.85742623 4278190080
2.6492443 -1.8743814 0.85871947 4278190080
2.6469474 -1.885959 0.86001271 4278190080
2.6403482 -1.8951869 0.86001271 4278190080
2.6376305 -1.907222 0.86130601 4278190080
2.634861 -1.9192613 0.86259925 4278190080
2.6320393 -1.9313042 0.8638925 4278190080
2.6252818 -1.94048 0.8638925 4278190080
2.6223664 -1.9525166 0.8651858 4278190080
2.6193986 -1.9645562 0.86647898 4278190080
2.6125252 -1.9736878 0.86647898 4278190080
2.6094635 -1.98572 0.86777228 4278190080
2.6063492 -1.9977548 0.86906546 4278190080
2.59936 -2.0068405 0.86906546 4278190080
2.6037772 -2.0247965 0.87294525 4278190080
2.6004956 -2.0368512 0.87423849 4278190080
2.5937269 -2.0454636 0.87423849 4278190080
2.6436224 -2.130089 0.89881027 4278190080
2.6399214 -2.1423476 0.90010357 4278190080
2.6174686 -2.1393232 0.8949306 4278190080
2.580153 -2.1238904 0.88458449 4278190080
2.5987511 -2.1544619 0.8936373 4278190080
2.5949223 -2.1666157 0.8949306 4278190080
2.5873437 -2.1756604 0.8949306 4278190080
2.5944765 -2.1971638 0.90010357 4278190080
2.590466 -2.209341 0.90139681 4278190080
2.5900657 -2.224664 0.90398329 4278190080
2.5781136 -2.2458644 0.9052766 4278190080
2.5889103 -2.4354036 0.94148761 4278190080
2.5368977 -2.4200802 0.92855507 4278190080
2.5105979 -2.4126289 0.9220888 4278190080
2.5125735 -2.4314542 0.92596859 4278190080
2.4768198 -2.412811 0.91562259 4278190080
2.4718301 -2.4248242 0.91691583 4278190080
2.4496067 -2.4198606 0.91174281 4278190080
2.4411449 -2.4283965 0.91174281 4278190080
2.4121799 -2.4163938 0.90398329 4278190080
2.4037304 -2.424799 0.90398329 4278190080
2.3884752 -2.426291 0.90139681 4278190080
2.3512933 -2.4221134 0.8936373 4278190080
0.84877938 -0.91179836 0.32331306 4278190080
0.84886992 -0.9183023 0.32460633 4278190080
0.84255332 -0.91755468 0.32331306 4278190080
0.8035481 -0.88123214 0.30908728 4278190080
0.82315987 -0.90909344 0.31814006 4278190080
0.81998152 -0.91196132 0.31814006 4278190080
2.0715125 -2.4032602 0.83932066 4278190080
2.0474081 -2.3921297 0.83285445 4278190080
2.0484288 -2.4103026 0.83673418 4278190080
2.0244284 -2.3989825 0.83026797 4278190080
2.0129399 -2.4023323 0.82897466 4278190080
1.998783 -2.4015696 0.82638818 4278190080
1.9842343 -2.4010859 0.8238017 4278190080
1.9697134 -2.4005301 0.82121515 4278190080
1.9552207 -2.3999021 0.81862867 4278190080
1.9437941 -2.4029572 0.81733537 4278190080
1.9293455 -2.4021964 0.81474888 4278190080
1.9149259 -2.4013641 0.8121624 4278190080
1.9035339 -2.404247 0.81086916 4278190080
1.8891603 -2.4032829 0.80828267 4278190080
1.8748167 -2.4022474 0.80569613 4278190080
1.8609223 -2.4008167 0.80310965 4278190080
0.70902926 -0.93478888 0.30391428 4278190080
0.68497491 -0.91662508 0.29615477 4278190080
0.66450524 -0.89573652 0.28839526 4278190080
0.66996676 -0.90971768 0.29227501 4278190080
0.66409516 -0.90803587 0.29098177 4278190080
0.66375905 -0.91425687 0.29227501 4278190080
0.67092758 -0.944785 0.30003452 4278190080
0.63701582 -0.90369701 0.28580874 4278190080
1.6119472 -2.3727992 0.75784576 4278190080
1.6117554 -2.3904252 0.76172554 4278190080
1.5953429 -2.3839946 0.75784576 4278190080
1.5843394 -2.3855257 0.75655258 4278190080
1.5706866 -2.3829763 0.75396603 4278190080
1.5597149 -2.3844025 0.75267279 4278190080
1.5487527 -2.3857813 0.75137955 4278190080
1.5351839 -2.3830523 0.74879307 4278190080
1.5242546 -2.3843272 0.74749976 4278190080
1.5133352 -2.385555 0.74620652 4278190080
1.5024258 -2.3867354 0.74491328 4278190080
1.488968 -2.3837726 0.74232674 4278190080
1.4780936 -2.3848503 0.74103355 4278190080
1.4646999 -2.381767 0.73844707 4278190080
1.4538612 -2.3827422 0.73715377 4278190080
1.4430338 -2.383671 0.73586053 4278190080
1.4301463 -2.3801632 0.73327404 4278190080
1.416883 -2.3768435 0.73068756 4278190080
1.406119 -2.3776176 0.72939426 4278190080
1.395367 -2.3783453 0.72810096 4278190080
1.3821975 -2.3748529 0.72551447 4278190080
1.3714844 -2.3754807 0.72422123 4278190080
1.3611984 -2.3758247 0.72292799 4278190080
1.3505106 -2.3763626 0.72163475 4278190080
1.3398354 -2.3768549 0.72034144 4278190080
1.2084193 -2.3706338 0.70223594 4278190080
1.1914234 -2.3575947 0.69706297 4278190080
1.1810232 -2.3574212 0.69576973 4278190080
1.1706388 -2.3572035 0.69447643 4278190080
1.1585478 -2.3524067 0.69188994 4278190080
1.1460917 -2.3477559 0.68930346 4278190080
1.1378895 -2.351742 0.68930346 4278190080
1.1317619 -2.3600545 0.69059664 4278190080
1.12559 -2.3683534 0.69188994 4278190080
1.1214321 -2.3810067 0.69447643 4278190080
1.1110711 -2.3805301 0.69318318 4278190080
1.1027548 -2.3843939 0.69318318 4278190080
1.0843647 -2.3662748 0.68671691 4278190080
1.0621206 -2.3392613 0.67766416 4278190080
1.0539488 -2.3429544 0.67766416 4278190080
0.10306865 -0.67277139 0.17200254 4278190080
0.10071965 -0.67312706 0.17200254 4278190080
0.09836933 -0.67347455 0.17200254 4278190080
0.092611067 -0.6499061 0.16553628 4278190080
0.093000636 -0.669361 0.17070928 4278190080
0.090663508 -0.66968155 0.17070928 4278190080
0.089706421 -0.67955512 0.1732958 4278190080
0.087949201 -0.68465465 0.17458905 4278190080
0.085558817 -0.6849575 0.17458905 4278190080
0.083749205 -0.69004667 0.17588231 4278190080
0.081340022 -0.6903348 0.17588231 4278190080
0.078929752 -0.69061452 0.17588231 4278190080
0.077171735 -0.69567287 0.17717557 4278190080
0.074742854 -0.69593799 0.17717557 4278190080
0.072812147 -0.70099866 0.17846881 4278190080
0.070364803 -0.70124853 0.17846881 4278190080
0.068381943 -0.70629728 0.17976207 4278190080
0.065916121 -0.70653164 0.17976207 4278190080
0.063017547 -0.70194691 0.17846881 4278190080
0.060151875 -0.69735068 0.17717557 4278190080
0.056920797 -0.68792957 0.17458905 4278190080
0.053756133 -0.67849451 0.17200254 4278190080
0.050409347 -0.66422105 0.16812278 4278190080
0.047741827 -0.6595757 0.16682954 4278190080
0.044775486 -0.65010142 0.16424303 4278190080
0.042190839 -0.6454342 0.16294979 4278190080
0.039452203 -0.63592941 0.16036329 4278190080
0.036949869 -0.63124168 0.15907003 4278190080
0.034480833 -0.62654424 0.15777677 4278190080
0.032293525 -0.62666076 0.15777677 4278190080
0.029874178 -0.62194532 0.15648352 4278190080
0.027703034 -0.62204581 0.15648352 4278190080
0.025531471 -0.62213874 0.15648352 4278190080
0.023359679 -0.62222409 0.15648352 4278190080
0.021351868 -0.62712896 0.15777677 4278190080
0.019162683 -0.62719965 0.15777677 4278190080
0.017103909 -0.63209081 0.15907003 4278190080
0.014897345 -0.63214666 0.15907003 4278190080
0.012703268 -0.62736374 0.15777677 4278190080
0.010513233 -0.62740421 0.15777677 4278190080
0.0082590878 -0.62260765 0.15648352 4278190080
0.0060384762 -0.61780304 0.15519026 4278190080
0.0038819376 -0.61782038 0.15519026 4278190080
0.0017118634 -0.61300033 0.15389702 4278190080
-0.00042796638 -0.61300254 0.15389702 4278190080
-0.0025879403 -0.61782712 0.15519026 4278190080
-0.0047445931 -0.61781436 0.15519026 4278190080
-0.0069011059 -0.61779404 0.15519026 4278190080
-0.0090197371 -0.6225971 0.15648352 4278190080
-0.011192918 -0.62256181 0.15648352 4278190080
-0.013366046 -0.62251896 0.15648352 4278190080
-0.015538928 -0.62246847 0.15648352 4278190080
-0.017574236 -0.61758256 0.15519026 4278190080
-0.019729944 -0.61751747 0.15519026 4278190080
-0.021714242 -0.61261797 0.15389702 4278190080
-0.023664659 -0.60771227 0.15260376 4278190080
-0.025785794 -0.60762596 0.15260376 4278190080
-0.027906615 -0.60753226 0.15260376 4278190080
-0.029921139 -0.60743636 0.15260376 4278190080
-0.03229573 -0.61215138 0.15389702 4278190080
-0.034703683 -0.61685711 0.15519026 4278190080
-0.03685667 -0.61673224 0.15519026 4278190080
-0.039314244 -0.62142003 0.15648352 4278190080
-0.041483134 -0.621279 0.15648352 4278190080
-0.043651514 -0.62113041 0.15648352 4278190080
-0.04581945 -0.6209743 0.15648352 4278190080
-0.047878448 -0.62081891 0.15648352 4278190080
-0.050045185 -0.62064803 0.15648352 4278190080
-0.05210308 -0.62047863 0.15648352 4278190080
-0.054268606 -0.62029296 0.15648352 4278190080
-0.056649964 -0.62008005 0.15648352 4278190080
-0.058814071 -0.61987853 0.15648352 4278190080
-0.060504552 -0.6148628 0.15519026 4278190080
-0.06265042 -0.61464787 0.15519026 4278190080
-0.064688347 -0.61443675 0.15519026 4278190080
-0.066832706 -0.61420715 0.15519026 4278190080
-0.068976335 -0.61397016 0.15519026 4278190080
-0.071119033 -0.6137256 0.15519026 4278190080
-0.073153861 -0.61348641 0.15519026 4278190080
-0.075883456 -0.61802119 0.15648352 4278190080
-0.078645609 -0.62254435 0.15777677 4278190080
-0.08144033 -0.62705564 0.15907003 4278190080
-0.085544966 -0.64112985 0.16294979 4278190080
-0.088437945 -0.64561248 0.16424303 4278190080
-0.092035346 -0.6548655 0.16682954 4278190080
-0.095009536 -0.65932077 0.16812278 4278190080
-0.097310469 -0.65898508 0.16812278 4278190080
-0.099610128 -0.6586414 0.16812278 4278190080
-0.10179374 -0.65830743 0.16812278 4278190080
-0.10409101 -0.65794814 0.16812278 4278190080
-0.10561573 -0.6528129 0.16682954 4278190080
-0.10789379 -0.65244025 0.16682954 4278190080
-0.1093659 -0.64729732 0.16553628 4278190080
-0.11080352 -0.64215207 0.16424303 4278190080
