# .PCD v0.7 - Point Cloud Data file format
VERSION 0.7
FIELDS x y z rgb
SIZE 4 4 4 4
TYPE F F F U
COUNT 1 1 1 1
WIDTH 1093
HEIGHT 1
VIEWPOINT 0 0 0 1 0 0 0
POINTS 1093
DATA ascii
-0.35805881 -0.80120063 0.16299519 4278190080
-0.35479847 -0.78652346 0.16013563 4278190080
-0.36757028 -0.80767977 0.16490158 4278190080
-0.40036836 -0.79743016 0.16585477 4278190080
-0.41201994 -0.81354278 0.16966751 4278190080
-0.42602167 -0.83395457 0.17443345 4278190080
-0.41544133 -0.80628335 0.16871433 4278190080
-0.42504328 -0.81789422 0.17157389 4278190080
-0.42789575 -0.81640553 0.17157389 4278190080
-0.43074289 -0.81490695 0.17157389 4278190080
-0.43589363 -0.81772977 0.17252707 4278190080
-0.43874544 -0.81620318 0.17252707 4278190080
-0.44144958 -0.81474382 0.17252707 4278190080
-0.44429094 -0.81319785 0.17252707 4278190080
-0.4469851 -0.81172013 0.17252707 4278190080
-0.4523406 -0.81436718 0.17348027 4278190080
-0.45757878 -0.81706572 0.17443345 4278190080
-0.46284127 -0.81973761 0.17538664 4278190080
-0.46569994 -0.81811696 0.17538664 4278190080
-0.47099584 -0.8207435 0.17633983 4278190080
-0.47371498 -0.81917709 0.17633983 4278190080
-0.47904345 -0.82175899 0.17729303 4278190080
-0.4819091 -0.82008177 0.17729303 4278190080
-0.48476872 -0.81839466 0.17729303 4278190080
-0.49265486 -0.82512605 0.1791994 4278190080
-0.48793942 -0.81078488 0.17633983 4278190080
-0.50080478 -0.82595056 0.1801526 4278190080
-0.4960064 -0.81163299 0.17729303 4278190080
-1.4103942 -2.2370691 0.50614297 4278190080
-1.4050333 -2.2114182 0.50137705 4278190080
-1.4233304 -2.2230346 0.50518978 4278190080
-1.4390649 -2.2304258 0.50804937 4278190080
-1.449517 -2.2295041 0.50900251 4278190080
-1.4599806 -2.2285364 0.50995576 4278190080
-1.4731587 -2.2316191 0.5118621 4278190080
-1.4836578 -2.2305503 0.5128153 4278190080
-1.4941677 -2.2294347 0.51376849 4278190080
-1.5074342 -2.2323411 0.51567489 4278190080
-1.5179785 -2.2311237 0.51662809 4278190080
-1.528143 -2.2301266 0.51758122 4278190080
-1.5414957 -2.232857 0.51948762 4278190080
-1.552083 -2.2314923 0.52044082 4278190080
-1.5626794 -2.2300806 0.52139401 4278190080
-1.5761158 -2.2326317 0.52330035 4278190080
-1.5867443 -2.2311165 0.52425355 4278190080
-1.6002401 -2.2335439 0.52615994 4278190080
-1.6108992 -2.2319243 0.52711314 4278190080
-1.6244529 -2.2342274 0.52901947 4278190080
-1.6351424 -2.2325032 0.52997267 4278190080
-1.6454501 -2.2310185 0.53092587 4278190080
-1.6561549 -2.2292016 0.53187907 4278190080
-1.6668669 -2.2273366 0.53283226 4278190080
-1.6775863 -2.2254238 0.53378546 4278190080
-1.6883124 -2.2234635 0.5347386 4278190080
-1.7020273 -2.225354 0.536645 4278190080
-1.7157758 -2.227176 0.53855139 4278190080
-1.7295575 -2.228929 0.54045779 4278190080
-1.7433723 -2.2306128 0.54236418 4278190080
-1.7602564 -2.2360833 0.54522371 4278190080
-1.7771994 -2.2414637 0.54808331 4278190080
-1.8003268 -2.2544234 0.55284917 4278190080
-1.8235663 -2.2672489 0.55761516 4278190080
-1.8530962 -2.2875674 0.56428748 4278190080
-1.8575698 -2.2776058 0.56333429 4278190080
-1.874855 -2.2824864 0.56619388 4278190080
-1.8702968 -2.2608001 0.56238109 4278190080
-1.8970281 -2.2768836 0.56810021 4278190080
-1.9018091 -2.2664878 0.56714702 4278190080
-1.9171925 -2.2534902 0.56714702 4278190080
-3.875416 -2.2284625 0.86072904 4278190080
-3.8951509 -2.2037704 0.86168224 4278190080
-3.9071002 -2.1925626 0.86263543 4278190080
-3.9233069 -2.1836853 0.86454177 4278190080
-3.9352033 -2.1723483 0.86549497 4278190080
-3.9642887 -2.1703844 0.87026095 4278190080
-3.9977212 -2.1705854 0.87598002 4278190080
-4.0355253 -2.1729069 0.8826524 4278190080
-4.0686846 -2.173388 0.88837147 4278190080
-4.1022706 -2.1729577 0.89409065 4278190080
-4.1355238 -2.1730404 0.89980972 4278190080
-4.1695809 -2.1714709 0.9055289 4278190080
-4.2033024 -2.1704149 0.91124797 4278190080
-4.2370672 -2.1691501 0.91696715 4278190080
-4.2752504 -2.1698971 0.92363942 4278190080
-4.3091063 -2.1681976 0.9293586 4278190080
-4.3473945 -2.1684778 0.93603086 4278190080
-4.3813367 -2.1663427 0.94175005 4278190080
-4.4197235 -2.1661568 0.94842237 4278190080
-4.4581618 -2.165729 0.95509464 4278190080
-4.4966516 -2.1650596 0.96176702 4278190080
-4.5351906 -2.1641459 0.96843928 4278190080
-4.5737767 -2.1629908 0.9751116 4278190080
-4.6124105 -2.1615927 0.98178399 4278190080
-4.6507125 -2.1607621 0.98845625 4278190080
-4.689436 -2.1588833 0.99512857 4278190080
-4.7326684 -2.158797 1.0027541 4278190080
-4.7714844 -2.156414 1.0094265 4278190080
-4.8148212 -2.1557906 1.0170519 4278190080
-4.858211 -2.1548917 1.0246774 4278190080
-4.9012766 -2.1545711 1.032303 4278190080
-4.9447689 -2.1531258 1.0399284 4278190080
-4.9928174 -2.153347 1.0485071 4278190080
-5.0364137 -2.1513305 1.0561327 4278190080
-5.0845771 -2.1509466 1.0647113 4278190080
-5.1327977 -2.1502538 1.07329 4278190080
-5.1810756 -2.1492505 1.0818686 4278190080
-5.2294083 -2.1479361 1.0904474 4278190080
-5.2777944 -2.1463103 1.0990261 4278190080
-5.3262329 -2.1443713 1.1076049 4278190080
-5.3747215 -2.1421216 1.1161835 4278190080
-5.4232588 -2.139559 1.1247622 4278190080
-5.4672704 -2.1348984 1.1323878 4278190080
-5.5250502 -2.1352644 1.1428728 4278190080
-5.5737305 -2.1317446 1.1514515 4278190080
-5.6040907 -2.1209629 1.1562175 4278190080
-5.7288513 -2.123714 1.179094 4278190080
-5.7961359 -2.125674 1.1914854 4278190080
-5.8496609 -2.1221681 1.2010173 4278190080
-5.9032316 -2.1183143 1.2105491 4278190080
-5.9938517 -2.1272438 1.2277066 4278190080
-6.0521851 -2.1241891 1.2381916 4278190080
-6.0363779 -2.0950038 1.2334256 4278190080
-6.0479345 -2.0765686 1.2343788 4278190080
-6.0365548 -2.0491343 1.2305661 4278190080
-6.0204043 -2.0202432 1.2258002 4278190080
-5.9994669 -1.9899445 1.220081 4278190080
-6.0017133 -1.9674602 1.2191279 4278190080
-6.0132132 -1.9480112 1.220081 4278190080
-6.0153022 -1.9255134 1.2191279 4278190080
-6.0219865 -1.9045047 1.2191279 4278190080
-6.0192275 -1.8805453 1.2172214 4278190080
-6.0163755 -1.8566269 1.2153151 4278190080
-6.0087342 -1.8313218 1.2124555 4278190080
-6.0103903 -1.8089222 1.2115023 4278190080
-6.0119629 -1.7865331 1.2105491 4278190080
-6.0181623 -1.7655369 1.2105491 4278190080
-6.0242891 -1.7445176 1.2105491 4278190080
-6.0303416 -1.7234786 1.2105491 4278190080
-6.0315967 -1.7010862 1.2095959 4278190080
-6.0280409 -1.6773905 1.2076896 4278190080
-6.019659 -1.6524408 1.2048299 4278190080
-6.0159159 -1.6288514 1.2029237 4278190080
-6.0073385 -1.6040437 1.2000641 4278190080
-6.0034075 -1.5805653 1.1981577 4278190080
-5.9943643 -1.5569466 1.1952982 4278190080
-5.990252 -1.5335785 1.1933917 4278190080
-5.9860506 -1.5102582 1.1914854 4278190080
-5.9817591 -1.4869859 1.189579 4278190080
-5.9773788 -1.4637604 1.1876726 4278190080
-5.9776802 -1.4417361 1.1867194 4278190080
-5.973125 -1.4185932 1.184813 4278190080
-5.9730177 -1.3976593 1.1838599 4278190080
-5.968533 -1.373557 1.1819534 4278190080
-5.9637179 -1.3505452 1.1800472 4278190080
-5.9588137 -1.3275852 1.1781408 4278190080
-5.9538226 -1.3046761 1.1762344 4278190080
-5.9487438 -1.2818179 1.174328 4278190080
-5.9435787 -1.2590111 1.1724217 4278190080
-5.9333057 -1.2362907 1.169562 4278190080
-5.932776 -1.2145879 1.1686088 4278190080
-5.9369798 -1.1938699 1.1686088 4278190080
-5.9411111 -1.1731391 1.1686088 4278190080
-5.9499888 -1.1533279 1.169562 4278190080
-5.9202256 -1.1261315 1.1628897 4278190080
-5.8999949 -1.1009578 1.1581237 4278190080
-5.88449 -1.0768209 1.1543111 4278190080
-5.8978753 -1.0580072 1.1562175 4278190080
-5.9015326 -1.0374137 1.1562175 4278190080
-5.9099545 -1.0176404 1.1571705 4278190080
-5.9134707 -0.99700493 1.1571705 4278190080
-5.9167442 -0.9773894 1.1571705 4278190080
-5.9201202 -0.95672888 1.1571705 4278190080
-5.9234238 -0.93605828 1.1571705 4278190080
-5.9218049 -0.91462713 1.1562175 4278190080
-5.9249611 -0.89395094 1.1562175 4278190080
-5.9231896 -0.87254846 1.1552643 4278190080
-5.9164824 -0.85046935 1.1533577 4278190080
-5.9145546 -0.82913077 1.1524047 4278190080
-5.9125495 -0.80781591 1.1514515 4278190080
-5.9104676 -0.78652519 1.1504983 4278190080
-5.9083095 -0.76525885 1.1495451 4278190080
-5.9060755 -0.74401563 1.1485919 4278190080
-5.9037642 -0.72279888 1.1476387 4278190080
-5.9013772 -0.70160735 1.1466855 4278190080
-5.8940382 -0.67987883 1.1447791 4278190080
-5.88662 -0.65821016 1.1428728 4278190080
-5.8742428 -0.63607156 1.1400132 4278190080
-5.8666635 -0.61454034 1.1381068 4278190080
-5.8541231 -0.59257555 1.1352472 4278190080
-5.8463855 -0.57118297 1.1333408 4278190080
-5.8434572 -0.55031192 1.1323878 4278190080
-5.8502307 -0.53035301 1.1333408 4278190080
-5.8569365 -0.51035506 1.134294 4278190080
-5.8684649 -0.49072576 1.1362004 4278190080
-5.8799272 -0.47102216 1.1381068 4278190080
-5.8717475 -0.44974515 1.1362004 4278190080
-5.8634911 -0.42852938 1.134294 4278190080
-5.8551583 -0.40737835 1.1323878 4278190080
-5.8467493 -0.38629067 1.1304814 4278190080
-5.848062 -0.36587968 1.1304814 4278190080
-5.8493037 -0.3454642 1.1304814 4278190080
-5.8455729 -0.32477069 1.129528 4278190080
-5.851573 -0.30461934 1.1304814 4278190080
-5.8476977 -0.28395393 1.129528 4278190080
-5.8486533 -0.26354024 1.129528 4278190080
-5.8495378 -0.24312334 1.129528 4278190080
-5.8454075 -0.22353643 1.128575 4278190080
-5.8461523 -0.20313111 1.128575 4278190080
-5.8419514 -0.18154937 1.1276218 4278190080
-5.8376431 -0.16102102 1.1266686 4278190080
-5.8332376 -0.14154251 1.1257154 4278190080
-5.8336964 -0.12118015 1.1257154 4278190080
-5.8291764 -0.10073152 1.1247622 4278190080
-5.8294926 -0.080382049 1.1247622 4278190080
-5.8248296 -0.059982598 1.123809 4278190080
-5.8200951 -0.039616682 1.1228558 4278190080
-5.8005648 -0.019235719 1.1190431 4278190080
-5.785872 0.0010092704 1.1161835 4278190080
-5.7662001 0.021134997 1.1123707 4278190080
-5.7808156 0.041367725 1.1152303 4278190080
-5.790452 0.061650485 1.1171366 4278190080
-5.7951093 0.081931636 1.1180898 4278190080
-5.8046031 0.10233258 1.1199963 4278190080
-5.8091178 0.12269868 1.1209494 4278190080
-5.813561 0.143096 1.1219026 4278190080
-5.8179326 0.16352585 1.1228558 4278190080
-5.8173261 0.18383291 1.1228558 4278190080
-5.8215542 0.2043099 1.123809 4278190080
-5.8208055 0.22463091 1.123809 4278190080
-5.8248901 0.24515404 1.1247622 4278190080
-5.8239989 0.2654849 1.1247622 4278190080
-5.827939 0.28605312 1.1257154 4278190080
-5.8269048 0.30639437 1.1257154 4278190080
-5.8307004 0.32700831 1.1266686 4278190080
-5.839323 0.34794283 1.128575 4278190080
-5.8527684 0.3692506 1.1314346 4278190080
-5.8662043 0.38963315 1.134294 4278190080
-5.8843937 0.41147688 1.1381068 4278190080
-5.863266 0.43160087 1.134294 4278190080
-5.8568296 0.45168713 1.1333408 4278190080
-5.8504076 0.47071323 1.1323878 4278190080
-5.8487287 0.49113178 1.1323878 4278190080
-5.8469787 0.51154435 1.1323878 4278190080
-5.8500452 0.53239554 1.1333408 4278190080
-5.8333955 0.55244583 1.1304814 4278190080
-5.8070073 0.57040542 1.1257154 4278190080
-5.7072177 0.58173162 1.1066515 4278190080
-5.6858363 0.59760553 1.1028389 4278190080
-5.6788363 0.61691874 1.1018857 4278190080
-5.6912818 0.63837892 1.1047453 4278190080
-5.6890182 0.65824252 1.1047453 4278190080
-5.6915593 0.67867768 1.1056983 4278190080
-5.6891561 0.69854051 1.1056983 4278190080
-5.6866827 0.71839482 1.1056983 4278190080
-5.6841407 0.73824036 1.1056983 4278190080
-5.6863942 0.75872761 1.1066515 4278190080
-5.6837111 0.7785719 1.1066515 4278190080
-5.6809587 0.79840672 1.1066515 4278190080
-5.6781373 0.81823176 1.1066515 4278190080
-5.6801023 0.83876395 1.1076049 4278190080
-5.6771398 0.85858727 1.1076049 4278190080
-5.6789589 0.87914956 1.1085581 4278190080
-5.6758556 0.89896721 1.1085581 4278190080
-5.6775279 0.91955853 1.1095111 4278190080
-5.6742835 0.93937087 1.1095111 4278190080
-5.6709695 0.95917332 1.1095111 4278190080
-5.6724238 0.97979802 1.1104643 4278190080
-5.6544681 0.99703526 1.1076049 4278190080
-5.583323 1.004598 1.0942601 4278190080
-5.0261755 0.94062376 0.98559672 4278190080
-5.0614324 0.9655202 0.99322224 4278190080
-5.0100198 0.97294229 0.98369032 4278190080
-5.0210381 0.99328184 0.98654985 4278190080
-4.9838591 1.004017 0.97987753 4278190080
-4.2079678 0.87832332 0.82736737 4278190080
-4.1472616 0.88077152 0.81592911 4278190080
-4.0530066 0.87555087 0.7978186 4278190080
-3.98281 0.8749488 0.78447396 4278190080
-3.912668 0.87386769 0.77112937 4278190080
-3.8425825 0.8723076 0.75778466 4278190080
-3.7773387 0.87137336 0.74539322 4278190080
-3.7073708 0.86887354 0.73204863 4278190080
-3.642242 0.86703265 0.71965712 4278190080
-3.5771718 0.86474782 0.70726568 4278190080
-3.5167787 0.86380392 0.69582742 4278190080
-3.4613547 0.86301267 0.68534243 4278190080
-3.4059796 0.86184514 0.67485732 4278190080
-3.3506553 0.86030167 0.66437221 4278190080
-3.3002837 0.85904425 0.65484035 4278190080
-3.2450626 0.85677624 0.6443553 4278190080
-3.19449 0.85596097 0.63482338 4278190080
-3.1488533 0.8555243 0.62624466 4278190080
-3.0983779 0.8540175 0.61671281 4278190080
-3.0529814 0.85240805 0.60813409 4278190080
-3.0076303 0.85050631 0.59955543 4278190080
-2.9621773 0.84883153 0.59097672 4278190080
-2.9214873 0.84821773 0.58335125 4278190080
-2.8761289 0.8459453 0.57477254 4278190080
-2.8355267 0.84476823 0.56714702 4278190080
-2.7949684 0.84331805 0.55952156 4278190080
-2.7591486 0.84303015 0.55284917 4278190080
-2.723366 0.84250188 0.54617691 4278190080
-2.6876209 0.84173417 0.53950459 4278190080
-2.6519146 0.84072727 0.53283226 4278190080
-2.6162486 0.83948153 0.52615994 4278190080
-2.5806239 0.83799785 0.51948762 4278190080
-2.5497048 0.83780736 0.51376849 4278190080
-2.5141613 0.83586282 0.50709617 4278190080
-2.4833152 0.83524519 0.50137705 4278190080
-2.4525042 0.83442259 0.49565789 4278190080
-2.4217293 0.83339584 0.48993877 4278190080
-2.3909922 0.83216381 0.48421964 4278190080
-2.3649232 0.83235705 0.47945368 4278190080
-2.3342583 0.83073282 0.47373456 4278190080
-2.3082523 0.83056664 0.46896866 4278190080
-2.2822759 0.8302297 0.4642027 4278190080
-2.2563305 0.82972097 0.45943674 4278190080
-2.2304168 0.82904148 0.45467082 4278190080
-2.2091303 0.82991731 0.45085809 4278190080
-2.1832764 0.82891256 0.4460921 4278190080
-2.1574564 0.82773823 0.4413262 4278190080
-2.1362481 0.82816726 0.43751341 4278190080
-2.1104934 0.82666838 0.43274748 4278190080
-2.0893393 0.82680595 0.42893475 4278190080
-2.0682099 0.82680601 0.42512199 4278190080
-2.0425549 0.82483137 0.42035604 4278190080
-2.0214844 0.82454103 0.41654328 4278190080
-2.0004406 0.82411373 0.41273054 4278190080
-1.9839566 0.82543504 0.40987095 4278190080
-1.9629629 0.82475019 0.40605819 4278190080
-1.9465165 0.82584655 0.40319866 4278190080
-1.925575 0.82490486 0.3993859 4278190080
-1.9046642 0.82382709 0.39557317 4278190080
-1.8837844 0.82261348 0.39176041 4278190080
-1.8674277 0.82324415 0.38890082 4278190080
-1.8466052 0.82177567 0.38508809 4278190080
-1.8302934 0.82218266 0.38222849 4278190080
-1.8140017 0.82248592 0.37936896 4278190080
-1.7977301 0.82268548 0.37650937 4278190080
-1.7770236 0.82072353 0.37269661 4278190080
-1.7608013 0.82070124 0.36983705 4278190080
-1.7444581 0.82087952 0.36697748 4278190080
-1.7238467 0.81854236 0.36316475 4278190080
-1.7076994 0.81819266 0.36030519 4278190080
-1.6917188 0.81744432 0.35744563 4278190080
-1.6800311 0.81904316 0.35553923 4278190080
-1.6639485 0.8184036 0.35267967 4278190080
-1.6478913 0.81766188 0.34982011 4278190080
-1.6318597 0.81681812 0.34696054 4278190080
-1.6158541 0.81587249 0.34410098 4278190080
-1.5998751 0.81482553 0.34124142 4278190080
-1.5882893 0.81591952 0.33933502 4278190080
-1.5723574 0.81468451 0.33647546 4278190080
-1.5608038 0.81562155 0.3345691 4278190080
-1.5449207 0.81419951 0.33170953 4278190080
-1.5334007 0.81498051 0.32980317 4278190080
-1.5175681 0.81337202 0.32694358 4278190080
-1.5060837 0.81399673 0.32503721 4278190080
-1.4903039 0.81220251 0.32217765 4278190080
-1.4788564 0.8126719 0.32027125 4278190080
-1.4631306 0.81069297 0.31741169 4278190080
-1.4517219 0.81100756 0.31550533 4278190080
-1.4403291 0.81125247 0.31359896 4278190080
-1.4289522 0.81142783 0.31169257 4278190080
-1.4133321 0.80909514 0.308833 4278190080
-1.4018556 0.8093617 0.30692664 4278190080
-1.3906786 0.80906951 0.30502024 4278190080
-1.3793782 0.80895281 0.30311388 4278190080
-1.3679544 0.80900615 0.30120748 4278190080
-1.35669 0.80874968 0.29930112 4278190080
-1.349793 0.81071705 0.29834792 4278190080
-1.3385572 0.81033987 0.29644156 4278190080
-1.3271993 0.81012577 0.29453519 4278190080
-1.3160021 0.80961013 0.29262879 4278190080
-1.3048251 0.80902594 0.29072243 4278190080
-1.2978307 0.8109746 0.28976923 4278190080
-1.2866852 0.81026882 0.28786287 4278190080
-1.2797048 0.81212521 0.28690967 4278190080
-1.268592 0.81129867 0.2850033 4278190080
-1.2575009 0.81040412 0.28309694 4278190080
-1.250548 0.81211537 0.28214374 4278190080
-1.2394913 0.8111003 0.28023735 4278190080
-1.2325549 0.81272 0.27928415 4278190080
-1.2215338 0.81158531 0.27737778 4278190080
-1.2146147 0.81311381 0.27642459 4278190080
-1.2036308 0.81185919 0.27451822 4278190080
-1.19673 0.81329679 0.27356502 4278190080
-1.185784 0.81192309 0.27165866 4278190080
-1.1789023 0.81327039 0.27070546 4278190080
-1.1679953 0.81177801 0.2687991 4278190080
-1.1571134 0.81021953 0.26689273 4278190080
-1.1502674 0.81142431 0.26593953 4278190080
-1.1394262 0.80974793 0.26403317 4278190080
-1.1286107 0.80800611 0.26212677 4278190080
-1.1218024 0.80906957 0.26117361 4278190080
-1.1110297 0.80721033 0.25926721 4278190080
-1.1042445 0.80818468 0.25831404 4278190080
-1.0974661 0.80912161 0.25736085 4278190080
-1.0867538 0.80709481 0.25545445 4278190080
-1.0799997 0.80794311 0.25450125 4278190080
-1.073253 0.80875415 0.25354809 4278190080
-1.0665138 0.80952793 0.25259489 4278190080
-1.0558832 0.80728346 0.25068852 4278190080
-1.0491698 0.80796969 0.24973533 4278190080
-1.0424647 0.80861866 0.24878214 4278190080
-1.0319003 0.80620885 0.24687576 4278190080
-1.0252227 0.80677056 0.24592258 4278190080
-1.0185537 0.8072955 0.24496938 4278190080
-1.0118934 0.80778402 0.2440162 4278190080
-1.0052423 0.8082357 0.24306302 4278190080
-0.99845946 0.80882496 0.24210982 4278190080
-0.98802364 0.80609977 0.24020346 4278190080
-0.98127091 0.80659872 0.23925027 4278190080
-0.97495002 0.80654901 0.23829708 4278190080
-0.9644466 0.80383176 0.23639071 4278190080
-0.95787549 0.80403775 0.23543751 4278190080
-0.95131445 0.80420792 0.23448433 4278190080
-0.9447642 0.80434185 0.23353115 4278190080
-0.93822461 0.8044399 0.23257795 4278190080
-0.93169588 0.80450201 0.23162474 4278190080
-0.94369721 0.82063252 0.23543751 4278190080
-0.92974919 0.81422079 0.23257795 4278190080
-0.76025033 0.8331641 0.21160781 4278190080
-0.75733721 0.83581293 0.21160781 4278190080
-0.74128306 0.82385653 0.20779505 4278190080
-0.73840278 0.82643902 0.20779505 4278190080
-0.732256 0.82533979 0.20684184 4278190080
-0.72612596 0.8242079 0.20588866 4278190080
-0.72001261 0.82304347 0.20493548 4278190080
-0.71391642 0.82184625 0.20398228 4278190080
-0.70783746 0.82061654 0.2030291 4278190080
-0.70177585 0.81935453 0.20207591 4278190080
-0.69573164 0.81806016 0.20112273 4278190080
-0.6897049 0.81673384 0.20016953 4278190080
-0.68369609 0.81537527 0.19921635 4278190080
-0.67770529 0.81398475 0.19826317 4278190080
-0.67173249 0.81256241 0.19730997 4278190080
-0.66889209 0.81490219 0.19730997 4278190080
-0.66294241 0.81342751 0.19635679 4278190080
-0.65701151 0.81192106 0.19540361 4278190080
-0.65417337 0.81420946 0.19540361 4278190080
-0.64826649 0.81265098 0.19445041 4278190080
-0.64237845 0.8110612 0.19349723 4278190080
-0.63636804 0.80955142 0.19254404 4278190080
-0.63353837 0.81176782 0.19254404 4278190080
-0.62769461 0.81009442 0.19159085 4278190080
-0.62486309 0.81228048 0.19159085 4278190080
-0.6190446 0.81055611 0.19063766 4278190080
-0.61621147 0.81271195 0.19063766 4278190080
-0.61041903 0.81093651 0.18968448 4278190080
-0.60758466 0.81306225 0.18968448 4278190080
-0.6018185 0.81123614 0.18873128 4278190080
-0.59898293 0.81333202 0.18873128 4278190080
-0.59324342 0.81145555 0.18777809 4278190080
-0.59040737 0.81352139 0.18777809 4278190080
-0.58469504 0.8115949 0.1868249 4278190080
-0.57900339 0.80963844 0.18587172 4278190080
-0.57617348 0.81165475 0.18587172 4278190080
-0.57050961 0.80964869 0.18491852 4278190080
-0.56768 0.8116352 0.18491852 4278190080
-0.56204432 0.80957985 0.18396534 4278190080
-0.55921501 0.81153679 0.18396534 4278190080
-0.5536077 0.80943263 0.18301216 4278190080
-0.55077893 0.81136012 0.18301216 4278190080
-0.54520088 0.80920714 0.18205896 4278190080
-0.54237294 0.81110531 0.18205896 4278190080
-0.53682435 0.80890393 0.18110578 4278190080
-0.5339973 0.81077296 0.18110578 4278190080
-0.5284785 0.80852348 0.1801526 4278190080
-0.52284133 0.80633664 0.1791994 4278190080
-0.52002329 0.80815691 0.1791994 4278190080
-0.51455766 0.8058303 0.17824621 4278190080
-0.5117417 0.80762154 0.17824621 4278190080
-0.50891948 0.80940288 0.17824621 4278190080
-0.50349295 0.80701011 0.17729303 4278190080
-0.50067276 0.80876285 0.17729303 4278190080
-0.49784663 0.81050557 0.17729303 4278190080
-0.49246007 0.80804706 0.17633983 4278190080
-0.48963651 0.80976111 0.17633983 4278190080
-0.48428196 0.80725634 0.17538664 4278190080
-0.48146096 0.80894196 0.17538664 4278190080
-0.47863436 0.81061763 0.17538664 4278190080
-0.47332108 0.80804819 0.17443345 4278190080
-0.47035617 0.80977762 0.17443345 4278190080
-0.46507624 0.80716169 0.17348027 4278190080
-0.46225595 0.80878013 0.17348027 4278190080
-0.45943001 0.8103888 0.17348027 4278190080
-0.4541927 0.80770922 0.17252707 4278190080
-0.45137033 0.80928987 0.17252707 4278190080
-0.44854265 0.81086046 0.17252707 4278190080
-0.44334871 0.80811799 0.17157389 4278190080
-0.44052517 0.80966061 0.17157389 4278190080
-0.43536556 0.80687374 0.17062071 4278190080
-0.43254623 0.80838865 0.17062071 4278190080
-0.4274213 0.80555779 0.16966751 4278190080
-0.42460683 0.8070448 0.16966751 4278190080
-0.41951698 0.80417031 0.16871433 4278190080
-0.4167074 0.80562979 0.16871433 4278190080
-0.41389251 0.80707955 0.16871433 4278190080
-0.40884829 0.80414408 0.16776115 4278190080
-0.40603885 0.80556631 0.16776115 4278190080
-0.40103057 0.80258805 0.16680795 4278190080
-0.39808613 0.80405253 0.16680795 4278190080
-0.39311466 0.80103093 0.16585477 4278190080
-0.39031619 0.80239826 0.16585477 4278190080
-0.38751295 0.80375582 0.16585477 4278190080
-0.38258862 0.80067497 0.16490158 4278190080
-0.37979147 0.80200553 0.16490158 4278190080
-0.37698966 0.80332637 0.16490158 4278190080
-0.37211359 0.80018675 0.16394839 4278190080
-0.36931819 0.80148077 0.16394839 4278190080
-0.36434028 0.79836375 0.16299519 4278190080
-0.36155128 0.79963064 0.16299519 4278190080
-0.3588976 0.80082524 0.16299519 4278190080
-0.35610005 0.80207312 0.16299519 4278190080
-0.35329816 0.80331123 0.16299519 4278190080
-0.35049176 0.80453962 0.16299519 4278190080
-0.34573668 0.80125153 0.16204201 4278190080
-0.34293774 0.80245346 0.16204201 4278190080
-0.34013459 0.80364561 0.16204201 4278190080
-0.33732733 0.80482799 0.16204201 4278190080
-0.33451572 0.80600065 0.16204201 4278190080
-0.32983461 0.80262351 0.16108882 4278190080
-0.32689077 0.80382699 0.16108882 4278190080
-0.3240827 0.80496323 0.16108882 4278190080
-0.32113031 0.80614561 0.16108882 4278190080
-0.31845525 0.80720609 0.16108882 4278190080
-0.31385034 0.80374068 0.16013563 4278190080
-0.31104288 0.80483133 0.16013563 4278190080
-0.30823144 0.8059122 0.16013563 4278190080
-0.30541644 0.80698323 0.16013563 4278190080
-0.30087638 0.80344778 0.15918244 4278190080
-0.29807004 0.80449313 0.15918244 4278190080
-0.29526007 0.8055287 0.15918244 4278190080
-0.29244629 0.8065545 0.15918244 4278190080
-0.28962913 0.8075704 0.15918244 4278190080
-0.28516763 0.80395055 0.15822926 4278190080
-0.28235963 0.80494106 0.15822926 4278190080
-0.27954817 0.80592173 0.15822926 4278190080
-0.2767331 0.80689269 0.15822926 4278190080
-0.27233878 0.80320537 0.15727606 4278190080
-0.26953346 0.80415112 0.15727606 4278190080
-0.26672485 0.80508709 0.15727606 4278190080
-0.26377216 0.8060593 0.15727606 4278190080
-0.26095694 0.80697507 0.15727606 4278190080
-0.25813851 0.80788106 0.15727606 4278190080
-0.25531697 0.80877721 0.15727606 4278190080
-0.25249228 0.80966347 0.15727606 4278190080
-0.24821945 0.80584913 0.15632288 4278190080
-0.24540503 0.80671066 0.15632288 4278190080
-0.24244677 0.80760467 0.15632288 4278190080
-0.23837161 0.80369854 0.1553697 4278190080
-0.23556477 0.80452573 0.1553697 4278190080
-0.23275484 0.80534315 0.1553697 4278190080
-0.22994231 0.80615067 0.1553697 4278190080
-0.22698618 0.806988 0.1553697 4278190080
-0.22416772 0.8077755 0.1553697 4278190080
-0.22134674 0.80855304 0.1553697 4278190080
-0.21852306 0.80932075 0.1553697 4278190080
-0.21569671 0.81007856 0.1553697 4278190080
-0.21162139 0.80607915 0.1544165 4278190080
-0.20866545 0.80684936 0.1544165 4278190080
-0.20584778 0.80757284 0.1544165 4278190080
-0.20302762 0.80828643 0.1544165 4278190080
-0.20020476 0.80899024 0.1544165 4278190080
-0.1973799 0.8096841 0.1544165 4278190080
-0.1945522 0.81036824 0.1544165 4278190080
-0.19059297 0.80626577 0.15346332 4278190080
-0.18777768 0.80692607 0.15346332 4278190080
-0.18495966 0.80757672 0.15346332 4278190080
-0.18213983 0.80821735 0.15346332 4278190080
-0.17931734 0.80884826 0.15346332 4278190080
-0.17649266 0.80946928 0.15346332 4278190080
-0.17366627 0.81008035 0.15346332 4278190080
-0.16982521 0.80587882 0.15251012 4278190080
-0.1670114 0.80646664 0.15251012 4278190080
-0.16419511 0.80704474 0.15251012 4278190080
-0.16123617 0.80764109 0.15251012 4278190080
-0.15841581 0.80819905 0.15251012 4278190080
-0.15559396 0.80874705 0.15251012 4278190080
-0.15276979 0.80928528 0.15251012 4278190080
-0.14994375 0.80981362 0.15251012 4278190080
-0.14711632 0.81033206 0.15251012 4278190080
-0.14428666 0.81084067 0.15251012 4278190080
-0.14061265 0.80650401 0.15155694 4278190080
-0.1377964 0.80698997 0.15155694 4278190080
-0.13416921 0.80262494 0.15060374 4278190080
-0.13136697 0.80308837 0.15060374 4278190080
-0.12856269 0.80354202 0.15060374 4278190080
-0.12575728 0.80398583 0.15060374 4278190080
-0.12294991 0.80441999 0.15060374 4278190080
-0.12072466 0.8097198 0.15155694 4278190080
-0.11789729 0.81013632 0.15155694 4278190080
-0.1150685 0.81054294 0.15155694 4278190080
-0.11156581 0.80607766 0.15060374 4278190080
-0.10861076 0.80648118 0.15060374 4278190080
-0.10579479 0.80685538 0.15060374 4278190080
-0.10283692 0.80723774 0.15060374 4278190080
-0.10015942 0.80757427 0.15060374 4278190080
-0.097339682 0.80791903 0.15060374 4278190080
-0.094519183 0.80825382 0.15060374 4278190080
-0.091697104 0.80857885 0.15060374 4278190080
-0.088337854 0.8040151 0.14965056 4278190080
-0.085531034 0.80431855 0.14965056 4278190080
-0.082722746 0.80461222 0.14965056 4278190080
-0.079773262 0.80491 0.14965056 4278190080
-0.07696294 0.80518359 0.14965056 4278190080
-0.074152112 0.80544728 0.14965056 4278190080
-0.071339957 0.80570126 0.14965056 4278190080
-0.068526924 0.8059454 0.14965056 4278190080
-0.065713495 0.80617964 0.14965056 4278190080
-0.06289883 0.80640411 0.14965056 4278190080
-0.059719224 0.80172402 0.14869738 4278190080
-0.056780051 0.80193752 0.14869738 4278190080
-0.053980678 0.80213082 0.14869738 4278190080
-0.051180217 0.8023144 0.14869738 4278190080
-0.048379563 0.80248815 0.14869738 4278190080
-0.045577891 0.80265212 0.14869738 4278190080
-0.042775664 0.80280632 0.14869738 4278190080
-0.039973341 0.80295074 0.14869738 4278190080
-0.037170105 0.80308539 0.14869738 4278190080
-0.034366846 0.80321026 0.14869738 4278190080
-0.031422395 0.80333084 0.14869738 4278190080
-0.028758246 0.80343062 0.14869738 4278190080
-0.025953831 0.8035261 0.14869738 4278190080
-0.023148673 0.80361181 0.14869738 4278190080
-0.020343659 0.80368769 0.14869738 4278190080
-0.01753797 0.80375379 0.14869738 4278190080
-0.014732068 0.80381012 0.14869738 4278190080
-0.011926414 0.80385667 0.14869738 4278190080
-0.0091201868 0.80389339 0.14869738 4278190080
-0.0063142767 0.80392033 0.14869738 4278190080
-0.0035078614 0.80393749 0.14869738 4278190080
-0.00055795209 0.79903662 0.14774418 4278190080
0.00223138 0.7990337 0.14774418 4278190080
0.0050202594 0.79902107 0.14774418 4278190080
0.007809503 0.79899865 0.14774418 4278190080
0.010598651 0.79896653 0.14774418 4278190080
0.013387245 0.79892468 0.14774418 4278190080
0.016176101 0.79887307 0.14774418 4278190080
0.018964335 0.79881173 0.14774418 4278190080
0.021752764 0.79874068 0.14774418 4278190080
0.024540925 0.79865986 0.14774418 4278190080
0.027467877 0.79856455 0.14774418 4278190080
0.030441241 0.80336863 0.14869738 4278190080
0.033385411 0.80325162 0.14869738 4278190080
0.036048941 0.80313653 0.14869738 4278190080
0.038851932 0.80300581 0.14869738 4278190080
0.041654881 0.80286527 0.14869738 4278190080
0.04445732 0.802715 0.14869738 4278190080
0.047258791 0.80255491 0.14869738 4278190080
0.050060116 0.80238503 0.14869738 4278190080
0.052860402 0.80220544 0.14869738 4278190080
0.055660468 0.80201602 0.14869738 4278190080
0.058459859 0.80181682 0.14869738 4278190080
0.061398152 0.80159718 0.14869738 4278190080
0.064195618 0.80137801 0.14869738 4278190080
0.06699273 0.80114901 0.14869738 4278190080
0.069789022 0.80091029 0.14869738 4278190080
0.07258404 0.8006618 0.14869738 4278190080
0.075378597 0.80040354 0.14869738 4278190080
0.078171812 0.80013561 0.14869738 4278190080
0.080964506 0.7998578 0.14869738 4278190080
0.083756208 0.79957032 0.14869738 4278190080
0.086546458 0.79927313 0.14869738 4278190080
0.08933609 0.79896611 0.14869738 4278190080
0.092124201 0.79864943 0.14869738 4278190080
0.094332159 0.79344898 0.14774418 4278190080
0.097101405 0.79311484 0.14774418 4278190080
0.09986905 0.7927711 0.14774418 4278190080
0.10277433 0.7923997 0.14774418 4278190080
0.10618775 0.79690146 0.14869738 4278190080
0.10896897 0.7965259 0.14869738 4278190080
0.11243071 0.80100137 0.14965056 4278190080
0.11522621 0.80060405 0.14965056 4278190080
0.1180203 0.80019689 0.14965056 4278190080
0.12081254 0.79978013 0.14965056 4278190080
0.12360372 0.79935348 0.14965056 4278190080
0.12639299 0.79891717 0.14965056 4278190080
0.12932062 0.79844856 0.14965056 4278190080
0.13210668 0.79799229 0.14965056 4278190080
0.13489155 0.79752624 0.14965056 4278190080
0.13767436 0.7970506 0.14965056 4278190080
0.14045593 0.79656512 0.14965056 4278190080
0.14323577 0.79606998 0.14965056 4278190080
0.14601345 0.79556519 0.14965056 4278190080
0.14878976 0.79505062 0.14965056 4278190080
0.15156385 0.79452646 0.14965056 4278190080
0.15433651 0.79399252 0.14965056 4278190080
0.15724549 0.79342157 0.14965056 4278190080
0.16001426 0.79286778 0.14965056 4278190080
0.16376844 0.79711235 0.15060374 4278190080
0.16655006 0.79653579 0.15060374 4278190080
0.16932963 0.79594952 0.15060374 4278190080
0.17314482 0.80015093 0.15155694 4278190080
0.17593698 0.79954159 0.15155694 4278190080
0.17872657 0.79892266 0.15155694 4278190080
0.18151441 0.79829389 0.15155694 4278190080
0.18430005 0.7976554 0.15155694 4278190080
0.18708301 0.79700726 0.15155694 4278190080
0.18986411 0.79634935 0.15155694 4278190080
0.19278148 0.7956481 0.15155694 4278190080
0.19673026 0.7997365 0.15251012 4278190080
0.19952041 0.79904497 0.15251012 4278190080
0.20230855 0.7983436 0.15251012 4278190080
0.20509423 0.79763252 0.15251012 4278190080
0.20787698 0.79691184 0.15251012 4278190080
0.21065763 0.79618126 0.15251012 4278190080
0.21343528 0.79544115 0.15251012 4278190080
0.21621075 0.79469126 0.15251012 4278190080
0.21898359 0.79393166 0.15251012 4278190080
0.22175334 0.79316247 0.15251012 4278190080
0.22585891 0.79710597 0.15346332 4278190080
0.22877882 0.79627281 0.15346332 4278190080
0.2315571 0.79546934 0.15346332 4278190080
0.23433214 0.79465628 0.15346332 4278190080
0.23710476 0.79383343 0.15346332 4278190080
0.23987405 0.793001 0.15346332 4278190080
0.24407835 0.79685187 0.1544165 4278190080
0.24685857 0.795995 0.1544165 4278190080
0.24963535 0.79512852 0.1544165 4278190080
0.25240952 0.79425228 0.1544165 4278190080
0.25518018 0.79336643 0.1544165 4278190080
0.25808662 0.79242569 0.1544165 4278190080
0.26085088 0.79152006 0.1544165 4278190080
0.26361236 0.79060465 0.1544165 4278190080
0.26637065 0.78967959 0.1544165 4278190080
0.27071029 0.79339039 0.1553697 4278190080
0.27347827 0.79244053 0.1553697 4278190080
0.27638075 0.79143292 0.1553697 4278190080
0.28077623 0.79509151 0.15632288 4278190080
0.28354967 0.79410666 0.15632288 4278190080
0.28632006 0.79311198 0.15632288 4278190080
0.28908652 0.79210776 0.15632288 4278190080
0.29184991 0.79109383 0.15632288 4278190080
0.29460973 0.79007018 0.15632288 4278190080
0.29736555 0.78903705 0.15632288 4278190080
0.30011815 0.78799421 0.15632288 4278190080
0.30462965 0.79152262 0.15727606 4278190080
0.307529 0.79040068 0.15727606 4278190080
0.3102859 0.7893225 0.15727606 4278190080
0.31317711 0.78817981 0.15727606 4278190080
0.31761625 0.7916925 0.15822926 4278190080
0.32037801 0.7905789 0.15822926 4278190080
0.32313585 0.78945571 0.15822926 4278190080
0.32588935 0.78832304 0.15822926 4278190080
0.3286393 0.7871806 0.15822926 4278190080
0.33138481 0.78602874 0.15822926 4278190080
0.33604929 0.78938323 0.15918244 4278190080
0.33880284 0.78820533 0.15918244 4278190080
0.3415519 0.787018 0.15918244 4278190080
0.34626693 0.79031658 0.16013563 4278190080
0.34902328 0.78910321 0.16013563 4278190080
0.35177583 0.78788 0.16013563 4278190080
0.35452405 0.7866472 0.16013563 4278190080
0.35726756 0.78540498 0.16013563 4278190080
0.362055 0.78861368 0.16108882 4278190080
0.36494288 0.78728145 0.16108882 4278190080
0.36768895 0.7860027 0.16108882 4278190080
0.37252539 0.78915316 0.16204201 4278190080
0.37527797 0.78784788 0.16204201 4278190080
0.37802595 0.78653306 0.16204201 4278190080
0.3807689 0.78520882 0.16204201 4278190080
0.38350764 0.78387481 0.16204201 4278190080
0.3884137 0.78693283 0.16299519 4278190080
0.3911584 0.78557217 0.16299519 4278190080
0.39403492 0.78413326 0.16299519 4278190080
0.39676982 0.78275299 0.16299519 4278190080
0.40173391 0.78573358 0.16394839 4278190080
0.40447435 0.78432637 0.16394839 4278190080
0.40720987 0.78290963 0.16394839 4278190080
0.40994 0.78148353 0.16394839 4278190080
0.4149608 0.7843864 0.16490158 4278190080
0.41769606 0.78293324 0.16490158 4278190080
0.42042661 0.78147036 0.16490158 4278190080
0.4232879 0.77992421 0.16490158 4278190080
0.42836428 0.78274757 0.16585477 4278190080
0.43109411 0.78124744 0.16585477 4278190080
0.43620464 0.78402716 0.16680795 4278190080
0.43893892 0.78249967 0.16680795 4278190080
0.44408363 0.78523523 0.16776115 4278190080
0.44682208 0.7836802 0.16776115 4278190080
0.44955507 0.78211564 0.16776115 4278190080
0.45228219 0.78054178 0.16776115 4278190080
0.45500419 0.77895814 0.16776115 4278190080
0.45785606 0.77728534 0.16776115 4278190080
0.46307254 0.7799027 0.16871433 4278190080
0.46579185 0.77828163 0.16871433 4278190080
0.4710412 0.78085369 0.16966751 4278190080
0.47376376 0.77920485 0.16966751 4278190080
0.47904554 0.78173131 0.17062071 4278190080
0.48177156 0.78005421 0.17062071 4278190080
0.48449126 0.77836794 0.17062071 4278190080
0.48994973 0.78074449 0.17157389 4278190080
0.49267223 0.77902943 0.17157389 4278190080
0.49538872 0.77730483 0.17157389 4278190080
0.49809873 0.77557099 0.17157389 4278190080
0.50346988 0.77794814 0.17252707 4278190080
0.50618213 0.77618611 0.17252707 4278190080
0.5115841 0.77851629 0.17348027 4278190080
0.51429868 0.77672565 0.17348027 4278190080
0.5198667 0.77891803 0.17443345 4278190080
0.52532166 0.7811715 0.17538664 4278190080
0.5279088 0.77942544 0.17538664 4278190080
0.53339314 0.78163213 0.17633983 4278190080
0.53625429 0.77967197 0.17633983 4278190080
0.54176837 0.7818296 0.17729303 4278190080
0.54449433 0.77993357 0.17729303 4278190080
0.54721326 0.77802837 0.17729303 4278190080
0.55289948 0.78002197 0.17824621 4278190080
0.55561906 0.77808714 0.17824621 4278190080
0.55833185 0.77614278 0.17824621 4278190080
0.56391764 0.77816373 0.1791994 4278190080
0.56663066 0.7761904 0.1791994 4278190080
0.57224423 0.77816218 0.1801526 4278190080
0.57495719 0.77615982 0.1801526 4278190080
0.58059853 0.77808177 0.18110578 4278190080
0.58331072 0.77605057 0.18110578 4278190080
0.58897907 0.77792281 0.18205896 4278190080
0.59169066 0.77586234 0.18205896 4278190080
0.59738553 0.77768457 0.18301216 4278190080
0.6000967 0.77559441 0.18301216 4278190080
0.60280007 0.77349514 0.18301216 4278190080
0.60852718 0.7752471 0.18396534 4278190080
0.61122936 0.77311838 0.18396534 4278190080
0.61698198 0.77481961 0.18491852 4278190080
0.61968303 0.77266109 0.18491852 4278190080
0.62559557 0.77420247 0.18587172 4278190080
0.62829441 0.77201384 0.18587172 4278190080
0.63409662 0.77361226 0.1868249 4278190080
0.63679338 0.77139401 0.1868249 4278190080
0.64261979 0.77294093 0.18777809 4278190080
0.6453141 0.77069294 0.18777809 4278190080
0.65116477 0.77218783 0.18873128 4278190080
0.65703326 0.77365154 0.18968448 4278190080
0.65972996 0.77135324 0.18968448 4278190080
0.66562152 0.77276474 0.19063766 4278190080
0.66831505 0.77043647 0.19063766 4278190080
0.67436409 0.77167779 0.19159085 4278190080
0.67705381 0.76931894 0.19159085 4278190080
0.68299037 0.7706244 0.19254404 4278190080
0.6856764 0.76823545 0.19254404 4278190080
0.69163513 0.76948762 0.19349723 4278190080
0.69431669 0.76706892 0.19349723 4278190080
0.7002967 0.76826793 0.19445041 4278190080
0.70629311 0.76943487 0.19540361 4278190080
0.70897478 0.76696455 0.19540361 4278190080
0.71499217 0.76807761 0.19635679 4278190080
0.71766865 0.76557738 0.19635679 4278190080
0.72370613 0.76663661 0.19730997 4278190080
0.72637749 0.76410598 0.19730997 4278190080
0.73243463 0.76511121 0.19826317 4278190080
0.73850757 0.76608342 0.19921635 4278190080
0.74117696 0.76350111 0.19921635 4278190080
0.7472688 0.76441896 0.20016953 4278190080
0.75350934 0.7651723 0.20112273 4278190080
0.75963199 0.76602244 0.20207591 4278190080
0.7657693 0.7668395 0.2030291 4278190080
0.77192193 0.76762259 0.20398228 4278190080
0.77808893 0.76837248 0.20493548 4278190080
0.78427094 0.76908821 0.20588866 4278190080
0.79046732 0.76977009 0.20684184 4278190080
0.7968123 0.77027935 0.20779505 4278190080
0.79949641 0.76749307 0.20779505 4278190080
0.80927569 0.77147132 0.20970143 4278190080
0.79770583 0.7551443 0.20588866 4278190080
0.8110655 0.76244104 0.20874825 4278190080
1.075428 0.78105718 0.25068852 4278190080
1.0861105 0.78303975 0.25259489 4278190080
1.0768631 0.77067387 0.24973533 4278190080
1.0715437 0.7612254 0.24782895 4278190080
1.0782057 0.76030874 0.24878214 4278190080
1.0809851 0.75635201 0.24878214 4278190080
1.0836188 0.75257379 0.24878214 4278190080
1.0863698 0.74859726 0.24878214 4278190080
1.0928971 0.74776214 0.24973533 4278190080
1.0955007 0.74394244 0.24973533 4278190080
1.1021608 0.74285752 0.25068852 4278190080
1.108827 0.74173456 0.25164169 4278190080
1.1154987 0.74057406 0.25259489 4278190080
1.1221753 0.73937654 0.25354809 4278190080
1.1288576 0.73814088 0.25450125 4278190080
1.1396619 0.73953998 0.25640765 4278190080
1.1463634 0.73821449 0.25736085 4278190080
1.1530693 0.73685122 0.25831404 4278190080
1.1639243 0.73807919 0.26022041 4278190080
1.1706481 0.73662567 0.26117361 4278190080
1.1773754 0.73513478 0.26212677 4278190080
1.1882794 0.73619026 0.26403317 4278190080
1.1950235 0.73460805 0.26498634 4278190080
1.2017705 0.73298836 0.26593953 4278190080
1.2085214 0.73132986 0.26689273 4278190080
1.2194828 0.73216021 0.2687991 4278190080
1.2262481 0.73041052 0.26975229 4278190080
1.233143 0.72840768 0.27070546 4278190080
1.2441478 0.7290616 0.27261186 4278190080
1.2509283 0.72718143 0.27356502 4278190080
1.2619631 0.727714 0.27547142 4278190080
1.2730168 0.72817838 0.27737778 4278190080
1.2840886 0.72857505 0.27928415 4278190080
1.2909017 0.72649527 0.28023735 4278190080
1.3020012 0.72676986 0.28214374 4278190080
1.3131186 0.72697502 0.28405011 4278190080
1.3242532 0.72711134 0.2859565 4278190080
1.3355312 0.72694612 0.28786287 4278190080
1.34238 0.72461104 0.28881606 4278190080
1.3535556 0.72455406 0.29072243 4278190080
1.3647474 0.72442716 0.29262879 4278190080
1.3759544 0.7242316 0.29453519 4278190080
1.3871769 0.72396582 0.29644156 4278190080
1.3984141 0.72363043 0.29834792 4278190080
1.4096656 0.72322619 0.30025432 4278190080
1.4165565 0.7205261 0.30120748 4278190080
1.427828 0.71999741 0.30311388 4278190080
1.4391134 0.71939802 0.30502024 4278190080
1.4548098 0.72090793 0.30787984 4278190080
1.4661282 0.72015369 0.3097862 4278190080
1.4774593 0.7193284 0.31169257 4278190080
1.4888021 0.7184335 0.31359896 4278190080
1.5001569 0.71746737 0.31550533 4278190080
1.5115229 0.7164306 0.31741169 4278190080
1.5228995 0.71532404 0.31931809 4278190080
1.5342871 0.7141459 0.32122445 4278190080
1.5502665 0.71468264 0.32408401 4278190080
1.561681 0.71334517 0.32599038 4278190080
1.5775764 0.71396124 0.32884994 4278190080
1.5890166 0.71246606 0.33075634 4278190080
1.6049508 0.71289295 0.3336159 4278190080
1.6164148 0.71123958 0.33552229 4278190080
1.6323863 0.71147585 0.33838186 4278190080
1.6438723 0.7096647 0.34028822 4278190080
1.6598788 0.70971078 0.34314778 4278190080
1.6713854 0.70774072 0.34505415 4278190080
1.6874251 0.70759612 0.34791371 4278190080
1.6989511 0.70546579 0.34982011 4278190080
1.7150217 0.70513093 0.35267967 4278190080
1.7311112 0.70469153 0.35553923 4278190080
1.7472177 0.70414919 0.3583988 4278190080
1.7634647 0.70319396 0.36125836 4278190080
1.7796048 0.70244086 0.36411792 4278190080
1.7957613 0.70158261 0.36697748 4278190080
1.8119332 0.70062107 0.36983705 4278190080
1.8281202 0.69955409 0.37269661 4278190080
1.8489121 0.70012075 0.37650937 4278190080
1.8651334 0.69882965 0.37936896 4278190080
1.8859705 0.69913876 0.38318169 4278190080
1.9022237 0.69762182 0.38604122 4278190080
1.9231036 0.69767278 0.38985398 4278190080
1.9395082 0.69559085 0.39271358 4278190080
1.9604282 0.69537944 0.39652634 4278190080
1.9813702 0.69503033 0.40033907 4278190080
2.0023329 0.69454449 0.40415183 4278190080
2.0233166 0.69391966 0.40796456 4278190080
2.0443199 0.69315779 0.41177732 4278190080
2.0653427 0.69225663 0.41559011 4278190080
2.0910428 0.69276059 0.42035604 4278190080
2.1121066 0.6915673 0.42416877 4278190080
2.1331875 0.69023418 0.42798153 4278190080
2.1542842 0.68876338 0.43179429 4278190080
2.1753969 0.68715245 0.43560702 4278190080
2.20121 0.68686455 0.440373 4278190080
2.2223563 0.68496025 0.44418573 4278190080
2.2482119 0.68434471 0.44895169 4278190080
2.2740893 0.68355805 0.45371762 4278190080
2.2952833 0.68120134 0.45753035 4278190080
2.3211989 0.680085 0.46229631 4278190080
2.3472526 0.67838711 0.46706229 4278190080
2.3732061 0.6769219 0.47182819 4278190080
2.3990605 0.67570156 0.47659415 4278190080
2.4297793 0.67520761 0.48231328 4278190080
2.455672 0.6736387 0.4870792 4278190080
2.486671 0.67188638 0.49279836 4278190080
2.517458 0.67078543 0.49851748 4278190080
2.5482674 0.66947633 0.50423664 4278190080
2.579098 0.66796017 0.50995576 4278190080
2.6099484 0.66623819 0.51567489 4278190080
2.6455784 0.66550499 0.52234721 4278190080
2.6812341 0.66453236 0.52901947 4278190080
2.7169154 0.6633175 0.5356918 4278190080
2.7526205 0.66186148 0.54236418 4278190080
2.7883475 0.66016561 0.54903644 4278190080
2.8288765 0.65934098 0.55666196 4278190080
2.8646491 0.65714538 0.56333429 4278190080
2.9004405 0.65470654 0.57000661 4278190080
2.941041 0.65308964 0.57763213 4278190080
2.98646 0.65224612 0.58621085 4278190080
2.9935176 0.6428473 0.58716398 4278190080
3.0005455 0.63340884 0.58811718 4278190080
2.6683295 0.54336327 0.52139401 4278190080
2.6865072 0.52755797 0.52425355 4278190080
2.6786931 0.51631999 0.52234721 4278190080
2.6756561 0.50605375 0.52139401 4278190080
2.6725802 0.49581644 0.52044082 4278190080
2.6694658 0.48560533 0.51948762 4278190080
2.6711445 0.47628364 0.51948762 4278190080
2.6679559 0.46611285 0.51853442 4278190080
2.6744046 0.45762435 0.51948762 4278190080
2.6759856 0.44828701 0.51948762 4278190080
2.6823778 0.43973684 0.52044082 4278190080
2.6887429 0.43114746 0.52139401 4278190080
2.6950805 0.42252046 0.52234721 4278190080
2.7062423 0.41459626 0.52425355 4278190080
2.7076731 0.40514806 0.52425355 4278190080
2.6993573 0.39427468 0.52234721 4278190080
2.7784646 0.39592811 0.53759819 4278190080
2.9256778 0.40649199 0.56619388 4278190080
2.9513984 0.39956883 0.57095981 4278190080
2.9479089 0.38862354 0.57000661 4278190080
2.9541159 0.37895492 0.57095981 4278190080
2.9700327 0.37046278 0.57381934 4278190080
2.9810529 0.36127514 0.57572573 4278190080
2.9871705 0.35143998 0.57667887 4278190080
2.9884384 0.34048954 0.57667887 4278190080
2.9896088 0.33005524 0.57667887 4278190080
2.9907427 0.31961849 0.57667887 4278190080
2.986958 0.30867174 0.57572573 4278190080
2.9880171 0.29824439 0.57572573 4278190080
2.9890399 0.28781182 0.57572573 4278190080
2.9900265 0.27737573 0.57572573 4278190080
2.9909763 0.26693785 0.57572573 4278190080
2.99189 0.25649515 0.57572573 4278190080
2.9878752 0.2456487 0.57477254 4278190080
2.9887145 0.23521693 0.57477254 4278190080
2.9895175 0.2247823 0.57477254 4278190080
2.9902837 0.21434653 0.57477254 4278190080
2.9910138 0.20390654 0.57477254 4278190080
2.9868093 0.19314893 0.57381934 4278190080
2.9874654 0.18272121 0.57381934 4278190080
2.988055 0.17281328 0.57381934 4278190080
2.9837387 0.16211504 0.57286614 4278190080
2.9843128 0.15117845 0.57286614 4278190080
2.9799197 0.14053008 0.571913 4278190080
2.980392 0.13012673 0.571913 4278190080
2.9759238 0.11952481 0.57095981 4278190080
2.9763227 0.10913712 0.57095981 4278190080
2.9766855 0.098746516 0.57095981 4278190080
2.9770122 0.088356294 0.57095981 4278190080
2.9723959 0.077834927 0.57000661 4278190080
2.9726496 0.06745822 0.57000661 4278190080
2.9728668 0.057082277 0.57000661 4278190080
2.973048 0.046704054 0.57000661 4278190080
2.9682848 0.036266878 0.56905341 4278190080
2.9683933 0.025904777 0.56905341 4278190080
2.9684658 0.01554236 0.56905341 4278190080
2.9685018 0.0051813344 0.56905341 4278190080
2.9685018 -0.0051810187 0.56905341 4278190080
2.9684658 -0.015542992 0.56905341 4278190080
2.9683933 -0.025904777 0.56905341 4278190080
2.9682784 -0.036784306 0.56905341 4278190080
2.968132 -0.047145311 0.56905341 4278190080
2.9679494 -0.057505738 0.56905341 4278190080
2.9677305 -0.067865461 0.56905341 4278190080
2.962569 -0.078095026 0.56810021 4278190080
2.9622784 -0.088435844 0.56810021 4278190080
2.9619517 -0.098775588 0.56810021 4278190080
2.9615889 -0.10911412 0.56810021 4278190080
2.966094 -0.11964916 0.56905341 4278190080
2.9656584 -0.13000204 0.56905341 4278190080
2.9651866 -0.14035332 0.56905341 4278190080
2.9646785 -0.15070291 0.56905341 4278190080
2.9641345 -0.16105063 0.56905341 4278190080
2.9635541 -0.17139642 0.56905341 4278190080
2.9629378 -0.18174012 0.56905341 4278190080
2.9622855 -0.19208159 0.56905341 4278190080
2.961597 -0.20242073 0.56905341 4278190080
2.9608722 -0.21275741 0.56905341 4278190080
2.9601116 -0.22309147 0.56905341 4278190080
2.9642081 -0.2338088 0.57000661 4278190080
2.9633739 -0.24415439 0.57000661 4278190080
2.9625034 -0.25449699 0.57000661 4278190080
2.9615972 -0.26483652 0.57000661 4278190080
2.9606545 -0.2751728 0.57000661 4278190080
2.959676 -0.28550577 0.57000661 4278190080
2.9586613 -0.2958352 0.57000661 4278190080
2.9576106 -0.30616105 0.57000661 4278190080
2.9565239 -0.3164832 0.57000661 4278190080
2.9553442 -0.32731727 0.57000661 4278190080
2.95906 -0.33818865 0.57095981 4278190080
2.9579222 -0.34799939 0.57095981 4278190080
2.9566896 -0.35832235 0.57095981 4278190080
2.9553564 -0.36915675 0.57095981 4278190080
2.9540498 -0.37947065 0.57095981 4278190080
2.9527071 -0.38977987 0.57095981 4278190080
2.9561925 -0.40074372 0.571913 4278190080
2.9547756 -0.41106033 0.571913 4278190080
2.9533229 -0.42137191 0.571913 4278190080
2.9566905 -0.43238857 0.57286614 4278190080
2.955163 -0.44270676 0.57286614 4278190080
2.9584515 -0.45376363 0.57381934 4278190080
2.8953507 -0.46376005 0.45784786 4278190080
2.8937969 -0.47335881 0.45784786 4278190080
2.8969979 -0.48427144 0.45862919 4278190080
2.8952899 -0.49438089 0.45862919 4278190080
