# .PCD v0.7 - Point Cloud Data file format
VERSION 0.7
FIELDS x y z rgb
SIZE 4 4 4 4
TYPE F F F U
COUNT 1 1 1 1
WIDTH 1083
HEIGHT 1
VIEWPOINT 0 0 0 1 0 0 0
POINTS 1083
DATA ascii
2.8846631 -1.7552822 0.52816582 4278190080
2.8827286 -1.7679228 0.52894711 4278190080
2.8807406 -1.780571 0.52972841 4278190080
2.8828912 -1.7958382 0.53129101 4278190080
2.8849704 -1.8111421 0.53285366 4278190080
2.8869777 -1.8264823 0.53441626 4278190080
2.8889129 -1.8418585 0.53597891 4278190080
2.8907757 -1.8572705 0.53754151 4278190080
2.8884208 -1.8700336 0.53832287 4278190080
2.8863401 -1.8822995 0.5391041 4278190080
2.8838794 -1.8950754 0.53988546 4278190080
2.8854825 -1.9105834 0.54144806 4278190080
2.8829041 -1.9233849 0.54222941 4278190080
2.8843696 -1.9389468 0.54379201 4278190080
2.8857617 -1.9545423 0.54535466 4278190080
2.8830006 -1.9673873 0.54613596 4278190080
2.8842549 -1.9830346 0.54769856 4278190080
2.8854346 -1.9987147 0.54926115 4278190080
2.8865399 -2.0144272 0.55082381 4278190080
2.8835309 -2.0273314 0.55160511 4278190080
2.8844967 -2.0430934 0.55316776 4278190080
2.8853877 -2.0588868 0.55473036 4278190080
2.890213 -2.0775938 0.55707425 4278190080
2.8909433 -2.0934629 0.5586369 4278190080
2.8915977 -2.1093626 0.56019956 4278190080
2.8921764 -2.1252921 0.56176215 4278190080
2.892679 -2.1412511 0.56332481 4278190080
2.8891461 -2.1542876 0.56410605 4278190080
2.8895061 -2.1702912 0.5656687 4278190080
2.8901711 -2.1858191 0.5672313 4278190080
2.8903806 -2.20188 0.56879395 4278190080
2.8908999 -2.2174642 0.57035655 4278190080
2.8944759 -2.2371051 0.5727005 4278190080
2.8866491 -2.2471952 0.5727005 4278190080
2.8904464 -2.2663994 0.57504439 4278190080
2.8825176 -2.2764752 0.57504439 4278190080
2.8665547 -2.2965434 0.57504439 4278190080
1.4405758 -2.3824255 0.43440858 4278190080
1.4195477 -2.3662646 0.430502 4278190080
1.3986503 -2.3499866 0.42659548 4278190080
1.3929498 -2.3591068 0.42737675 4278190080
1.3797143 -2.355432 0.42581415 4278190080
1.3714838 -2.3602338 0.42581415 4278190080
1.3583041 -2.3564496 0.42425153 4278190080
1.3480303 -2.3566542 0.42347023 4278190080
1.3373587 -2.3570499 0.4226889 4278190080
1.3242787 -2.353096 0.42112628 4278190080
1.3136497 -2.3533921 0.42034498 4278190080
1.3006428 -2.3493218 0.41878232 4278190080
1.2900574 -2.3495188 0.41800106 4278190080
1.2794863 -2.3496704 0.41721973 4278190080
1.26893 -2.349777 0.41643843 4278190080
1.2583885 -2.3498383 0.4156571 4278190080
1.2501785 -2.3542166 0.4156571 4278190080
1.2396522 -2.3541965 0.41487581 4278190080
1.2291411 -2.3541315 0.41409448 4278190080
1.2163752 -2.3496361 0.41253185 4278190080
1.205911 -2.3494742 0.41175056 4278190080
1.1954627 -2.3492677 0.41096923 4278190080
1.1850306 -2.3490171 0.41018796 4278190080
1.1746148 -2.3487225 0.40940663 4278190080
1.1598284 -2.3395343 0.40706271 4278190080
1.1538328 -2.3480008 0.40784401 4278190080
1.1434673 -2.3475742 0.40706271 4278190080
1.035821 -2.3485203 0.40003091 4278190080
1.0173241 -2.3296716 0.39612433 4278190080
1.0111465 -2.3377414 0.39690566 4278190080
1.004925 -2.3457961 0.39768696 4278190080
0.9928726 -2.3401971 0.39612433 4278190080
0.98469788 -2.3436484 0.39612433 4278190080
0.97461379 -2.3425119 0.39534304 4278190080
0.96643108 -2.3458996 0.39534304 4278190080
0.95678031 -2.3445189 0.39456171 4278190080
0.94674075 -2.3432655 0.39378041 4278190080
0.9367215 -2.3419704 0.39299908 4278190080
0.92672265 -2.3406343 0.39221781 4278190080
0.9185468 -2.3438549 0.39221781 4278190080
0.90857351 -2.3424428 0.39143649 4278190080
0.89862162 -2.3409894 0.39065519 4278190080
0.88869095 -2.3394949 0.38987386 4278190080
0.87878144 -2.3379602 0.38909256 4278190080
0.86889368 -2.3363845 0.38831124 4278190080
0.85943502 -2.3346188 0.38752994 4278190080
0.84959066 -2.3329639 0.38674861 4278190080
0.84144175 -2.3359153 0.38674861 4278190080
0.83162546 -2.3341863 0.38596731 4278190080
0.82347268 -2.337075 0.38596731 4278190080
0.81368458 -2.3352714 0.38518599 4278190080
0.80391949 -2.3334284 0.38440472 4278190080
0.79576921 -2.3362205 0.38440472 4278190080
0.78603351 -2.3343034 0.38362339 4278190080
0.77788061 -2.337033 0.38362339 4278190080
0.76086158 -2.3114538 0.37893552 4278190080
0.73866075 -2.2979028 0.3758103 4278190080
0.65976769 -2.3269181 0.37659156 4278190080
0.64897984 -2.319695 0.37502897 4278190080
0.6408788 -2.3219464 0.37502897 4278190080
0.63276988 -2.3241692 0.37502897 4278190080
0.62377757 -2.3214855 0.37424767 4278190080
0.61567008 -2.3236487 0.37424767 4278190080
0.60630721 -2.3210053 0.37346634 4278190080
0.59820181 -2.3231075 0.37346634 4278190080
0.58887404 -2.320395 0.37268505 4278190080
0.58077091 -2.3224363 0.37268505 4278190080
0.57147896 -2.3196542 0.37190372 4278190080
0.56337851 -2.3216348 0.37190372 4278190080
0.55452782 -2.3186872 0.37112242 4278190080
0.54602569 -2.3207042 0.37112242 4278190080
0.53680742 -2.3177845 0.37034109 4278190080
0.5276159 -2.3148293 0.36955979 4278190080
0.51993698 -2.3165662 0.36955979 4278190080
0.5107826 -2.3135445 0.36877847 4278190080
0.50270379 -2.3153133 0.36877847 4278190080
0.49461892 -2.317054 0.36877847 4278190080
0.48652768 -2.3187666 0.36877847 4278190080
0.47843084 -2.3204505 0.36877847 4278190080
0.47032785 -2.3221066 0.36877847 4278190080
0.46221945 -2.323734 0.36877847 4278190080
0.45315889 -2.3204865 0.3679972 4278190080
0.44505593 -2.3220541 0.3679972 4278190080
0.43603516 -2.3187399 0.36721587 4278190080
0.4279384 -2.3202479 0.36721587 4278190080
0.41936243 -2.3167946 0.36643457 4278190080
0.41213521 -2.323107 0.36721587 4278190080
0.40317798 -2.3196659 0.36643457 4278190080
0.39507851 -2.3210592 0.36643457 4278190080
0.37568614 -2.3042638 0.36330932 4278190080
0.31621847 -2.3480616 0.36877847 4278190080
0.29794344 -2.3355155 0.36643457 4278190080
0.28897974 -2.3266888 0.36487195 4278190080
0.26641017 -2.274694 0.35627753 4278190080
0.098695189 -0.95668674 0.14610504 4278190080
0.087130621 -0.90820837 0.13829194 4278190080
0.080778539 -0.87408358 0.13282275 4278190080
0.078317642 -0.87926579 0.13360406 4278190080
0.07314311 -0.85493082 0.12969752 4278190080
0.069498301 -0.8453247 0.12813491 4278190080
0.067559421 -0.86034399 0.13047883 4278190080
0.06566418 -0.87534881 0.13282275 4278190080
0.15034403 -2.3248942 0.362528 4278190080
0.14172673 -2.3105922 0.3601841 4278190080
0.13337506 -2.3061423 0.35940278 4278190080
0.12559238 -2.3115251 0.3601841 4278190080
0.11727228 -2.3070171 0.35940278 4278190080
0.10921839 -2.3074124 0.35940278 4278190080
0.10116348 -2.3077798 0.35940278 4278190080
0.093107022 -2.3081188 0.35940278 4278190080
0.08486791 -2.3034945 0.35862145 4278190080
0.076826818 -2.3037765 0.35862145 4278190080
0.068784483 -2.3040307 0.35862145 4278190080
0.060871761 -2.3091936 0.35940278 4278190080
0.052810613 -2.3093922 0.35940278 4278190080
0.044749133 -2.3095624 0.35940278 4278190080
0.036687106 -2.3097045 0.35940278 4278190080
0.02896549 -2.3048751 0.35862145 4278190080
0.020919614 -2.3049624 0.35862145 4278190080
0.012873789 -2.3050213 0.35862145 4278190080
0.0048381514 -2.3099909 0.35940278 4278190080
-0.0032254355 -2.3099937 0.35940278 4278190080
-0.011288675 -2.3099682 0.35940278 4278190080
-0.019352086 -2.3099148 0.35940278 4278190080
-0.027414951 -2.3098333 0.35940278 4278190080
-0.035401635 -2.3047853 0.35862145 4278190080
-0.043260638 -2.2947724 0.35705882 4278190080
-0.050869931 -2.2946162 0.35705882 4278190080
-0.06717591 -2.3040781 0.35862145 4278190080
-0.056666002 -0.88587487 0.13438538 4278190080
-0.059092972 -0.87581694 0.13282275 4278190080
-0.063738458 -0.85568333 0.12969752 4278190080
-0.22879773 -2.308563 0.36096537 4278190080
-0.23735884 -2.3126631 0.3617467 4278190080
-0.24438724 -2.3019984 0.3601841 4278190080
-0.24919036 -2.2716763 0.3554962 4278190080
-0.17600165 -1.5095983 0.2343931 4278190080
-0.18126999 -1.5089747 0.2343931 4278190080
-0.18653631 -1.5083327 0.2343931 4278190080
-0.19153695 -1.5077058 0.2343931 4278190080
-0.19360135 -1.4825431 0.23048656 4278190080
-0.19549225 -1.4573845 0.22657999 4278190080
-0.19586261 -1.4224464 0.22111084 4278190080
-0.19668241 -1.3924137 0.21642298 4278190080
-0.19446358 -1.3428427 0.20860986 4278190080
-0.19552565 -1.3177303 0.20470332 4278190080
-0.19641462 -1.2926271 0.20079675 4278190080
-0.1138998 -0.59538966 0.089850694 4278190080
-0.11975682 -0.61437786 0.092975929 4278190080
-0.11805361 -0.59457999 0.089850694 4278190080
-0.12502173 -0.61836743 0.093757242 4278190080
-0.12707165 -0.61794949 0.093757242 4278190080
-0.13237305 -0.63198066 0.09610118 4278190080
-0.13663687 -0.64117497 0.097663797 4278190080
-0.14096653 -0.65034711 0.099226415 4278190080
-0.14536181 -0.65949672 0.10078903 4278190080
-0.14766295 -0.65898532 0.10078903 4278190080
-0.14875163 -0.65367651 0.10000773 4278190080
-0.14991984 -0.64834172 0.099226415 4278190080
-0.15094045 -0.64303309 0.098445103 4278190080
-0.15203884 -0.63769835 0.097663797 4278190080
-0.15310176 -0.63236386 0.096882485 4278190080
-0.1541293 -0.62702978 0.09610118 4278190080
-0.15512156 -0.62169629 0.095319867 4278190080
-0.1560784 -0.61636347 0.094538547 4278190080
-0.14839694 -0.57754928 0.088288069 4278190080
-0.16286902 -0.62481666 0.09610118 4278190080
-0.17755549 -0.67202044 0.10391428 4278190080
-0.23340385 -0.83595878 0.13126014 4278190080
-0.24169925 -0.85414684 0.13438538 4278190080
-0.24195674 -0.84380347 0.13282275 4278190080
-0.24627846 -0.84769619 0.13360406 4278190080
-0.24784169 -0.84209371 0.13282275 4278190080
-0.2493687 -0.83649075 0.13204145 4278190080
-0.25071469 -0.83093113 0.13126014 4278190080
-0.25072744 -0.82060486 0.12969752 4278190080
-0.25213087 -0.81500667 0.1289162 4278190080
-0.2534982 -0.80940878 0.12813491 4278190080
-0.25781441 -0.81322664 0.1289162 4278190080
-0.25763386 -0.80291688 0.12735359 4278190080
-0.25877059 -0.79736072 0.12657228 4278190080
-0.26309311 -0.80114466 0.12735359 4278190080
-0.2702533 -0.80396956 0.12813491 4278190080
-0.28295043 -0.80482602 0.1289162 4278190080
-0.28575805 -0.80383343 0.1289162 4278190080
-0.29524395 -0.82142103 0.13204145 4278190080
-0.29136288 -0.80181891 0.1289162 4278190080
-0.29926848 -0.81470412 0.13126014 4278190080
-0.30211058 -0.81365448 0.13126014 4278190080
-0.30668405 -0.81721866 0.13204145 4278190080
-0.30778345 -0.81152558 0.13126014 4278190080
-0.31061441 -0.8104462 0.13126014 4278190080
-0.31344146 -0.80935705 0.13126014 4278190080
-0.31446522 -0.80365896 0.13047883 4278190080
-0.31726855 -0.8025564 0.13047883 4278190080
-0.32006803 -0.80144405 0.13047883 4278190080
-0.32087716 -0.795798 0.12969752 4278190080
-0.32551593 -0.79924685 0.13047883 4278190080
-0.32454628 -0.78897119 0.1289162 4278190080
-0.34056109 -0.81975818 0.13438538 4278190080
-0.32240403 -0.76847011 0.12579097 4278190080
-0.33664337 -0.79462403 0.13047883 4278190080
-1.3464491 -2.2488616 0.40862533 4278190080
-1.3491875 -2.2356913 0.40706271 4278190080
-1.362116 -2.2394068 0.40862533 4278190080
-1.3673437 -2.230428 0.40784401 4278190080
-1.3803126 -2.2340443 0.40940663 4278190080
-1.3903232 -2.2336476 0.41018796 4278190080
-1.4037507 -2.236903 0.41175056 4278190080
-1.4141899 -2.2361631 0.41253185 4278190080
-1.4272956 -2.2395425 0.41409448 4278190080
-1.437773 -2.2387021 0.41487581 4278190080
-1.4482621 -2.2378156 0.4156571 4278190080
-1.4583719 -2.237138 0.41643843 4278190080
-1.4715949 -2.240289 0.41800106 4278190080
-1.4817407 -2.2395153 0.41878232 4278190080
-1.4954194 -2.2422872 0.42034498 4278190080
-1.5059919 -2.2411523 0.42112628 4278190080
-1.5165745 -2.2399714 0.4219076 4278190080
-1.5271673 -2.2387433 0.4226889 4278190080
-1.5377699 -2.2374692 0.42347023 4278190080
-1.548382 -2.2361479 0.42425153 4278190080
-1.5590041 -2.2347798 0.42503285 4278190080
-1.569245 -2.2336388 0.42581415 4278190080
-1.5798856 -2.2321784 0.42659548 4278190080
-1.5934019 -2.2346921 0.42815807 4278190080
-1.604074 -2.2331274 0.42893937 4278190080
-1.6147544 -2.2315156 0.4297207 4278190080
-1.6254429 -2.2298563 0.430502 4278190080
-1.6361399 -2.2281494 0.43128332 4278190080
-1.6468444 -2.2263951 0.43206462 4278190080
-1.6605076 -2.2285531 0.43362725 4278190080
-1.6712409 -2.2266934 0.43440858 4278190080
-1.6849599 -2.228725 0.43597117 4278190080
-1.6987135 -2.2306879 0.4375338 4278190080
-1.7094953 -2.2286632 0.43831509 4278190080
-1.7233033 -2.2304983 0.43987772 4278190080
-1.7337227 -2.2286696 0.44065905 4278190080
-1.7475836 -2.2303789 0.44222167 4278190080
-1.7580292 -2.2284486 0.443003 4278190080
-1.7692577 -2.2258563 0.44378427 4278190080
-1.7831893 -2.2273777 0.44534689 4278190080
-1.7940539 -2.2249837 0.44612822 4278190080
-1.8049227 -2.2225416 0.44690952 4278190080
-1.8189231 -2.2238731 0.44847214 4278190080
-1.8298147 -2.2213223 0.44925347 4278190080
-1.8438638 -2.2225235 0.45081609 4278190080
-1.8547776 -2.2198629 0.45159736 4278190080
-1.8688744 -2.2209325 0.45315999 4278190080
-1.8826135 -2.2222593 0.45472261 4278190080
-1.8967699 -2.2231882 0.45628524 4278190080
-1.9077371 -2.2202997 0.45706657 4278190080
-1.9219388 -2.221096 0.45862919 4278190080
-1.9361697 -2.2218196 0.46019179 4278190080
-1.9504284 -2.2224715 0.46175441 4278190080
-1.9647152 -2.2230508 0.46331704 4278190080
-1.9757465 -2.2198684 0.46409836 4278190080
-1.9896882 -2.2206607 0.46566099 4278190080
-2.0040443 -2.221035 0.46722361 4278190080
-2.0184271 -2.2213364 0.46878621 4278190080
-2.0328372 -2.2215636 0.47034883 4278190080
-2.0472724 -2.2217178 0.47191146 4278190080
-2.0617337 -2.2217982 0.47347409 4278190080
-2.0762203 -2.2218046 0.47503671 4278190080
-2.0907319 -2.2217369 0.47659931 4278190080
-2.1086659 -2.2251787 0.47894323 4278190080
-2.1232393 -2.2249506 0.48050588 4278190080
-2.1374485 -2.2250202 0.48206851 4278190080
-2.1555033 -2.2281942 0.4844124 4278190080
-2.1701601 -2.2277317 0.48597503 4278190080
-2.1848397 -2.2271938 0.48753765 4278190080
-2.199542 -2.2265806 0.48910028 4278190080
-2.2107844 -2.2223899 0.4898816 4278190080
-2.2251306 -2.2220263 0.49144423 4278190080
-2.2398872 -2.2212002 0.49300686 4278190080
-2.2546644 -2.2202983 0.49456945 4278190080
-2.2694628 -2.2193205 0.49613208 4278190080
-2.2842815 -2.2182662 0.4976947 4278190080
-2.3026752 -2.2205637 0.50003862 4278190080
-2.3175468 -2.2193432 0.50160128 4278190080
-2.332437 -2.2180467 0.50316387 4278190080
-2.3505497 -2.2204738 0.50550777 4278190080
-2.3654897 -2.219013 0.50707042 4278190080
-2.3804481 -2.2174749 0.50863302 4278190080
-2.3954246 -2.2158592 0.51019567 4278190080
-2.4176929 -2.2208478 0.51332086 4278190080
-2.4217823 -2.2090664 0.51253963 4278190080
-2.440459 -2.2105458 0.51488352 4278190080
-2.4481604 -2.2020135 0.51488352 4278190080
-2.6364906 -2.2264297 0.53988546 4278190080
-2.6404617 -2.21404 0.5391041 4278190080
-2.6633556 -2.2174494 0.54222941 4278190080
-2.6786921 -2.2144325 0.54379201 4278190080
-2.7016747 -2.217602 0.54691726 4278190080
-2.7094128 -2.1924734 0.54535466 4278190080
-3.0443327 -2.2600965 0.5937959 4278190080
-3.0879369 -2.2592008 0.59926504 4278190080
-3.1117878 -2.2600169 0.60239029 4278190080
-3.131676 -2.2578046 0.60473418 4278190080
-3.1475701 -2.2526078 0.60629684 4278190080
-3.1393096 -2.2301667 0.60317159 4278190080
-3.1591833 -2.2277331 0.60551554 4278190080
-5.5547757 -2.1590188 0.93679112 4278190080
-5.5466356 -2.1114011 0.93288457 4278190080
-5.5401073 -2.0868046 0.93054062 4278190080
-5.5334749 -2.0622797 0.92819673 4278190080
-5.5310163 -2.0404997 0.92663407 4278190080
-5.5241876 -2.0161014 0.92429018 4278190080
-5.5219011 -1.9934524 0.92272753 4278190080
-5.5195246 -1.9708427 0.92116493 4278190080
-5.5217133 -1.9499197 0.92038357 4278190080
-5.5238237 -1.9290055 0.91960227 4278190080
-5.5211873 -1.9064885 0.91803968 4278190080
-5.5231347 -1.885609 0.91725838 4278190080
-5.519999 -1.8641227 0.91569573 4278190080
-5.5171037 -1.8417159 0.91413313 4278190080
-5.5138011 -1.8203137 0.91257048 4278190080
-5.5063505 -1.7954986 0.91022658 4278190080
-5.5031834 -1.7732381 0.90866399 4278190080
-5.5002337 -1.7500606 0.90710133 4278190080
-5.4874635 -1.7249269 0.90397608 4278190080
-5.4745855 -1.699904 0.90085083 4278190080
-5.4615998 -1.674992 0.89772558 4278190080
-5.4532337 -1.6516229 0.89538169 4278190080
-5.4492178 -1.6306983 0.89381903 4278190080
-5.4456859 -1.6079174 0.89225644 4278190080
-5.4370408 -1.5847529 0.88991249 4278190080
-5.4330478 -1.5630341 0.88834989 4278190080
-5.4286995 -1.5423092 0.88678724 4278190080
-5.42454 -1.5206844 0.88522464 4278190080
-5.4202948 -1.4991072 0.88366199 4278190080
-5.4159665 -1.477577 0.88209939 4278190080
-5.4115529 -1.4560965 0.88053674 4278190080
-5.411829 -1.4359316 0.87975544 4278190080
-5.4070063 -1.4154758 0.87819284 4278190080
-5.4071321 -1.3953594 0.87741148 4278190080
-5.4023976 -1.3740423 0.87584895 4278190080
-5.4023705 -1.3539757 0.87506759 4278190080
-5.3974748 -1.3327407 0.87350494 4278190080
-5.3924966 -1.3115579 0.87194234 4278190080
-5.3874364 -1.290426 0.87037969 4278190080
-5.3820729 -1.2702845 0.86881715 4278190080
-5.3768535 -1.2492548 0.8672545 4278190080
-5.3765821 -1.2284386 0.8664732 4278190080
-5.3712001 -1.2074972 0.86491054 4278190080
-5.3705602 -1.1876748 0.86412925 4278190080
-5.3698478 -1.1678716 0.86334795 4278190080
-5.3642325 -1.1470551 0.86178529 4278190080
-5.3633709 -1.1273065 0.86100399 4278190080
-5.3576007 -1.1065804 0.8594414 4278190080
-5.356401 -1.0878247 0.8586601 4278190080
-5.3553224 -1.0681549 0.85787874 4278190080
-5.3541713 -1.048506 0.85709745 4278190080
-5.3529491 -1.0288783 0.85631615 4278190080
-5.3468022 -1.0083551 0.85475349 4278190080
-5.3454328 -0.98878711 0.8539722 4278190080
-5.3439927 -0.96924108 0.85319096 4278190080
-5.3376184 -0.94885266 0.8516283 4278190080
-5.3360329 -0.92936802 0.85084695 4278190080
-5.3343763 -0.90990466 0.85006571 4278190080
-5.3324933 -0.89139712 0.84928435 4278190080
-5.3306985 -0.87197942 0.84850305 4278190080
-5.3288331 -0.85258657 0.8477217 4278190080
-5.3220186 -0.8324542 0.8461591 4278190080
-5.3200097 -0.81312591 0.8453778 4278190080
-5.3179312 -0.79382181 0.84459645 4278190080
-5.3157835 -0.77454078 0.84381521 4278190080
-5.3184547 -0.75598079 0.84381521 4278190080
-5.3161688 -0.73673368 0.84303391 4278190080
-5.3188338 -0.71724337 0.84303391 4278190080
-5.3164082 -0.69803017 0.84225255 4278190080
-5.3139133 -0.67884266 0.84147125 4278190080
-5.306334 -0.659998 0.83990866 4278190080
-5.3037024 -0.64087927 0.8391273 4278190080
-5.301002 -0.62178689 0.838346 4278190080
-5.298233 -0.60272121 0.83756465 4278190080
-5.2953963 -0.58368111 0.83678341 4278190080
-5.292491 -0.56466949 0.83600211 4278190080
-5.2895169 -0.54568529 0.83522075 4278190080
-5.2864752 -0.52672875 0.83443946 4278190080
-5.2833657 -0.5078001 0.83365816 4278190080
-5.2851062 -0.48935354 0.83365816 4278190080
-5.2818632 -0.4704642 0.83287686 4278190080
-5.2785525 -0.45160347 0.8320955 4278190080
-5.2800965 -0.43317541 0.8320955 4278190080
-5.2766528 -0.41435546 0.83131421 4278190080
-5.2780671 -0.39593285 0.83131421 4278190080
-5.2744913 -0.37715462 0.83053291 4278190080
-5.2757759 -0.35874119 0.83053291 4278190080
-5.2720675 -0.34000555 0.82975161 4278190080
-5.2732224 -0.32160082 0.82975161 4278190080
-5.269382 -0.30290732 0.82897025 4278190080
-5.2704072 -0.28451216 0.82897025 4278190080
-5.2664361 -0.26586458 0.82818896 4278190080
-5.2623992 -0.24724817 0.82740772 4278190080
-5.2632303 -0.22887775 0.82740772 4278190080
-5.2590623 -0.2103058 0.82662636 4278190080
-5.2548289 -0.19176713 0.82584506 4278190080
-5.2554665 -0.17342347 0.82584506 4278190080
-5.2511029 -0.15493204 0.82506371 4278190080
-5.2516122 -0.1366016 0.82506371 4278190080
-5.2471199 -0.11815692 0.82428247 4278190080
-5.2475004 -0.099840619 0.82428247 4278190080
-5.2428789 -0.081446387 0.82350111 4278190080
-5.2431312 -0.063145109 0.82350111 4278190080
-5.2433195 -0.044843059 0.82350111 4278190080
-5.2385011 -0.027429257 0.82271981 4278190080
-5.2385645 -0.0091435872 0.82271981 4278190080
-5.2385645 0.0091435872 0.82271981 4278190080
-5.2385011 0.027429257 0.82271981 4278190080
-5.2334347 0.045671493 0.82193846 4278190080
-5.2332435 0.063939035 0.82193846 4278190080
-5.2329884 0.082205795 0.82193846 4278190080
-5.2277322 0.10037814 0.82115722 4278190080
-5.2273498 0.11862544 0.82115722 4278190080
-5.2269039 0.13687129 0.82115722 4278190080
-5.2263942 0.15511549 0.82115722 4278190080
-5.225821 0.17335778 0.82115722 4278190080
-5.225184 0.19159935 0.82115722 4278190080
-5.2244835 0.20983721 0.82115722 4278190080
-5.2237191 0.22807251 0.82115722 4278190080
-5.2228913 0.24630502 0.82115722 4278190080
-5.2219996 0.26453453 0.82115722 4278190080
-5.2210445 0.28276223 0.82115722 4278190080
-5.2200255 0.30098507 0.82115722 4278190080
-5.2189431 0.31920424 0.82115722 4278190080
-5.2177973 0.33741954 0.82115722 4278190080
-5.2165875 0.3556307 0.82115722 4278190080
-5.2153144 0.37383893 0.82115722 4278190080
-5.2139778 0.39204124 0.82115722 4278190080
-5.2125773 0.41023874 0.82115722 4278190080
-5.2111135 0.42843124 0.82115722 4278190080
-5.2145066 0.44704035 0.82193846 4278190080
-5.2129145 0.46524078 0.82193846 4278190080
-5.2112584 0.48343411 0.82193846 4278190080
-5.2095394 0.5016216 0.82193846 4278190080
-5.2126708 0.52029347 0.82271981 4278190080
-5.2108231 0.53848565 0.82271981 4278190080
-5.2089114 0.55667263 0.82271981 4278190080
-5.2069368 0.57485145 0.82271981 4278190080
-5.2098055 0.59358233 0.82350111 4278190080
-5.2077017 0.61176407 0.82350111 4278190080
-5.2055345 0.6299383 0.82350111 4278190080
-5.2082047 0.64871675 0.82428247 4278190080
-5.2060246 0.66598302 0.82428247 4278190080
-5.2085643 0.68479621 0.82506371 4278190080
-5.2061424 0.70297307 0.82506371 4278190080
-5.2035308 0.722049 0.82506371 4278190080
-5.2058678 0.74090528 0.82584506 4278190080
-5.2032499 0.75907236 0.82584506 4278190080
-5.2007041 0.77632302 0.82584506 4278190080
-5.2028446 0.79521805 0.82662636 4278190080
-5.2097955 0.81490058 0.82818896 4278190080
-5.2117958 0.83386117 0.82897025 4278190080
-5.2186012 0.85364288 0.83053291 4278190080
-5.2204604 0.87266934 0.83131421 4278190080
-5.2173824 0.89088655 0.83131421 4278190080
-5.214241 0.9090929 0.83131421 4278190080
-5.2110357 0.92728817 0.83131421 4278190080
-5.2029085 0.94459003 0.83053291 4278190080
-5.2044349 0.96364599 0.83131421 4278190080
-5.186481 0.9790585 0.82897025 4278190080
-5.1636333 0.99342442 0.82584506 4278190080
-4.3398933 0.88217294 0.69458485 4278190080
-4.2545733 0.88030565 0.68130267 4278190080
-4.1644874 0.876836 0.66723907 4278190080
-4.0937948 0.87688595 0.65630066 4278190080
-4.0231538 0.87645334 0.64536238 4278190080
-3.9477437 0.87447125 0.63364267 4278190080
-3.8820341 0.87414241 0.62348568 4278190080
-3.8115613 0.87226391 0.61254728 4278190080
-3.7459602 0.87102282 0.60239029 4278190080
-3.6804149 0.86933452 0.59223324 4278190080
-3.6149273 0.86720037 0.58207619 4278190080
-3.5542991 0.86578768 0.5727005 4278190080
-3.4937253 0.86396247 0.56332481 4278190080
-3.4379983 0.86292738 0.55473036 4278190080
-3.3775361 0.86029494 0.54535466 4278190080
-3.3219159 0.85848767 0.53676021 4278190080
-3.2663503 0.85630178 0.52816582 4278190080
-3.2108412 0.85373867 0.51957136 4278190080
-3.1601586 0.85208434 0.51175827 4278190080
-3.1142914 0.85138911 0.50472653 4278190080
-3.0683191 0.8509202 0.4976947 4278190080
-3.0226893 0.84907055 0.4906629 4278190080
-2.9769585 0.84744716 0.48363113 4278190080
-2.9360211 0.84688359 0.4773806 4278190080
-2.8951244 0.84604484 0.47113013 4278190080
-2.85427 0.84493172 0.46487966 4278190080
-2.8134589 0.84354305 0.45862919 4278190080
-2.7774184 0.84331477 0.45315999 4278190080
-2.7414143 0.84284526 0.44769084 4278190080
-2.7054477 0.84213477 0.44222167 4278190080
-2.6695194 0.84118432 0.43675247 4278190080
-2.6383367 0.84149343 0.43206462 4278190080
-2.6071846 0.84159517 0.42737675 4278190080
-2.5760643 0.84148979 0.4226889 4278190080
-2.5449767 0.84117752 0.41800106 4278190080
-2.5139229 0.84065932 0.41331318 4278190080
-2.4829044 0.83993393 0.40862533 4278190080
-2.4519219 0.83900237 0.40393746 4278190080
-2.4209762 0.83786482 0.39924958 4278190080
-2.390069 0.83652163 0.39456171 4278190080
-2.3592007 0.83497363 0.38987386 4278190080
-2.3330228 0.83488381 0.38596731 4278190080
-2.3115184 0.83630168 0.38284209 4278190080
-2.2900326 0.83757955 0.37971681 4278190080
-2.2685664 0.83871782 0.37659156 4278190080
-2.2424943 0.83798844 0.37268505 4278190080
-2.2210753 0.83883154 0.36955979 4278190080
-2.1950638 0.8377744 0.36565325 4278190080
-2.1690874 0.83654612 0.3617467 4278190080
-2.1431463 0.83514667 0.35784015 4278190080
-2.1218369 0.83538628 0.3547149 4278190080
-2.0959632 0.8336615 0.35080835 4278190080
-2.0701282 0.83176649 0.3469018 4278190080
-2.048908 0.83155859 0.34377658 4278190080
-2.0277147 0.8312127 0.34065133 4278190080
-2.0065486 0.8307296 0.33752605 4278190080
-1.9899676 0.83201355 0.33518216 4278190080
-1.9688525 0.83127093 0.33205691 4278190080
-1.95231 0.8323279 0.32971296 4278190080
-1.9312482 0.83132702 0.32658774 4278190080
-1.9147465 0.83215833 0.32424381 4278190080
-1.8937404 0.83089983 0.32111856 4278190080
-1.8772821 0.83150494 0.31877464 4278190080
-1.8563344 0.82998955 0.31564939 4278190080
-1.8399217 0.83036965 0.31330544 4278190080
-1.823529 0.83064592 0.31096154 4278190080
-1.8071572 0.8308174 0.30861759 4278190080
-1.7908064 0.83088481 0.30627364 4278190080
-1.7698601 0.8290633 0.30314842 4278190080
-1.7535608 0.82890451 0.3008045 4278190080
-1.7372843 0.82864207 0.29846054 4278190080
-1.7210311 0.82827622 0.29611662 4278190080
-1.7048018 0.82780707 0.2937727 4278190080
-1.6885967 0.82723522 0.29142877 4278190080
-1.6724167 0.82655996 0.28908482 4278190080
-1.6564063 0.82549298 0.2867409 4278190080
-1.6445458 0.82712024 0.28517827 4278190080
-1.628436 0.8261525 0.28283435 4278190080
-1.612353 0.8250829 0.28049043 4278190080
-1.6006861 0.82617581 0.2789278 4278190080
-1.5846508 0.82491696 0.27658388 4278190080
-1.5730165 0.82585198 0.27502126 4278190080
-1.5570306 0.82440501 0.27267733 4278190080
-1.5455744 0.82491314 0.27111471 4278190080
-1.5294955 0.82354856 0.26877075 4278190080
-1.5179312 0.82416946 0.26720813 4278190080
-1.5063815 0.82471967 0.2656455 4278190080
-1.4948465 0.82519937 0.26408291 4278190080
-1.4833263 0.82560903 0.26252028 4278190080
-1.4718218 0.825948 0.26095766 4278190080
-1.4603332 0.82621676 0.25939503 4278190080
-1.4488606 0.82641548 0.25783241 4278190080
-1.4331235 0.82408237 0.25548849 4278190080
-1.4216927 0.82412666 0.25392586 4278190080
-1.4102795 0.82410091 0.25236326 4278190080
-1.3946285 0.82149899 0.25001931 4278190080
-1.3832597 0.8213194 0.24845669 4278190080
-1.3719091 0.82107049 0.24689406 4278190080
-1.360577 0.82075274 0.24533145 4278190080
-1.353484 0.82293129 0.24455014 4278190080
-1.3421816 0.82248992 0.24298751 4278190080
-1.3308989 0.82197976 0.2414249 4278190080
-1.3196361 0.82140094 0.23986228 4278190080
-1.3083935 0.82075393 0.23829965 4278190080
-1.3013463 0.82267708 0.23751836 4278190080
-1.2901363 0.82190752 0.23595573 4278190080
-1.2831037 0.82373786 0.23517442 4278190080
-1.2719275 0.82284659 0.23361181 4278190080
-1.2649102 0.82458478 0.23283049 4278190080
-1.2537688 0.82357228 0.23126787 4278190080
-1.2426499 0.822492 0.22970523 4278190080
-1.231554 0.82134432 0.22814262 4278190080
-1.2204814 0.82012922 0.22657999 4278190080
-1.2135215 0.82161605 0.22579868 4278190080
-1.2024868 0.82028091 0.22423607 4278190080
-1.1914761 0.81887883 0.22267345 4278190080
-1.1845503 0.82022136 0.22189213 4278190080
-1.1735792 0.81870002 0.22032952 4278190080
-1.1666735 0.81995213 0.21954821 4278190080
-1.1597738 0.82116574 0.2187669 4278190080
-1.1488593 0.81947333 0.21720429 4278190080
-1.1419812 0.82059669 0.21642298 4278190080
-1.1309659 0.81898379 0.21486035 4278190080
-1.1241105 0.82001609 0.21407904 4278190080
-1.1132821 0.81808609 0.21251643 4278190080
-1.1065931 0.81883585 0.21173511 4278190080
-1.0956662 0.81698215 0.21017249 4278190080
-1.0888588 0.81783569 0.20939116 4278190080
-1.0781207 0.81567216 0.20782855 4278190080
-1.071339 0.81643707 0.20704724 4278190080
-1.0606476 0.81415749 0.20548461 4278190080
-1.053892 0.81483436 0.20470332 4278190080
-1.0432485 0.81243938 0.20314069 4278190080
-1.0365205 0.81302804 0.20235938 4278190080
-1.029801 0.81357962 0.20157807 4278190080
-1.0230905 0.81409431 0.20079675 4278190080
-1.0202423 0.81766081 0.20079675 4278190080
-1.0173819 0.82121706 0.20079675 4278190080
-1.0183412 0.82787865 0.20157807 4278190080
-1.0154452 0.83142823 0.20157807 4278190080
-1.0125369 0.83496767 0.20157807 4278190080
-1.0058168 0.83534193 0.20079675 4278190080
-0.99910665 0.83567923 0.20001546 4278190080
-0.99240649 0.83597994 0.19923414 4278190080
-0.97818452 0.82985431 0.19689021 4278190080
-0.97903669 0.83647168 0.19767152 4278190080
-0.97236717 0.83666319 0.19689021 4278190080
-0.78276896 0.85514092 0.17735745 4278190080
-0.77313566 0.85055912 0.17579484 4278190080
-0.76023489 0.84225452 0.1734509 4278190080
-0.76058626 0.84858084 0.17423221 4278190080
-0.75433624 0.84754151 0.1734509 4278190080
-0.74810272 0.84646893 0.17266959 4278190080
-0.74514347 0.84907514 0.17266959 4278190080
-0.73893064 0.84794772 0.17188829 4278190080
-0.7327345 0.84678751 0.17110698 4278190080
-0.72655576 0.84559429 0.17032567 4278190080
-0.72039425 0.84436816 0.16954434 4278190080
-0.71744251 0.84687757 0.16954434 4278190080
-0.71115524 0.84572172 0.16876303 4278190080
-0.70503366 0.84440798 0.16798171 4278190080
-0.69892991 0.84306192 0.16720042 4278190080
-0.69284421 0.84168357 0.1664191 4278190080
-0.68990177 0.84409702 0.1664191 4278190080
-0.6838392 0.84266531 0.16563779 4278190080
-0.68089366 0.84504718 0.16563779 4278190080
-0.67485464 0.84356242 0.16485648 4278190080
-0.67190599 0.84591293 0.16485648 4278190080
-0.66589081 0.84437549 0.16407517 4278190080
-0.66293937 0.84669471 0.16407517 4278190080
-0.65694892 0.84510452 0.16329387 4278190080
-0.65384692 0.84750676 0.16329387 4278190080
-0.64788163 0.84586328 0.16251256 4278190080
-0.64492512 0.84811962 0.16251256 4278190080
-0.63898522 0.8464241 0.16173124 4278190080
-0.63306504 0.84469748 0.16094993 4278190080
-0.62716448 0.84294009 0.16016862 4278190080
-0.62128419 0.84115165 0.15938732 4278190080
-0.61542404 0.83933252 0.15860601 4278190080
-0.60958421 0.83748275 0.1578247 4278190080
-0.60087252 0.83159947 0.15626207 4278190080
-0.59508747 0.82967895 0.15548077 4278190080
-0.5893234 0.82772797 0.15469944 4278190080
-0.58358026 0.82574701 0.15391813 4278190080
-0.58069438 0.827779 0.15391813 4278190080
-0.57497931 0.82574809 0.15313682 4278190080
-0.57209325 0.82775021 0.15313682 4278190080
-0.56640673 0.82566971 0.15235552 4278190080
-0.56352121 0.82764173 0.15235552 4278190080
-0.55786365 0.82551187 0.15157421 4278190080
-0.55497867 0.82745415 0.15157421 4278190080
-0.54935026 0.82527536 0.1507929 4278190080
-0.54646617 0.8271879 0.1507929 4278190080
-0.5407238 0.82505465 0.15001158 4278190080
-0.53784031 0.8269372 0.15001158 4278190080
-0.5322724 0.82466024 0.14923027 4278190080
-0.52939057 0.82651317 0.14923027 4278190080
-0.52650231 0.82835603 0.14923027 4278190080
-0.52360767 0.83018875 0.14923027 4278190080
-0.51808643 0.82782525 0.14844897 4278190080
-0.51519364 0.82962865 0.14844897 4278190080
-0.50970393 0.8272174 0.14766766 4278190080
-0.50423735 0.82477802 0.14688635 4278190080
-0.50135535 0.82653308 0.14688635 4278190080
-0.49592045 0.82404679 0.14610504 4278190080
-0.49304101 0.82577282 0.14610504 4278190080
-0.49015558 0.82748878 0.14610504 4278190080
-0.48461798 0.82502156 0.14532372 4278190080
-0.4817352 0.82670814 0.14532372 4278190080
-0.47637501 0.82410896 0.14454241 4278190080
-0.47349548 0.82576674 0.14454241 4278190080
-0.47061017 0.82741451 0.14454241 4278190080
-0.46529227 0.82475102 0.1437611 4278190080
-0.46241057 0.82637012 0.1437611 4278190080
-0.45712671 0.82366109 0.14297979 4278190080
-0.45424885 0.8252517 0.14297979 4278190080
-0.45136547 0.82683229 0.14297979 4278190080
-0.44612518 0.8240599 0.14219849 4278190080
-0.44324601 0.82561213 0.14219849 4278190080
-0.44036141 0.82715428 0.14219849 4278190080
-0.43747148 0.82868636 0.14219849 4278190080
-0.43228588 0.82583296 0.14141718 4278190080
-0.42940038 0.82733703 0.14141718 4278190080
-0.42650986 0.82883084 0.14141718 4278190080
-0.42136976 0.82591546 0.14063586 4278190080
-0.41848427 0.82738125 0.14063586 4278190080
-0.41559365 0.82883698 0.14063586 4278190080
-0.41035554 0.82593191 0.13985455 4278190080
-0.40747002 0.82735926 0.13985455 4278190080
-0.40457958 0.82877654 0.13985455 4278190080
-0.40168419 0.83018368 0.13985455 4278190080
-0.39664823 0.82712781 0.13907324 4278190080
-0.39375865 0.82850736 0.13907324 4278190080
-0.38861597 0.82547671 0.13829194 4278190080
-0.38573197 0.8268283 0.13829194 4278190080
-0.38284349 0.8281697 0.13829194 4278190080
-0.37789375 0.82501101 0.13751063 4278190080
-0.37501165 0.82632506 0.13751063 4278190080
-0.372125 0.82762909 0.13751063 4278190080
-0.36923361 0.82892305 0.13751063 4278190080
-0.36434418 0.8256886 0.13672931 4278190080
-0.36145982 0.82695538 0.13672931 4278190080
-0.3566089 0.82367998 0.135948 4278190080
-0.3537316 0.82491976 0.135948 4278190080
-0.35084978 0.82614952 0.135948 4278190080
-0.34796387 0.82736921 0.135948 4278190080
-0.34507373 0.82857877 0.135948 4278190080
-0.34217939 0.82977819 0.135948 4278190080
-0.33741409 0.82639539 0.13516669 4278190080
-0.33452722 0.82756823 0.13516669 4278190080
-0.32980162 0.82414579 0.13438538 4278190080
-0.32677889 0.82534897 0.13438538 4278190080
-0.32209373 0.8218866 0.13360406 4278190080
-0.3192229 0.82300591 0.13360406 4278190080
-0.31634817 0.82411516 0.13360406 4278190080
-0.31346959 0.82521439 0.13360406 4278190080
-0.3105872 0.82630354 0.13360406 4278190080
-0.30770078 0.82738274 0.13360406 4278190080
-0.30310556 0.82381696 0.13282275 4278190080
-0.30022809 0.82486993 0.13282275 4278190080
-0.29567412 0.82126629 0.13204145 4278190080
-0.29280558 0.82229334 0.13204145 4278190080
-0.28993329 0.82331049 0.13204145 4278190080
-0.28543356 0.81965363 0.13126014 4278190080
-0.28257072 0.82064497 0.13126014 4278190080
-0.27970445 0.82162631 0.13126014 4278190080
-0.27683479 0.82259762 0.13126014 4278190080
-0.27396151 0.82355905 0.13126014 4278190080
-0.27108514 0.82451028 0.13126014 4278190080
-0.26653618 0.8208012 0.13047883 4278190080
-0.26366925 0.82172662 0.13047883 4278190080
-0.26079932 0.82264197 0.13047883 4278190080
-0.25645021 0.81883448 0.12969752 4278190080
-0.25359043 0.81972462 0.12969752 4278190080
-0.25072756 0.8206048 0.12969752 4278190080
-0.24786142 0.82147509 0.12969752 4278190080
-0.24499246 0.82233524 0.12969752 4278190080
-0.24212052 0.82318544 0.12969752 4278190080
-0.23924564 0.82402557 0.12969752 4278190080
-0.23636784 0.82485563 0.12969752 4278190080
-0.23348694 0.82567573 0.12969752 4278190080
-0.23045924 0.82652593 0.12969752 4278190080
-0.22626296 0.82256365 0.1289162 4278190080
-0.22339013 0.82334846 0.1289162 4278190080
-0.22051479 0.8241232 0.1289162 4278190080
-0.21763676 0.82488793 0.1289162 4278190080
-0.21475609 0.82564259 0.1289162 4278190080
-0.21172841 0.82642418 0.1289162 4278190080
-0.20763345 0.82236987 0.12813491 4278190080
-0.20476162 0.82308966 0.12813491 4278190080
-0.20188707 0.82379943 0.12813491 4278190080
-0.19901051 0.82449907 0.12813491 4278190080
-0.19613108 0.82518876 0.12813491 4278190080
-0.1932497 0.82586831 0.12813491 4278190080
-0.19036554 0.82653785 0.12813491 4278190080
-0.18747905 0.82719737 0.12813491 4278190080
-0.18459071 0.82784671 0.12813491 4278190080
-0.18169968 0.82848603 0.12813491 4278190080
-0.17776577 0.82428759 0.12735359 4278190080
-0.17488721 0.82490313 0.12735359 4278190080
-0.17200652 0.82550859 0.12735359 4278190080
-0.16897985 0.82613349 0.12735359 4278190080
-0.1660949 0.82671833 0.12735359 4278190080
-0.1622525 0.82244784 0.12657228 4278190080
-0.15938047 0.82300925 0.12657228 4278190080
-0.15650691 0.82356048 0.12657228 4278190080
-0.15363103 0.82410181 0.12657228 4278190080
-0.15075326 0.82463312 0.12657228 4278190080
-0.14700295 0.82029313 0.12579097 4278190080
-0.14413851 0.82080132 0.12579097 4278190080
-0.14127277 0.82129937 0.12579097 4278190080
-0.13840486 0.82178754 0.12579097 4278190080
-0.13553527 0.82226568 0.12579097 4278190080
-0.13266447 0.82273376 0.12579097 4278190080
-0.1297916 0.82319188 0.12579097 4278190080
-0.12677372 0.82366204 0.12579097 4278190080
-0.12389765 0.82409954 0.12579097 4278190080
-0.12102051 0.82452697 0.12579097 4278190080
-0.11814146 0.82494444 0.12579097 4278190080
-0.11526141 0.82535177 0.12579097 4278190080
-0.11171354 0.82085556 0.12500966 4278190080
-0.10884736 0.82124054 0.12500966 4278190080
-0.1059803 0.82161546 0.12500966 4278190080
-0.10296834 0.82199836 0.12500966 4278190080
-0.10009822 0.82235277 0.12500966 4278190080
-0.097226895 0.82269722 0.12500966 4278190080
-0.094354816 0.82303154 0.12500966 4278190080
-0.091481149 0.82335591 0.12500966 4278190080
-0.088606805 0.82367021 0.12500966 4278190080
-0.085730948 0.82397449 0.12500966 4278190080
-0.082360111 0.81935495 0.12422834 4278190080
-0.079499789 0.81963742 0.12422834 4278190080
-0.076638058 0.81990993 0.12422834 4278190080
-0.073632546 0.8201853 0.12422834 4278190080
-0.070768945 0.82043737 0.12422834 4278190080
-0.067904912 0.82067937 0.12422834 4278190080
-0.06503962 0.82091141 0.12422834 4278190080
-0.062173534 0.82113343 0.12422834 4278190080
-0.059307128 0.82134545 0.12422834 4278190080
-0.056296468 0.82155728 0.12422834 4278190080
-0.053428181 0.82174885 0.12422834 4278190080
-0.050559241 0.82193035 0.12422834 4278190080
-0.047690123 0.82210177 0.12422834 4278190080
-0.044819988 0.82226324 0.12422834 4278190080
-0.041949742 0.8224147 0.12422834 4278190080
-0.039078549 0.82255614 0.12422834 4278190080
-0.036206879 0.82268751 0.12422834 4278190080
-0.033335205 0.82280886 0.12422834 4278190080
-0.030279998 0.81798506 0.12344703 4278190080
-0.027424775 0.81808573 0.12344703 4278190080
-0.024568781 0.81817651 0.12344703 4278190080
-0.021712488 0.81825727 0.12344703 4278190080
-0.018856367 0.81832808 0.12344703 4278190080
-0.01599958 0.81838894 0.12344703 4278190080
-0.013143033 0.81843978 0.12344703 4278190080
-0.010285891 0.81848067 0.12344703 4278190080
-0.0074286228 0.81851161 0.12344703 4278190080
-0.0045717005 0.81853253 0.12344703 4278190080
-0.0017142863 0.81854349 0.12344703 4278190080
0.0012857151 0.81854433 0.12344703 4278190080
0.0041431347 0.81853485 0.12344703 4278190080
0.0070000673 0.81851536 0.12344703 4278190080
0.009857351 0.81848598 0.12344703 4278190080
0.012714515 0.81844658 0.12344703 4278190080
0.015571087 0.81839716 0.12344703 4278190080
0.018427907 0.81833786 0.12344703 4278190080
0.021284064 0.81826854 0.12344703 4278190080
0.024140399 0.81818926 0.12344703 4278190080
0.026996439 0.81809998 0.12344703 4278190080
0.029851716 0.81800079 0.12344703 4278190080
0.032509729 0.81295699 0.12266573 4278190080
0.035489026 0.81283236 0.12266573 4278190080
0.038326297 0.81270355 0.12266573 4278190080
0.041412525 0.81749707 0.12344703 4278190080
0.044266045 0.81734753 0.12344703 4278190080
0.047118589 0.81718802 0.12344703 4278190080
0.049970996 0.81701857 0.12344703 4278190080
0.052822791 0.81683916 0.12344703 4278190080
0.05567351 0.81664979 0.12344703 4278190080
0.058666185 0.81644028 0.12344703 4278190080
0.061515909 0.81623048 0.12344703 4278190080
0.064364888 0.81601077 0.12344703 4278190080
0.067212641 0.81578118 0.12344703 4278190080
0.070060015 0.81554157 0.12344703 4278190080
0.072906099 0.81529206 0.12344703 4278190080
0.075751729 0.8150326 0.12344703 4278190080
0.078596435 0.81476319 0.12344703 4278190080
0.081439748 0.81448388 0.12344703 4278190080
0.084282503 0.81419462 0.12344703 4278190080
0.087265991 0.81388026 0.12344703 4278190080
0.090106606 0.81357068 0.12344703 4278190080
0.092945687 0.8132512 0.12344703 4278190080
0.095784068 0.81292176 0.12344703 4278190080
0.098621286 0.81258249 0.12344703 4278190080
0.10145687 0.81223327 0.12344703 4278190080
0.10429165 0.81187415 0.12344703 4278190080
0.10712472 0.8115052 0.12344703 4278190080
0.11009863 0.8111071 0.12344703 4278190080
0.11292899 0.81071788 0.12344703 4278190080
0.11575841 0.81031871 0.12344703 4278190080
0.11858599 0.80990976 0.12344703 4278190080
0.12141255 0.80949086 0.12344703 4278190080
0.12423763 0.80906206 0.12344703 4278190080
0.12706077 0.80862349 0.12344703 4278190080
0.13066642 0.81305104 0.12422834 4278190080
0.13350344 0.81259 0.12422834 4278190080
0.13633926 0.81211901 0.12422834 4278190080
0.13917343 0.81163812 0.12422834 4278190080
0.14200547 0.81114745 0.12422834 4278190080
0.14497784 0.81062144 0.12422834 4278190080
0.14780629 0.81011051 0.12422834 4278190080
0.15063338 0.80958956 0.12422834 4278190080
0.1543785 0.81391096 0.12500966 4278190080
0.15721883 0.81336707 0.12500966 4278190080
0.1610114 0.8176589 0.12579097 4278190080
0.16400707 0.81706327 0.12579097 4278190080
0.16685788 0.81648588 0.12579097 4278190080
0.16984965 0.81586874 0.12579097 4278190080
0.17269626 0.81527096 0.12579097 4278190080
0.17539889 0.81469375 0.12579097 4278190080
0.1782418 0.81407648 0.12579097 4278190080
0.18108211 0.81344944 0.12579097 4278190080
0.18392065 0.81281233 0.12579097 4278190080
0.18675695 0.81216532 0.12579097 4278190080
0.18959054 0.81150854 0.12579097 4278190080
0.19242226 0.8108418 0.12579097 4278190080
0.19525118 0.81016523 0.12579097 4278190080
0.19821958 0.80944407 0.12579097 4278190080
0.20104361 0.80874729 0.12579097 4278190080
0.20507374 0.81282908 0.12657228 4278190080
0.20790954 0.81210834 0.12657228 4278190080
0.21074322 0.81137758 0.12657228 4278190080
0.21357435 0.810637 0.12657228 4278190080
0.21781963 0.81461972 0.12735359 4278190080
0.22066203 0.8138544 0.12735359 4278190080
0.22350131 0.81307924 0.12735359 4278190080
0.22619638 0.81233364 0.12735359 4278190080
0.2291721 0.81149918 0.12735359 4278190080
0.23200352 0.81069422 0.12735359 4278190080
0.23483214 0.80987936 0.12735359 4278190080
0.23765746 0.80905479 0.12735359 4278190080
0.2404803 0.80822021 0.12735359 4278190080
0.2432998 0.80737597 0.12735359 4278190080
0.24611676 0.80652171 0.12735359 4278190080
0.24893072 0.80565763 0.12735359 4278190080
0.25321558 0.80949724 0.12813491 4278190080
0.25603989 0.80860835 0.12813491 4278190080
0.26050979 0.8123672 0.1289162 4278190080
0.26334408 0.81145287 0.1289162 4278190080
0.2661747 0.81052876 0.1289162 4278190080
0.26900253 0.80959463 0.1289162 4278190080
0.27039352 0.80392241 0.12813491 4278190080
0.27319828 0.80297363 0.12813491 4278190080
0.27599925 0.80201519 0.12813491 4278190080
0.2787973 0.80104679 0.12813491 4278190080
0.28159195 0.80006868 0.12813491 4278190080
0.28603858 0.80373365 0.1289162 4278190080
0.28884256 0.80273026 0.1289162 4278190080
0.29164258 0.80171716 0.1289162 4278190080
0.29628465 0.80527759 0.12969752 4278190080
0.29909354 0.80423856 0.12969752 4278190080
0.30363679 0.80781233 0.13047883 4278190080
0.30645448 0.80674762 0.13047883 4278190080
0.30926886 0.80567294 0.13047883 4278190080
0.31207946 0.80458844 0.13047883 4278190080
0.31488585 0.80349427 0.13047883 4278190080
0.31768882 0.8023901 0.13047883 4278190080
0.32062748 0.80122042 0.13047883 4278190080
0.32342246 0.80009627 0.13047883 4278190080
0.32807991 0.80353469 0.13126014 4278190080
0.33088294 0.8023845 0.13126014 4278190080
0.33558017 0.80578375 0.13204145 4278190080
0.33839101 0.80460733 0.13204145 4278190080
0.34312817 0.80796683 0.13282275 4278190080
0.34594616 0.80676425 0.13282275 4278190080
0.34876034 0.80555171 0.13282275 4278190080
0.35354781 0.8088547 0.13360406 4278190080
0.35636926 0.80761558 0.13360406 4278190080
0.35918635 0.80636662 0.13360406 4278190080
0.36199865 0.80510801 0.13360406 4278190080
0.36480698 0.80383945 0.13360406 4278190080
0.36980802 0.80698663 0.13438538 4278190080
0.37262285 0.80569077 0.13438538 4278190080
0.3754327 0.80438524 0.13438538 4278190080
0.37823841 0.80306977 0.13438538 4278190080
0.38315943 0.80620497 0.13516669 4278190080
0.38597104 0.80486274 0.13516669 4278190080
0.38877833 0.80351049 0.13516669 4278190080
0.39158049 0.80214858 0.13516669 4278190080
0.3943783 0.80077678 0.13516669 4278190080
0.39717129 0.79939514 0.13516669 4278190080
0.40009844 0.79793411 0.13516669 4278190080
0.40288106 0.79653281 0.13516669 4278190080
0.40790355 0.79952067 0.135948 4278190080
0.4106921 0.79809189 0.135948 4278190080
0.41347519 0.79665357 0.135948 4278190080
0.41854399 0.79958069 0.13672931 4278190080
0.42133224 0.79811496 0.13672931 4278190080
0.4264366 0.80099857 0.13751063 4278190080
0.42923018 0.79950505 0.13751063 4278190080
0.4320181 0.79800206 0.13751063 4278190080
0.43730742 0.80074739 0.13829194 4278190080
0.44009963 0.79921621 0.13829194 4278190080
0.44288689 0.79767501 0.13829194 4278190080
0.44808069 0.80043364 0.13907324 4278190080
0.45087215 0.79886454 0.13907324 4278190080
0.45610052 0.8015781 0.13985455 4278190080
0.4588955 0.7999813 0.13985455 4278190080
0.46168533 0.79837447 0.13985455 4278190080
0.46709624 0.80094314 0.14063586 4278190080
0.46988937 0.7993077 0.14063586 4278190080
0.47519401 0.80191141 0.14141718 4278190080
0.47799048 0.80024767 0.14141718 4278190080
0.48078069 0.79857445 0.14141718 4278190080
0.48356548 0.79689121 0.14141718 4278190080
0.48634437 0.79519832 0.14141718 4278190080
0.48911691 0.79349595 0.14141718 4278190080
0.49462861 0.79589254 0.14219849 4278190080
0.49740395 0.79416102 0.14219849 4278190080
0.50280929 0.79659605 0.14297979 4278190080
0.50558656 0.79483622 0.14297979 4278190080
0.51102328 0.79722416 0.1437611 4278190080
0.51380277 0.79543567 0.1437611 4278190080
0.51927042 0.79777622 0.14454241 4278190080
0.52205223 0.79595864 0.14454241 4278190080
0.52768958 0.79815966 0.14532372 4278190080
0.53047264 0.79631269 0.14532372 4278190080
0.53324878 0.7944563 0.14532372 4278190080
0.53601891 0.79258996 0.14532372 4278190080
0.54156291 0.79479545 0.14610504 4278190080
0.54433411 0.79290009 0.14610504 4278190080
0.54990804 0.79505676 0.14688635 4278190080
0.55267966 0.79313254 0.14688635 4278190080
0.55828261 0.7952404 0.14766766 4278190080
0.56105489 0.79328692 0.14766766 4278190080
0.56682539 0.7952466 0.14844897 4278190080
0.57247806 0.79727489 0.14923027 4278190080
0.57539672 0.79517108 0.14923027 4278190080
0.57816857 0.79315788 0.14923027 4278190080
0.58371794 0.79521739 0.15001158 4278190080
0.58942658 0.79714578 0.1507929 4278190080
0.59220529 0.79508364 0.1507929 4278190080
0.59497726 0.79301149 0.1507929 4278190080
0.60071909 0.79486996 0.15157421 4278190080
0.60349023 0.79276812 0.15157421 4278190080
0.60625398 0.79065657 0.15157421 4278190080
0.61202866 0.79244429 0.15235552 4278190080
0.61479121 0.79030293 0.15235552 4278190080
0.6175459 0.78815234 0.15235552 4278190080
0.62335294 0.78986847 0.15313682 4278190080
0.6261065 0.78768766 0.15313682 4278190080
0.63207632 0.78924239 0.15391813 4278190080
0.63482761 0.78703111 0.15391813 4278190080
0.64068472 0.78864366 0.15469944 4278190080
0.64656121 0.79022455 0.15548077 4278190080
0.64931542 0.78796303 0.15548077 4278190080
0.6552161 0.78949183 0.15626207 4278190080
0.66113526 0.79098898 0.15704338 4278190080
0.66389209 0.78867662 0.15704338 4278190080
0.66983473 0.79012132 0.1578247 4278190080
0.67258847 0.78777856 0.1578247 4278190080
0.67855418 0.7891705 0.15860601 4278190080
0.68453777 0.79053032 0.15938732 4278190080
0.6874305 0.7880162 0.15938732 4278190080
0.69343621 0.7893222 0.16016862 4278190080
0.69618738 0.78689671 0.16016862 4278190080
0.70221537 0.78814894 0.16094993 4278190080
0.70826012 0.78936899 0.16173124 4278190080
0.71101141 0.78689176 0.16173124 4278190080
0.717215 0.78793275 0.16251256 4278190080
0.72329825 0.78906476 0.16329387 4278190080
0.72604793 0.78653538 0.16329387 4278190080
0.732014 0.78774107 0.16407517 4278190080
0.73827124 0.78865832 0.16485648 4278190080
0.74101985 0.78607631 0.16485648 4278190080
0.74715954 0.7870664 0.16563779 4278190080
0.75331467 0.78802365 0.1664191 4278190080
0.75606096 0.78538913 0.1664191 4278190080
0.76223511 0.78629136 0.16720042 4278190080
0.76497525 0.78362572 0.16720042 4278190080
0.77116823 0.78447235 0.16798171 4278190080
0.77390164 0.78177589 0.16798171 4278190080
0.78011256 0.78256714 0.16876303 4278190080
