# .PCD v0.7 - Point Cloud Data file format
VERSION 0.7
FIELDS x y z rgb
SIZE 4 4 4 4
TYPE F F F U
COUNT 1 1 1 1
WIDTH 1152
HEIGHT 1
VIEWPOINT 0 0 0 1 0 0 0
POINTS 1152
DATA ascii
2.5983999 0.86245579 0.31802052 4294967295
2.6024444 2.2576671 0.2947588 4294967295
2.5836666 2.2487063 0.29039332 4294967295
2.602 0.86003733 0.30687141 4294967295
2.5968001 2.2627385 0.26512179 4294967295
2.5978749 2.2592928 0.23863348 4294967295
2.5932 2.2469475 0.22695565 4294967295
2.598357 2.2303293 0.20682991 4294967295
2.582 2.2193019 0.19768202 4294967295
2.5975628 2.2262557 0.17464283 4294967295
2.582 2.2193019 0.16473329 4294967295
2.5991998 2.2220194 0.15272081 4294967295
2.5989206 2.2099309 0.14117965 4294967295
2.5969999 2.2201438 0.10844004 4294967295
2.5958078 2.2088978 0.11719748 4294967295
2.600143 2.2211018 0.081217617 4294967295
2.5915556 2.2154605 0.088608474 4294967295
2.6003749 2.2260361 0.049840003 4294967295
2.5849998 2.2182791 0.058766216 4294967295
2.5982857 2.2263958 0.023404837 4294967295
2.592 2.2188416 0.013010323 4294967295
2.5985715 2.2223444 -0.0063660741 4294967295
2.5979481 2.2158287 -0.00050967932 4294967295
2.5959332 2.2332594 -0.034724832 4294967295
2.5954998 2.2373395 -0.065093398 4294967295
2.5976427 2.2391882 -0.094421268 4294967295
2.5981057 2.2302654 -0.12524325 4294967295
2.592 2.2188416 -0.13733679 4294967295
2.601222 2.2250814 -0.15642768 4294967295
2.5844998 2.2184496 -0.15042013 4294967295
2.5965714 2.2391193 -0.18367237 4294967295
2.5997372 2.2402444 -0.21580136 4294967295
2.599154 2.2261441 -0.24213207 4294967295
2.5829999 2.218961 -0.24412417 4294967295
2.5944445 2.2266278 -0.2770595 4294967295
2.582 2.2193019 -0.26060504 4294967295
2.5961113 2.2243757 -0.30201316 4294967295
2.5948331 2.217247 -0.31263852 4294967295
2.5964999 2.2128031 -0.32737315 4294967295
2.6340001 0.73616499 1.9909773 4294967295
2.6364999 -0.91781706 1.9923735 4294967295
2.6285555 0.73734677 1.9736953 4294967295
2.6343336 -0.9241941 1.9768922 4294967295
2.624454 -0.93935204 1.9751248 4294967295
2.6155 -0.96512216 1.9806458 4294967295
2.6266365 0.73742235 1.9430777 4294967295
2.6389999 -0.92787462 1.9427451 4294967295
2.6254287 -0.9357084 1.9448491 4294967295
2.6279092 0.7416575 1.9138492 4294967295
2.6296155 -0.91751385 1.9124951 4294967295
2.622 -0.93405223 1.923438 4294967295
2.6196668 0.75241405 1.8776168 4294967295
2.6311429 0.74625337 1.8868858 4294967295
2.62925 -0.90460968 1.8846028 4294967295
2.6246665 0.75182545 1.8517843 4294967295
2.6308463 0.74653828 1.8539712 4294967295
2.6295002 -0.91194457 1.8546038 4294967295
2.628 1.3808134 1.8108016 4294967295
2.6282172 1.362878 1.8183155 4294967295
2.6335416 1.3363655 1.8244487 4294967295
2.6322942 1.3040183 1.8269016 4294967295
2.6249282 1.2774063 1.8192881 4294967295
2.6290002 0.78423202 1.8139828 4294967295
2.6277997 0.76466483 1.8253092 4294967295
2.6364999 0.74756724 1.8333251 4294967295
2.6258333 -0.92425764 1.8330663 4294967295
2.6336 -0.93330592 1.8159889 4294967295
2.6130002 2.0473969 1.7973714 4294967295
2.6129999 2.034307 1.7935134 4294967295
2.6214616 1.8667532 1.7869947 4294967295
2.6281822 1.8445126 1.7944239 4294967295
2.6250472 1.8151642 1.7939581 4294967295
2.6191113 1.791389 1.7868439 4294967295
2.6251786 1.3914962 1.7948257 4294967295
2.6337497 1.3672758 1.7952865 4294967295
2.6363158 1.3368931 1.7939674 4294967295
2.6346877 1.3067629 1.7923192 4294967295
2.6262219 1.2735962 1.7950377 4294967295
2.6129999 1.2516798 1.7913088 4294967295
2.6155 1.0526199 1.7834196 4294967295
2.6155 1.0397253 1.7856946 4294967295
2.6297498 0.79353344 1.7936475 4294967295
2.6276665 -0.9406479 1.794871 4294967295
2.6155002 2.1934805 1.7530776 4294967295
2.6155002 2.1752753 1.7530775 4294967295
2.6155002 2.1510015 1.7530776 4294967295
2.6211002 2.047951 1.7557111 4294967295
2.6213927 2.0278835 1.7619087 4294967295
2.6210835 1.9994967 1.7556975 4294967295
2.6180003 1.9647573 1.7512221 4294967295
2.6205003 1.9347062 1.7523978 4294967295
2.6208122 1.9045303 1.7582365 4294967295
2.6236763 1.875535 1.7656871 4294967295
2.6337934 1.8446887 1.7651759 4294967295
2.6364501 1.8155856 1.7669259 4294967295
2.6305001 1.7839167 1.7719983 4294967295
2.6270003 1.7554002 1.7670772 4294967295
2.6290004 1.7259595 1.7624816 4294967295
2.6284547 1.6953913 1.7555709 4294967295
2.6196671 1.6681863 1.7520059 4294967295
2.6285002 1.5335281 1.7531016 4294967295
2.63025 1.5147151 1.7579902 4294967295
2.6252999 1.4865934 1.7552493 4294967295
2.618 1.4636352 1.7512221 4294967295
2.62025 1.3919257 1.7662646 4294967295
2.6296246 1.3641196 1.7640647 4294967295
2.6337726 1.3366262 1.7639062 4294967295
2.6236875 1.3077925 1.7641635 4294967295
2.6159999 1.2773998 1.7733473 4294967295
2.6146667 1.2403414 1.7617797 4294967295
2.621727 1.2157526 1.7593187 4294967295
2.6251049 1.1850212 1.75743 4294967295
2.6255336 1.1541191 1.7567838 4294967295
2.6233749 1.1254005 1.7590641 4294967295
2.6220417 1.0932642 1.7622279 4294967295
2.6218278 1.0664895 1.7672632 4294967295
2.6182632 1.0380741 1.7657297 4294967295
2.6153078 0.91110879 1.7560195 4294967295
2.6234086 0.88370138 1.7592775 4294967295
2.6293156 0.85524642 1.7584499 4294967295
2.6281328 0.82232642 1.761255 4294967295
2.630667 0.80235946 1.7724214 4294967295
2.6304617 -0.94316387 1.7655218 4294967295
2.6249759 2.2058954 1.7350492 4294967295
2.631387 2.1746953 1.7360344 4294967295
2.6284075 2.1439929 1.7364371 4294967295
2.6266551 2.1141353 1.7325668 4294967295
2.6297243 2.0842052 1.7354575 4294967295
2.6303635 2.0580623 1.7448117 4294967295
2.6365004 2.026046 1.7453921 4294967295
2.6350837 1.9928602 1.7454935 4294967295
2.6336668 1.9646933 1.7459521 4294967295
2.6339543 1.9356092 1.7434306 4294967295
2.6347039 1.904388 1.7393663 4294967295
2.6358573 1.8754969 1.7371116 4294967295
2.6387827 1.8467247 1.7362387 4294967295
2.6390002 1.8225455 1.7268097 4294967295
2.6390002 1.6835551 1.7457907 4294967295
2.6304998 1.663793 1.738771 4294967295
2.6201429 1.6357801 1.7348505 4294967295
2.6137145 1.6124134 1.727546 4294967295
2.6269002 1.5691625 1.7279693 4294967295
2.6270838 1.5489568 1.7438024 4294967295
2.6353333 1.4784238 1.7491773 4294967295
2.6326499 1.453802 1.7373251 4294967295
2.6247723 1.4264437 1.7319633 4294967295
2.6179998 1.3930991 1.734108 4294967295
2.6300383 1.3694301 1.7371567 4294967295
2.6389999 1.3498554 1.7488523 4294967295
2.6310713 1.3021978 1.7416544 4294967295
2.6263888 1.2756839 1.731105 4294967295
2.6277497 1.2434857 1.7336836 4294967295
2.6328001 1.2141242 1.7365929 4294967295
2.6339996 1.1822922 1.7343014 4294967295
2.6341815 1.1543126 1.7346592 4294967295
2.6347499 1.1260806 1.738348 4294967295
2.6355 1.0966719 1.743477 4294967295
2.6340714 1.0635852 1.7456753 4294967295
2.6298635 1.0342724 1.7395822 4294967295
2.6269443 1.0050728 1.7289945 4294967295
2.6259999 0.97356796 1.7245067 4294967295
2.6259995 0.94237959 1.7327609 4294967295
2.6314542 0.91508627 1.7371752 4294967295
2.6354444 0.89146692 1.7458303 4294967295
2.6346667 -0.92634475 1.7295183 4294967295
2.6232002 -0.93508613 1.740273 4294967295
2.6288002 2.2249479 1.7005862 4294967295
2.6307147 2.2149248 1.7135851 4294967295
2.6390002 2.1397133 1.7182376 4294967295
2.6390002 2.115222 1.7151761 4294967295
2.6390002 2.0937915 1.7182376 4294967295
2.6390002 1.8743864 1.7172171 4294967295
2.6390002 1.8434315 1.7093934 4294967295
2.6356666 1.8134118 1.7047487 4294967295
2.6365001 1.7981828 1.6987512 4294967295
2.6365001 1.6585132 1.7130225 4294967295
2.6307917 1.6355931 1.7053384 4294967295
2.6242647 1.6035824 1.7032794 4294967295
2.6287858 1.5837963 1.7109599 4294967295
2.6389999 1.4416994 1.7151761 4294967295
2.6378181 1.4235302 1.7060112 4294967295
2.6337495 1.3949605 1.7079853 4294967295
2.6364999 1.3761008 1.7171025 4294967295
2.6389999 1.2407559 1.7115581 4294967295
2.6389999 1.215151 1.7059917 4294967295
2.6374781 1.1841199 1.7063667 4294967295
2.6389999 1.1547962 1.712552 4294967295
2.6389999 1.1324914 1.7182376 4294967295
2.6389999 0.97635663 1.7182376 4294967295
2.6389999 0.95492643 1.7182376 4294967295
2.6284544 -0.92248917 1.705119 4294967295
2.62975 2.2313333 1.6734986 4294967295
2.6390002 2.2193115 1.6631312 4294967295
2.6390002 1.8151981 1.687623 4294967295
2.6390002 1.6284487 1.687623 4294967295
2.6390002 1.61008 1.687623 4294967295
2.6389999 1.4145836 1.6815001 4294967295
2.6387057 1.3961617 1.6763282 4294967295
2.631 -0.92581648 1.6764541 4294967295
2.6260769 2.2330282 1.6453475 4294967295
2.6354377 2.2109578 1.6398066 4294967295
2.6271427 -0.93153334 1.6449343 4294967295
2.6220477 2.2279277 1.6160992 4294967295
2.6338518 2.2054582 1.6144996 4294967295
2.6390002 2.1886969 1.6080248 4294967295
2.6389999 0.59061205 1.601902 4294967295
2.6335001 0.53438962 1.6026959 4294967295
2.6320002 -0.92404455 1.6112443 4294967295
2.6230001 -0.93035567 1.62576 4294967295
2.6277027 2.2325256 1.5829161 4294967295
2.6372311 2.2069924 1.587049 4294967295
2.6390002 2.1769617 1.583023 4294967295
2.6390002 2.1540003 1.5753692 4294967295
2.6259999 0.60291952 1.5874484 4294967295
2.6340001 0.54060245 1.5784626 4294967295
2.6233332 0.53637218 1.5873678 4294967295
2.6275001 -0.91771775 1.5870106 4294967295
2.6299582 2.266099 1.5557247 4294967295
2.6312501 2.2463353 1.5666542 4294967295
2.6390002 2.1703281 1.5636336 4294967295
2.6390002 2.1488979 1.5590415 4294967295
2.6340001 0.54060245 1.5692955 4294967295
2.625 0.53468955 1.5535294 4294967295
2.633091 -0.91635019 1.5550417 4294967295
2.6284349 2.2682009 1.5241193 4294967295
2.6390002 2.240742 1.5131195 4294967295
2.6129999 0.52416712 1.5306168 4294967295
2.6288121 -0.92237234 1.5248984 4294967295
2.628 -0.93010443 1.5120287 4294967295
2.6232502 2.2532086 1.5056648 4294967295
2.6289499 2.2321885 1.4947015 4294967295
2.6390002 2.2193115 1.4855664 4294967295
2.6328185 -0.9229157 1.49275 4294967295
2.6205001 -0.93048131 1.4970374 4294967295
2.6310003 2.2217369 1.4643401 4294967295
2.6290669 2.2166331 1.4644389 4294967295
2.6275291 -0.91270214 1.464865 4294967295
2.6275558 2.2272785 1.433284 4294967295
2.6260002 2.2174728 1.4472845 4294967295
2.624933 -0.9058575 1.4357486 4294967295
2.6270669 2.2316062 1.4039811 4294967295
2.6229999 0.52617317 1.3945109 4294967295
2.6326001 -0.90730017 1.4038067 4294967295
2.6284287 2.2298532 1.3730762 4294967295
2.6340001 0.63227236 1.3615103 4294967295
2.6233332 0.52015352 1.3702919 4294967295
2.6255 -0.90788561 1.3740093 4294967295
2.629909 2.2343771 1.3441094 4294967295
2.6390002 2.2124231 1.3363199 4294967295
2.6268573 0.51997745 1.3444097 4294967295
2.6284544 -0.90974206 1.3436594 4294967295
2.6284668 2.2559686 1.3076938 4294967295
2.6328182 2.2396324 1.3200263 4294967295
2.6390002 2.2101271 1.3233086 4294967295
2.6313334 0.51765645 1.3131645 4294967295
2.629647 -0.91488248 1.3141694 4294967295
2.6299601 2.2685511 1.2845469 4294967295
2.628 0.50888395 1.292522 4294967295
2.6302495 -0.92050284 1.2843249 4294967295
2.6129999 -0.93085819 1.2759874 4294967295
2.6256156 2.2586408 1.2613616 4294967295
2.6325719 2.2422369 1.2493656 4294967295
2.6337144 -0.89633024 1.2531801 4294967295
2.6250591 -0.91113245 1.2590594 4294967295
2.6251051 2.2274768 1.2278743 4294967295
2.6357694 2.2128131 1.2190721 4294967295
2.6318333 -0.89787203 1.2325839 4294967295
2.6258752 -0.90268928 1.2202878 4294967295
2.6130002 2.2216969 1.2092986 4294967295
2.6294668 2.2104473 1.1951315 4294967295
2.6265457 -0.90908206 1.1934735 4294967295
2.6282966 2.2077944 1.1656785 4294967295
2.6294999 -0.92146939 1.1678959 4294967295
2.6340001 -0.93222803 1.1537251 4294967295
2.6230001 2.2241135 1.1206496 4294967295
2.6272902 2.210413 1.1342095 4294967295
2.628 -0.93785518 1.1356417 4294967295
2.6268823 2.2343674 1.1041371 4294967295
2.6367145 2.2147617 1.1141737 4294967295
2.6389999 0.49876812 1.0936987 4294967295
2.6389999 -0.92787462 1.0936987 4294967295
2.6295557 -0.93607026 1.1052046 4294967295
2.6296132 2.2385418 1.0749221 4294967295
2.638 0.49857917 1.0751243 4294967295
2.6303637 -0.91872311 1.0735105 4294967295
2.6129999 -0.93085819 1.0880466 4294967295
2.6298895 2.2363598 1.0442495 4294967295
2.6390002 2.2172706 1.0396129 4294967295
2.6270666 -0.90578187 1.0443716 4294967295
2.6291847 2.2324884 1.0154212 4294967295
2.6389999 2.2166874 1.0184742 4294967295
2.6288462 -0.90786695 1.014073 4294967295
2.6272726 2.2296515 0.986408 4294967295
2.6280832 -0.91843182 0.98562717 4294967295
2.6268573 2.2339005 0.95610219 4294967295
2.6155 0.51253182 0.94598544 4294967295
2.6275001 -0.9156881 0.95656896 4294967295
2.6281762 2.2291989 0.92490315 4294967295
2.6129999 0.51204193 0.92637706 4294967295
2.6389999 -0.89725995 0.91307235 4294967295
2.6258571 -0.90583098 0.92678303 4294967295
2.6300001 2.22191 0.90461123 4294967295
2.6272352 2.2154832 0.89213121 4294967295
2.6129999 0.51204193 0.89707446 4294967295
2.6291428 0.50648278 0.89199769 4294967295
2.6280713 -0.9061619 0.89706326 4294967295
2.6277499 2.2078581 0.86501527 4294967295
2.6285 0.5038926 0.86778998 4294967295
2.6287334 -0.91205037 0.86579585 4294967295
2.6251667 2.227283 0.82945848 4294967295
2.633476 2.2120199 0.83964306 4294967295
2.6284287 0.5063445 0.83874631 4294967295
2.6389999 -0.89725995 0.82735133 4294967295
2.628947 -0.90955561 0.83468932 4294967295
2.6293638 2.2583301 0.79710758 4294967295
2.6312103 2.2381184 0.81149656 4294967295
2.6389999 2.2193115 0.81816691 4294967295
2.6205001 0.50743169 0.80695963 4294967295
2.6327503 -0.89512753 0.80829918 4294967295
2.6223073 -0.90748721 0.80457407 4294967295
2.6288126 2.2705786 0.77622116 4294967295
2.6389999 0.51101398 0.76306057 4294967295
2.6205001 0.50743169 0.77046794 4294967295
2.6277502 -0.91323799 0.77498633 4294967295
2.6293333 2.2643719 0.74251157 4294967295
2.6389999 2.2499263 0.7324459 4294967295
2.6283333 0.52114099 0.74581993 4294967295
2.631 -0.9281047 0.75317645 4294967295
2.6196668 2.2516658 0.72481143 4294967295
2.6304779 2.241575 0.71345675 4294967295
2.6303332 -0.94720161 0.70733309 4294967295
2.6304998 2.2396104 0.68293422 4294967295
2.6259999 -0.95679897 0.69484276 4294967295
2.6315999 -0.97044981 0.68178231 4294967295
2.6291301 2.2404261 0.65234876 4294967295
2.6364999 0.54111552 0.64354336 4294967295
2.628 0.53937101 0.65229404 4294967295
2.6373332 -0.98847926 0.65276003 4294967295
2.628 -0.99107856 0.64314795 4294967295
2.6297598 2.2410383 0.62504208 4294967295
2.618 0.54339272 0.62445092 4294967295
2.6314285 -0.9871285 0.62195045 4294967295
2.628 -0.99107856 0.63095313 4294967295
2.6314285 2.2373307 0.59752107 4294967295
2.6389999 2.2065091 0.59718484 4294967295
2.6389999 2.1862476 0.598966 4294967295
2.6377499 0.54749209 0.59464896 4294967295
2.6291249 -0.978522 0.59706801 4294967295
2.6312859 2.2330732 0.56764382 4294967295
2.6389999 2.2193115 0.57937264 4294967295
2.618 0.54339278 0.57890022 4294967295
2.6328332 0.52506995 0.56904954 4294967295
2.6273334 0.49757397 0.5618431 4294967295
2.6278889 0.46753141 0.55745411 4294967295
2.6328001 0.43650532 0.55479896 4294967295
2.6327999 0.40596536 0.55479896 4294967295
2.6340001 0.37559655 0.55481482 4294967295
2.6304002 0.34457669 0.55476725 4294967295
2.6297145 0.3113524 0.55650759 4294967295
2.6290002 0.28338996 0.55781025 4294967295
2.6278749 0.25276858 0.55779535 4294967295
2.6259999 0.22517715 0.55776823 4294967295
2.6261249 0.19622882 0.55853033 4294967295
2.628 0.16438037 0.56083292 4294967295
2.6285 0.1359507 0.55983031 4294967295
2.6289999 0.10648739 0.55780905 4294967295
2.6273334 0.077983864 0.55574721 4294967295
2.628 0.045480918 0.55473554 4294967295
2.6360002 0.015032558 0.55484128 4294967295
2.6389999 -0.0094350856 0.55488092 4294967295
2.6389999 -0.055357061 0.55488092 4294967295
2.6389999 -0.5574373 0.55488092 4294967295
2.6389999 -0.58805197 0.55488092 4294967295
2.6389999 -0.62172806 0.55488092 4294967295
2.6389999 -0.64315838 0.55488092 4294967295
2.631 -0.9158774 0.55477518 4294967295
2.6328332 -0.9460609 0.56498188 4294967295
2.6272001 -0.96516538 0.57667053 4294967295
2.6279044 2.2259295 0.53702927 4294967295
2.6389999 2.218087 0.53161377 4294967295
2.6129999 0.0058143847 0.54847467 4294967295
2.6220002 -0.015469395 0.54857272 4294967295
2.628 -0.045980208 0.54863811 4294967295
2.628 -0.076467246 0.54863811 4294967295
2.6271427 -0.10952165 0.54689664 4294967295
2.6267776 -0.13603094 0.54524899 4294967295
2.6248572 -0.168587 0.53991383 4294967295
2.6301427 -0.19160213 0.54082525 4294967295
2.6340001 -0.22331375 0.54259217 4294967295
2.6329999 -0.25580066 0.54157317 4294967295
2.625 -0.28346679 0.53642452 4294967295
2.6278887 -0.31560454 0.53916264 4294967295
2.6292 -0.34490508 0.54255104 4294967295
2.6275001 -0.37719667 0.54152602 4294967295
2.6293333 -0.40390882 0.53747213 4294967295
2.6271427 -0.43520203 0.53470576 4294967295
2.6285 -0.46677861 0.5395056 4294967295
2.6277502 -0.4971281 0.54483324 4294967295
2.6310003 -0.52521521 0.54867083 4294967295
2.6255 -0.5545857 0.54861087 4294967295
2.6270001 -0.5823282 0.54862726 4294967295
2.625 -0.6123324 0.54860544 4294967295
2.6248333 -0.64579833 0.54759127 4294967295
2.6291113 -0.67564422 0.54324138 4294967295
2.6315 -0.70467609 0.53876132 4294967295
2.6328888 -0.73499399 0.53919518 4294967295
2.6267271 -0.76342642 0.5397709 4294967295
2.6292002 -0.79631937 0.54255098 4294967295
2.6270001 -0.82612938 0.54253215 4294967295
2.6304998 -0.85317039 0.54714829 4294967295
2.6259999 -0.88674027 0.54861635 4294967295
2.6155 -0.90443808 0.54850191 4294967295
2.625391 2.2263868 0.5043788 4294967295
2.6375906 2.208106 0.50423503 4294967295
2.6389999 2.1886969 0.4967131 4294967295
2.6246922 2.2559795 0.46849552 4294967295
2.6313872 2.2355299 0.47677535 4294967295
2.6389999 2.2082901 0.47803816 4294967295
2.6389999 2.1886969 0.48446724 4294967295
2.6249995 2.2555268 0.44937176 4294967295
2.6357081 2.2394605 0.44298565 4294967295
2.6277497 2.2291353 0.41654569 4294967295
2.6370001 2.2153304 0.40725482 4294967295
2.6273999 0.87330645 0.40962553 4294967295
2.6245766 0.85343808 0.41437566 4294967295
2.6272001 0.83544713 0.41695416 4294967295
2.6286333 2.2099514 0.3833667 4294967295
2.6389999 0.87532836 0.39568475 4294967295
2.6389999 0.860021 0.39568475 4294967295
2.6262083 2.2323873 0.34855261 4294967295
2.6333334 2.213304 0.35928386 4294967295
2.6348 0.87454504 0.34575993 4294967295
2.6389999 0.86614394 0.34057838 4294967295
2.6254282 2.2563202 0.32118818 4294967295
2.6356428 2.2426844 0.3281337 4294967295
2.6229999 0.87306422 0.33558038 4294967295
2.6289999 0.85961246 0.32440126 4294967295
2.6249561 2.2569962 0.29387319 4294967295
2.6375 2.2455862 0.29784769 4294967295
2.6192501 0.84901458 0.30393994 4294967295
2.6288624 2.2639668 0.26512912 4294967295
2.6383748 2.2425051 0.26639557 4294967295
2.6289999 2.2631691 0.23909825 4294967295
2.6338212 2.2358913 0.2353172 4294967295
2.6365001 2.2121093 0.23421171 4294967295
2.6259997 2.2289474 0.20742923 4294967295
2.6369166 2.2129672 0.20765263 4294967295
2.6260412 2.2261622 0.17645052 4294967295
2.6382306 2.2130127 0.17300743 4294967295
2.618 2.2259481 0.15977991 4294967295
2.6238663 2.202908 0.14924768 4294967295
2.6319168 2.185349 0.13955274 4294967295
2.6193123 2.1974165 0.1105921 4294967295
2.6295557 2.1862645 0.11920553 4294967295
2.61675 2.2218366 0.079500556 4294967295
2.6290281 2.2096691 0.086280406 4294967295
2.6240473 2.226145 0.053991765 4294967295
2.6365831 2.2091122 0.052715003 4294967295
2.6236312 2.2275143 0.028619111 4294967295
2.6319997 2.2055225 0.021945804 4294967295
2.6377499 2.1861296 0.016304672 4294967295
2.6129999 2.2216969 -0.01534766 4294967295
2.6196246 2.1988111 -0.0051159859 4294967295
2.6345384 2.1840489 -0.0051802993 4294967295
2.6240947 2.2325616 -0.037341893 4294967295
2.6301196 2.2040119 -0.033024848 4294967295
2.6381667 2.1849442 -0.029686213 4294967295
2.6309726 2.2376077 -0.064559817 4294967295
2.6389999 2.2126317 -0.059081972 4294967295
2.6291113 2.2360375 -0.095566809 4294967295
2.6389999 2.2193115 -0.094149709 4294967295
2.6232498 2.2288604 -0.12014067 4294967295
2.6322777 2.2146521 -0.1285339 4294967295
2.6211536 2.2244027 -0.15923685 4294967295
2.6317728 2.2123795 -0.15242529 4294967295
2.6274242 2.2341132 -0.18658811 4294967295
2.6383748 2.2157245 -0.18200248 4294967295
2.6250277 2.2327373 -0.21354645 4294967295
2.638 2.2184706 -0.21632451 4294967295
2.6215498 2.225301 -0.24305028 4294967295
2.6340001 2.2125206 -0.24866134 4294967295
2.6191764 2.2251475 -0.27469593 4294967295
2.6321936 2.2088339 -0.27636427 4294967295
2.6129999 2.2232125 -0.29877454 4294967295
2.6303637 2.2121952 -0.30387753 4294967295
2.6299446 2.2133689 -0.33238614 4294967295
2.6506 0.73095852 1.9953246 4294967295
2.6534998 -0.91346753 1.9967377 4294967295
2.6530004 0.73223585 1.973873 4294967295
2.6533635 -0.92116672 1.9743596 4294967295
2.6552856 0.73418599 1.9482983 4294967295
2.6530766 -0.92239255 1.9448009 4294967295
2.6540999 0.73808128 1.9128999 4294967295
2.6566253 -0.90555495 1.9157724 4294967295
2.6569998 0.73950267 1.8836056 4294967295
2.6607499 -0.89693522 1.8793588 4294967295
2.6526668 -0.90087581 1.8854946 4294967295
2.6548889 0.73925918 1.8534356 4294967295
2.659091 -0.89342713 1.8541132 4294967295
2.6497502 -0.90898091 1.849143 4294967295
2.6440001 1.3301753 1.8171268 4294967295
2.6454999 1.3109827 1.8186305 4294967295
2.6462502 0.76030499 1.8166949 4294967295
2.6552305 0.74303669 1.8255945 4294967295
2.6626666 -0.89500892 1.8381228 4294967295
2.6593847 -0.91651958 1.8338058 4294967295
2.6582856 -0.93200457 1.8186135 4294967295
2.6440001 1.3217403 1.8063914 4294967295
2.6440001 1.3156058 1.8063914 4294967295
2.6470001 0.78381121 1.7935162 4294967295
2.6522908 0.76528931 1.7945327 4294967295
2.6588333 0.74721456 1.8002414 4294967295
2.6634998 -0.92721629 1.7849798 4294967295
2.6552002 -0.9360196 1.7950002 4294967295
2.6440003 1.8309065 1.7511806 4294967295
2.6508577 1.8114777 1.7556839 4294967295
2.6543849 1.7878689 1.7635868 4294967295
2.6540003 1.7577794 1.7650673 4294967295
2.6557004 1.7262344 1.7590799 4294967295
2.6496668 1.7016309 1.751766 4294967295
2.6563337 1.5388062 1.753493 4294967295
2.6519003 1.5151906 1.7548487 4294967295
2.6495001 1.496614 1.7506616 4294967295
2.6461999 1.3375732 1.7509731 4294967295
2.6494999 0.87265742 1.7506616 4294967295
2.6562726 0.85499197 1.754088 4294967295
2.654 0.82240707 1.7570567 4294967295
2.6549547 0.79464972 1.7671888 4294967295
2.6600001 0.76811153 1.7748277 4294967295
2.6568463 -0.92323148 1.7623829 4294967295
2.6498332 -0.93577802 1.771314 4294967295
2.6440003 2.1959112 1.720508 4294967295
2.6452005 2.1754243 1.7210528 4294967295
2.6440003 2.1560366 1.720508 4294967295
2.6470006 2.0794086 1.725706 4294967295
2.6543603 2.0558336 1.732342 4294967295
2.6548126 2.0254807 1.7396451 4294967295
2.6553335 1.9948239 1.735911 4294967295
2.6531115 1.9668176 1.7307827 4294967295
2.6484168 1.9363755 1.7276291 4294967295
2.6452005 1.9090688 1.7235066 4294967295
2.6440003 1.8339738 1.7419788 4294967295
2.6531434 1.812886 1.7372576 4294967295
2.6557276 1.6939516 1.7359058 4294967295
2.6440003 1.6775432 1.7266425 4294967295
2.6551821 1.5731776 1.7317396 4294967295
2.6540005 1.554569 1.7450588 4294967295
2.6610003 1.506197 1.7436616 4294967295
2.6549501 1.4855299 1.7359364 4294967295
2.6476002 1.4623698 1.7270529 4294967295
2.6538126 1.3612672 1.7365023 4294967295
2.6564615 1.3350743 1.7436961 4294967295
2.6552498 1.304768 1.7307386 4294967295
2.6455002 1.2764568 1.7227226 4294967295
2.6496248 1.1178207 1.7245892 4294967295
2.6539409 1.0963347 1.7315274 4294967295
2.6530669 1.0648538 1.7344596 4294967295
2.6537273 1.0344156 1.7271509 4294967295
2.6470001 1.0069602 1.7218701 4294967295
2.6440001 0.9413994 1.720508 4294967295
2.6465716 0.91247886 1.7225538 4294967295
2.6532087 0.88438612 1.7357073 4294967295
2.6659999 0.86882001 1.7490537 4294967295
2.6548667 -0.91701263 1.7348815 4294967295
2.6551821 2.2233856 1.6975737 4294967295
2.6560502 2.206516 1.7121015 4294967295
2.6576667 2.1733403 1.7088808 4294967295
2.6503339 2.143635 1.7040508 4294967295
2.6516256 2.1122518 1.7006258 4294967295
2.65592 2.087852 1.7101337 4294967295
2.6550002 2.0664456 1.7193424 4294967295
2.6660001 1.9574811 1.7181258 4294967295
2.6586368 1.9346845 1.7159286 4294967295
2.6562357 1.9049909 1.7104598 4294967295
2.6523337 1.8756447 1.7034647 4294967295
2.647429 1.8499515 1.6957361 4294967295
2.6511428 1.8015697 1.7026428 4294967295
2.6537147 1.7971689 1.7046894 4294967295
2.6620002 1.6874171 1.7132291 4294967295
2.6520717 1.6664028 1.7013055 4294967295
2.6592503 1.5946609 1.6950362 4294967295
2.6530001 1.5847594 1.7092032 4294967295
2.6610713 1.4824284 1.7062026 4294967295
2.6503689 1.457626 1.7042998 4294967295
2.6440001 1.4382964 1.6959698 4294967295
2.654 1.3828323 1.7017753 4294967295
2.6567142 1.3756375 1.7148218 4294967295
2.6575 1.2725561 1.7103268 4294967295
2.6494002 1.250266 1.7008168 4294967295
2.6500001 1.2017707 1.69249 4294967295
2.6485 1.1818852 1.6941285 4294967295
2.6508501 1.152019 1.6993117 4294967295
2.6560836 1.1256858 1.7095474 4294967295
2.6581819 1.0041958 1.7162856 4294967295
2.6570003 0.97478974 1.7140688 4294967295
2.6571178 0.94316262 1.7119422 4294967295
2.6558094 0.91508383 1.7097186 4294967295
2.6606247 0.89407247 1.7141589 4294967295
2.6555295 -0.91482973 1.7065253 4294967295
2.653182 2.2239532 1.6787906 4294967295
2.6594443 2.2111232 1.6671872 4294967295
2.6660001 2.1657288 1.6830742 4294967295
2.6596251 2.1425455 1.6813107 4294967295
2.6595004 2.1217699 1.6849642 4294967295
2.6573005 1.843815 1.6864604 4294967295
2.6547697 1.8156127 1.6855886 4294967295
2.6550002 1.653722 1.6885421 4294967295
2.6564004 1.6354785 1.6866837 4294967295
2.6528573 1.6084204 1.6875917 4294967295
2.6659999 1.4750063 1.6871979 4294967295
2.6566248 1.4532616 1.6796179 4294967295
2.6510835 1.4265063 1.6703892 4294967295
2.6544287 1.3885211 1.6715647 4294967295
2.65925 1.2406701 1.6850049 4294967295
2.6535006 1.2156601 1.6850927 4294967295
2.6590002 1.1842512 1.6872134 4294967295
2.6605 1.1602298 1.68787 4294967295
2.658 -0.92684168 1.6836891 4294967295
2.6553333 -0.93155563 1.6681569 4294967295
2.651737 2.2002082 1.6479245 4294967295
2.6598573 2.1874702 1.6377764 4294967295
2.655 1.3980799 1.6577419 4294967295
2.6551998 -0.92492795 1.6344073 4294967295
2.654 -0.9316023 1.6496092 4294967295
2.6460004 2.1924531 1.6252341 4294967295
2.6531255 2.1767907 1.6133376 4294967295
2.6550002 2.1588464 1.6023014 4294967295
2.6470001 0.58318681 1.6113232 4294967295
2.6549997 0.53105235 1.6099887 4294967295
2.6551669 -0.9140361 1.6131376 4294967295
2.6440003 2.2112474 1.5732791 4294967295
2.6460004 2.1638021 1.5945383 4294967295
2.6542945 2.146297 1.583173 4294967295
2.6500001 0.61766773 1.5941148 4294967295
2.6554999 0.53885388 1.5932571 4294967295
2.6546428 -0.9091624 1.5849843 4294967295
2.6489449 2.2624967 1.5516866 4294967295
2.6503673 2.23317 1.5544876 4294967295
2.6505933 2.2040029 1.5547107 4294967295
2.6501908 2.1760159 1.5499645 4294967295
2.6531732 2.1395056 1.5535769 4294967295
2.6550002 2.128046 1.5591811 4294967295
2.6500001 0.53466362 1.5633725 4294967295
2.6536999 -0.91148925 1.5555851 4294967295
2.648 2.2623739 1.5339154 4294967295
2.6504004 2.232821 1.5256503 4294967295
2.6602609 2.205785 1.5258086 4294967295
2.661 2.1749794 1.5259264 4294967295
2.6577084 2.1471648 1.5275979 4294967295
2.6555715 -0.91476339 1.525506 4294967295
2.6526003 2.223763 1.4991591 4294967295
2.6621432 2.2167094 1.4922686 4294967295
2.6532857 -0.91221803 1.4951864 4294967295
2.6580002 2.2229469 1.4539726 4294967295
2.6532149 2.2158589 1.4687774 4294967295
2.65675 -0.89866447 1.4550761 4294967295
2.6525002 -0.90286624 1.4689627 4294967295
2.6547697 2.2325623 1.4358935 4294967295
2.6538751 -0.90307969 1.4340534 4294967295
2.6538336 2.2369039 1.4052911 4294967295
2.6440001 0.52425122 1.3953779 4294967295
2.6564002 -0.90933931 1.4056336 4294967295
2.652308 2.2271819 1.3763595 4294967295
2.6595001 2.2092071 1.3674562 4294967295
2.6537499 0.52156091 1.3785874 4294967295
2.6539998 -0.90851772 1.3740623 4294967295
2.6460004 2.2231488 1.3551106 4294967295
2.6495006 2.2028613 1.3463161 4294967295
2.6552866 2.1760828 1.3466129 4294967295
2.6574168 2.1479549 1.3386767 4294967295
2.6537147 0.51737463 1.3431675 4294967295
2.6546667 -0.90531939 1.3448493 4294967295
2.6495001 2.2527182 1.3019094 4294967295
2.6535506 2.2346067 1.3070996 4294967295
2.6522615 2.2039635 1.3130076 4294967295
2.6509669 2.1746197 1.3144197 4294967295
2.6520004 2.1502359 1.321288 4294967295
2.6561999 0.51309723 1.324223 4294967295
2.661 0.50910008 1.3145705 4294967295
2.6552 -0.90521705 1.3140678 4294967295
2.6524587 2.25702 1.2871431 4294967295
2.6660001 2.2482033 1.2851355 4294967295
2.6552 -0.89536244 1.2783446 4294967295
2.6515 -0.90559465 1.2902021 4294967295
2.6525004 2.2522018 1.2689526 4294967295
2.6548421 2.2348862 1.2553518 4294967295
2.6607504 2.2098126 1.2434987 4294967295
2.652 -0.89210027 1.2558165 4294967295
2.651228 2.2027338 1.2269349 4294967295
2.6612 2.1879594 1.2207766 4294967295
2.6524999 -0.89722937 1.2304871 4294967295
2.6570001 -0.90131813 1.2188523 4294967295
2.6483338 2.1964324 1.194042 4294967295
2.6602781 2.1854155 1.1957089 4294967295
2.6536367 -0.9061451 1.1942626 4294967295
2.6515269 2.1987484 1.162791 4294967295
2.6594446 2.1885049 1.1715059 4294967295
2.6552501 -0.91817707 1.1696208 4294967295
2.6525002 -0.9326213 1.1550961 4294967295
2.6538503 2.2025356 1.1360211 4294967295
2.6539998 -0.93930644 1.1339014 4294967295
2.6497149 2.2239218 1.0969026 4294967295
2.6545625 2.2123682 1.1059291 4294967295
2.6586001 -0.92365891 1.0967276 4294967295
2.6552501 -0.93512529 1.111099 4294967295
2.6482146 2.2261767 1.0794656 4294967295
2.6561763 2.2119901 1.0713325 4294967295
2.659143 -0.89264554 1.0654694 4294967295
2.6533334 -0.91084272 1.0773215 4294967295
2.6440003 2.2235165 1.0579786 4294967295
2.6521673 2.2049224 1.0450714 4294967295
2.6545296 -0.89128983 1.0445447 4294967295
2.6500001 -0.90100002 1.0561252 4294967295
2.6470001 2.222965 1.0033156 4294967295
2.6534646 2.2066126 1.0165794 4294967295
2.655 -0.89653993 1.0263364 4294967295
2.6552224 -0.90550643 1.0130243 4294967295
2.6541767 2.2291608 0.98651332 4294967295
2.661 2.219291 0.99969786 4294967295
2.6528571 -0.9160344 0.9850381 4294967295
2.6549332 2.2388618 0.95548677 4294967295
2.6545556 -0.90938544 0.95405662 4294967295
2.6545789 2.2285049 0.92430842 4294967295
2.6634998 0.49721882 0.92290425 4294967295
2.6537499 -0.89610511 0.92141664 4294967295
2.658 -0.9006272 0.93748689 4294967295
2.6570001 2.2221074 0.90650636 4294967295
2.655154 2.2115548 0.89012015 4294967295
2.656857 0.4994922 0.89416742 4294967295
2.6561999 -0.89693493 0.90268838 4294967295
2.6537499 -0.90226227 0.88755774 4294967295
2.6538422 2.1987233 0.86359251 4294967295
2.651 0.50103611 0.8625735 4294967295
2.661 -0.89856601 0.85152245 4294967295
2.6551821 -0.90387297 0.86479878 4294967295
2.6538804 2.1985452 0.83437562 4294967295
2.655 2.1896467 0.83845484 4294967295
2.6537499 0.50462657 0.83523703 4294967295
2.6557274 -0.89285135 0.83462268 4294967295
2.6470001 -0.90304726 0.84670401 4294967295
2.6516669 2.2545695 0.79498881 4294967295
2.6536193 2.2324686 0.80162823 4294967295
2.655833 2.2084608 0.81321251 4294967295
2.6500001 0.50699556 0.80711287 4294967295
2.6556668 -0.88511372 0.81182814 4294967295
2.6500001 -0.90100002 0.79481596 4294967295
2.6563702 2.2679079 0.77744281 4294967295
2.661 2.2439868 0.78978276 4294967295
2.6553335 0.50801593 0.78303885 4294967295
2.6516669 -0.90976 0.78268802 4294967295
2.6546502 2.2638667 0.75126833 4294967295
2.6573501 2.2371898 0.74040741 4294967295
2.6626666 2.2144992 0.73744005 4294967295
2.6516666 0.52166009 0.74783212 4294967295
2.6523602 2.2305346 0.71505827 4294967295
2.6615384 2.2145088 0.71715617 4294967295
2.6561854 2.2323689 0.68521273 4294967295
2.6659999 2.2172754 0.69750601 4294967295
2.65675 -0.97417796 0.68148422 4294967295
2.6541858 2.2306881 0.65292853 4294967295
2.6659999 0.54098451 0.6480214 4294967295
2.6565001 0.53596687 0.65989578 4294967295
2.655 -0.98739433 0.66135329 4294967295
2.6569998 -0.99173057 0.64348638 4294967295
2.6486878 2.2266822 0.62607145 4294967295
2.6536195 2.2078445 0.62047279 4294967295
2.6535714 2.1840594 0.61312783 4294967295
2.654 0.54470724 0.62279153 4294967295
2.6659999 -0.95592457 0.61090797 4294967295
2.6552 -0.97544676 0.62040335 4294967295
2.6440003 2.2100205 0.59114075 4294967295
2.6518829 2.1801777 0.59486616 4294967295
2.661 0.54614389 0.58604157 4294967295
2.6605 -0.9570325 0.58602917 4294967295
2.6535387 -0.96612543 0.59675479 4294967295
2.647625 2.2227192 0.56190151 4294967295
2.6530797 2.2077467 0.56958294 4294967295
2.655 2.1865666 0.5797326 4294967295
2.6440001 0.54265481 0.57948512 4294967295
2.6580002 0.52393246 0.57466209 4294967295
2.652 0.49384704 0.56859607 4294967295
2.6535716 0.46194667 0.56563431 4294967295
2.6545715 0.43661243 0.56301314 4294967295
2.652 0.4027687 0.56120586 4294967295
2.655 0.37243098 0.56125247 4294967295
2.6543334 0.34050393 0.56330395 4294967295
2.655143 0.31787431 0.56478596 4294967295
2.6630001 0.28704563 0.56755537 4294967295
2.6623333 0.25814021 0.56652105 4294967295
2.6584001 0.22489034 0.56747323 4294967295
2.6545713 0.19110721 0.56917214 4294967295
2.6561999 0.16305868 0.57052672 4294967295
2.6532001 0.13703293 0.56861746 4294967295
2.6586001 0.10768619 0.56747681 4294967295
2.6542857 0.077622063 0.5638923 4294967295
2.6500001 0.045861654 0.56117475 4294967295
2.6583998 0.015154328 0.56130528 4294967295
2.656857 -0.018294033 0.55952859 4294967295
2.6537499 -0.044118684 0.55893087 4294967295
2.6507001 -0.077133328 0.55811697 4294967295
2.6522 -0.10301021 0.55629021 4294967295
2.655 -0.13269335 0.55509239 4294967295
2.6608 -0.16386099 0.55516905 4294967295
2.6659999 -0.18272771 0.55523777 4294967295
2.6659999 -0.4765425 0.55523777 4294967295
2.6564002 -0.4963851 0.55511093 4294967295
2.6546669 -0.52549011 0.55783457 4294967295
2.6541665 -0.55037671 0.56021708 4294967295
2.6541665 -0.58116966 0.56021708 4294967295
2.6518571 -0.61157525 0.55945092 4294967295
2.655 -0.64397776 0.56125247 4294967295
2.6575716 -0.67278957 0.55689371 4294967295
2.6634998 -0.69857043 0.55520475 4294967295
2.6659999 -0.73633665 0.55523777 4294967295
2.664 -0.76359147 0.55521137 4294967295
2.661 -0.79360843 0.55517173 4294967295
2.6617999 -0.82473588 0.55518228 4294967295
2.6596 -0.85488516 0.55515319 4294967295
2.6478336 -0.88488948 0.55499768 4294967295
2.6567142 -0.91557646 0.56127912 4294967295
2.655875 -0.9492045 0.57205486 4294967295
2.6500001 -0.96248454 0.57962012 4294967295
2.6506667 2.2219419 0.54478425 4294967295
2.6540556 2.2104075 0.53353441 4294967295
2.6497998 -0.16318361 0.54887569 4294967295
2.655 -0.19429389 0.54893237 4294967295
2.6539998 -0.22501169 0.54892147 4294967295
2.6634998 -0.25362957 0.549025 4294967295
2.6475999 -0.28589562 0.54270881 4294967295
2.6569998 -0.31567845 0.54793173 4294967295
2.6500001 -0.34763929 0.54887789 4294967295
2.6500001 -0.37530735 0.54887789 4294967295
2.6551251 -0.40606818 0.54663152 4294967295
2.658 -0.43502697 0.54589081 4294967295
2.6524999 -0.46284279 0.54788268 4294967295
2.6470001 -0.48542586 0.54884517 4294967295
2.6500001 -0.68580419 0.54887789 4294967295
2.6511428 -0.70718569 0.54713762 4294967295
2.655 -0.73637855 0.54893237 4294967295
2.651 -0.76601839 0.54888874 4294967295
2.6488001 -0.79611009 0.54886478 4294967295
2.6464 -0.82609755 0.54883862 4294967295
2.6513846 2.1975241 0.51387745 4294967295
2.6541002 2.1858103 0.49843052 4294967295
2.6457999 2.1998551 0.46595886 4294967295
2.6537223 2.184473 0.47605449 4294967295
2.6463077 2.2254527 0.44445744 4294967295
2.6538339 2.2050834 0.44423842 4294967295
2.6569998 2.1892381 0.4544304 4294967295
2.6470001 2.222965 0.42601535 4294967295
2.6537147 2.2065947 0.41346008 4294967295
2.6531906 2.1992786 0.38416892 4294967295
2.6528571 0.87596542 0.37919846 4294967295
2.6525002 0.85914481 0.38273233 4294967295
2.6552105 2.2063336 0.35504568 4294967295
2.6476002 0.87756604 0.35965478 4294967295
2.6548891 0.86176193 0.35490713 4294967295
2.6512728 2.2287776 0.32380199 4294967295
2.6596 2.214412 0.33300173 4294967295
2.6553333 0.85096455 0.32852238 4294967295
2.6531856 2.2360048 0.29720795 4294967295
2.6440001 0.84324688 0.30956575 4294967295
2.6516089 2.2298987 0.26589942 4294967295
2.661 2.219291 0.25264698 4294967295
2.6542273 2.2063439 0.23401213 4294967295
2.6540687 2.2024462 0.20365542 4294967295
2.6537778 2.2020679 0.17493057 4294967295
2.655 2.1875932 0.16290236 4294967295
2.6470001 2.1922576 0.1557897 4294967295
2.6525884 2.1818538 0.14417127 4294967295
2.6500001 2.1916716 0.10004082 4294967295
2.6536429 2.1832354 0.11486202 4294967295
2.6513848 2.1970611 0.081362486 4294967295
2.658 2.1890337 0.092609525 4294967295
2.6512783 2.1964684 0.058835536 4294967295
2.6574285 2.1881201 0.04953444 4294967295
2.6470001 2.1922576 0.032959849 4294967295
2.6554503 2.1819909 0.024323314 4294967295
2.6548824 2.1819253 -0.0043600798 4294967295
2.6470001 2.1922576 -0.04687953 4294967295
2.6555333 2.1851432 -0.035968602 4294967295
2.6483755 2.2033749 -0.067660093 4294967295
2.6581819 2.1877778 -0.063846946 4294967295
2.6536875 2.207195 -0.094869494 4294967295
2.6541905 2.2080226 -0.12377477 4294967295
2.6536667 2.2032373 -0.15433842 4294967295
2.6532726 2.2100272 -0.18476927 4294967295
2.6517501 2.2157924 -0.21362311 4294967295
2.6541767 2.2114117 -0.24474919 4294967295
2.6522307 2.1963406 -0.2699874 4294967295
2.6538332 2.1850803 -0.28180146 4294967295
2.6490004 2.1978042 -0.30790865 4294967295
2.6579285 2.1836805 -0.30249906 4294967295
2.6535201 2.2046533 -0.33442682 4294967295
2.6605 2.2034354 -0.35223854 4294967295
2.6935 0.72779685 2.0210743 4294967295
2.6935 -0.90954059 2.0210743 4294967295
2.6745999 0.72889549 2.0012312 4294967295
2.679857 -0.91381299 2.0032492 4294967295
2.6868331 0.73222935 1.973707 4294967295
2.686111 -0.92226905 1.9778306 4294967295
2.6813333 0.73486429 1.9458643 4294967295
2.6845715 -0.91451365 1.9480125 4294967295
2.6822 0.73718977 1.918314 4294967295
2.6837502 -0.90312356 1.9160013 4294967295
2.6819999 0.73713487 1.8871065 4294967295
2.6847775 -0.89342672 1.88227 4294967295
2.6790001 0.73631042 1.8544917 4294967295
2.682333 -0.88708496 1.8526903 4294967295
2.683625 0.74068505 1.8256654 4294967295
2.6790001 -0.89469951 1.834599 4294967295
2.6813598 -0.9168697 1.8238024 4294967295
2.671 0.75270313 1.7823447 4294967295
2.6822 0.74651551 1.7938428 4294967295
2.6844666 -0.92058575 1.7949232 4294967295
2.684 1.8096684 1.7573353 4294967295
2.6821671 1.7857505 1.768953 4294967295
2.6822503 1.7547058 1.7674326 4294967295
2.6807504 1.7304062 1.7558502 4294967295
2.6990001 1.5652788 1.7517427 4294967295
2.6832726 1.5473782 1.7519097 4294967295
2.6710002 1.5242515 1.7513587 4294967295
2.6854994 0.85334468 1.7533554 4294967295
2.6839228 0.8262617 1.7558604 4294967295
2.6832304 0.7944448 1.7617747 4294967295
2.6822777 0.76450825 1.7710631 4294967295
2.6797776 -0.91456324 1.7636803 4294967295
2.6850002 2.0741723 1.7204025 4294967295
2.6831584 2.0549171 1.7284421 4294967295
2.6845832 2.0261331 1.73269 4294967295
2.6819167 1.9966285 1.7252531 4294967295
2.6710002 1.9735467 1.7203729 4294967295
2.6808751 1.8074441 1.7333435 4294967295
2.687 1.7208537 1.7364424 4294967295
2.6710002 1.7039696 1.7265701 4294967295
2.6872945 1.5795741 1.7357463 4294967295
2.6947694 1.5404681 1.732972 4294967295
2.6754289 1.5139261 1.7338871 4294967295
2.6990001 1.3805455 1.7266942 4294967295
2.6792727 1.364231 1.7353886 4294967295
2.6845 1.3351241 1.7370132 4294967295
2.6833334 1.3092347 1.7259005 4294967295
2.6989999 1.1175356 1.720432 4294967295
2.6839287 1.0957193 1.7288364 4294967295
2.6842725 1.0684012 1.7314178 4294967295
2.6846666 1.0396171 1.7230315 4294967295
2.6844618 0.87866139 1.7321466 4294967295
2.6867998 0.86686486 1.7449175 4294967295
2.6863632 -0.90654629 1.7346162 4294967295
2.6746001 2.2207015 1.6984081 4294967295
2.6791999 2.2058673 1.7007329 4294967295
2.6740003 2.1867042 1.7000031 4294967295
2.6847143 2.1037741 1.6953783 4294967295
2.684417 2.0869904 1.706143 4294967295
2.6820002 2.0687921 1.7190937 4294967295
2.6905 1.9816928 1.7166318 4294967295
2.6835556 1.9655193 1.7142428 4294967295
2.6837502 1.9362385 1.7084395 4294967295
2.6833999 1.9048663 1.6979094 4294967295
2.6740003 1.8858 1.693799 4294967295
2.6817274 1.8055546 1.70198 4294967295
2.6880002 1.7116965 1.7155396 4294967295
2.6858749 1.6955205 1.7052239 4294967295
2.6834004 1.6713878 1.6935555 4294967295
2.6873636 1.6035826 1.6976755 4294967295
2.6813335 1.5882033 1.7115332 4294967295
2.6962502 1.535533 1.7129468 4294967295
2.6849999 1.5139939 1.7079501 4294967295
2.6777999 1.4964423 1.6960773 4294967295
2.6866999 1.3842149 1.7037363 4294967295
2.6819999 1.3780727 1.7190937 4294967295
2.6843331 1.2962273 1.7139003 4294967295
2.6803749 1.2808369 1.7012483 4294967295
2.6795001 1.1436481 1.6930984 4294967295
2.6826248 1.1263123 1.7030175 4294967295
2.6889999 1.026042 1.7159662 4294967295
2.6877499 1.0058073 1.7138519 4294967295
2.6884999 0.97282344 1.7101312 4294967295
2.6854374 0.94679946 1.700745 4294967295
2.6833634 0.91577888 1.7027125 4294967295
2.6842499 0.89266354 1.7130808 4294967295
2.69625 0.82081389 1.703961 4294967295
2.69625 0.80516815 1.7004417 4294967295
2.6834614 -0.91380697 1.7053659 4294967295
2.6730003 2.2210269 1.6861266 4294967295
2.6786878 2.204123 1.6779978 4294967295
2.6794786 2.1741247 1.6692919 4294967295
2.6825554 2.1459417 1.6719558 4294967295
2.683737 2.1169605 1.6831532 4294967295
2.6990001 1.8971722 1.6891214 4294967295
2.6857271 1.8722463 1.687319 4294967295
2.6882727 1.843958 1.6833255 4294967295
2.6795001 1.8202494 1.6858436 4294967295
2.6765001 1.6546812 1.6886836 4294967295
2.683167 1.6349517 1.6874446 4294967295
2.6710002 1.611012 1.6893871 4294967295
2.6846666 1.4846367 1.6828895 4294967295
2.6843748 1.4578937 1.6695328 4294967295
2.687 1.4232315 1.663133 4294967295
2.6803637 1.3856883 1.6725712 4294967295
2.6842496 1.3768787 1.671819 4294967295
2.6877999 1.2650499 1.6867409 4294967295
2.6857693 1.2433726 1.6790528 4294967295
2.6843753 1.2134511 1.6777072 4294967295
2.6864002 1.1855316 1.6805207 4294967295
2.6840832 1.1580462 1.6857585 4294967295
2.677 -0.92881328 1.6858028 4294967295
2.6847141 -0.93236583 1.6713533 4294967295
2.6710005 2.190448 1.6522039 4294967295
2.6843691 2.1833627 1.6467084 4294967295
2.6872725 1.3926661 1.6534135 4294967295
2.6864371 1.3678672 1.6493925 4294967295
2.6989999 0.5226323 1.6390243 4294967295
2.6835554 -0.91999525 1.6436733 4294967295
2.671 -0.93292868 1.6584011 4294967295
2.6847777 2.1698768 1.616493 4294967295
2.6840003 2.1553869 1.6016468 4294967295
2.677 0.61774981 1.6112696 4294967295
2.6989999 0.54141873 1.6077135 4294967295
2.6839998 0.53113443 1.6161973 4294967295
2.6859167 -0.90695941 1.6148766 4294967295
2.6836154 2.1423321 1.5847251 4294967295
2.671 0.54199916 1.5871336 4294967295
2.677 0.53700554 1.5740031 4294967295
2.688333 -0.9057014 1.5840054 4294967295
2.6782858 2.1360526 1.5487586 4294967295
2.6710002 2.1284761 1.5654435 4294967295
2.6795001 0.53129017 1.5594549 4294967295
2.680727 -0.90804565 1.555097 4294967295
2.6770003 2.2202129 1.5118921 4294967295
2.6745002 2.2051051 1.5153053 4294967295
2.6752858 2.1779971 1.5130275 4294967295
2.6798334 2.1448276 1.521224 4294967295
2.687125 -0.91127419 1.5234206 4294967295
2.681 2.2219484 1.4962299 4294967295
2.6866255 2.2112794 1.4998757 4294967295
2.6906002 2.1759188 1.5081836 4294967295
2.6880002 2.1544964 1.5097313 4294967295
2.6805 -0.90617943 1.4955599 4294967295
2.6990001 2.250983 1.4511601 4294967295
2.6860001 2.2297416 1.4648474 4294967295
2.6807499 -0.89901537 1.4666345 4294967295
2.6859999 -0.90284181 1.4611483 4294967295
2.6880002 2.2542822 1.4317734 4294967295
2.6790001 2.2454846 1.433074 4294967295
2.6777999 -0.90672296 1.4314127 4294967295
2.6842859 2.2386768 1.4029181 4294967295
2.6764998 0.5306825 1.4061124 4294967295
2.6935 -0.9157899 1.4086416 4294967295
2.6766672 2.2261381 1.387562 4294967295
2.6828001 2.206321 1.3789678 4294967295
2.6843636 2.1776013 1.3679776 4294967295
2.6880002 2.1544964 1.3600523 4294967295
2.6871428 0.51765621 1.3713648 4294967295
2.683857 -0.90893877 1.3738623 4294967295
2.6818182 2.1517785 1.3484938 4294967295
2.6823997 0.51318133 1.3470867 4294967295
2.6819999 0.50689507 1.3332865 4294967295
2.6888001 -0.89921016 1.3403347 4294967295
2.6768003 -0.90265405 1.3478656 4294967295
2.6860001 2.2328463 1.3012521 4294967295
2.6843333 2.2054722 1.3007661 4294967295
2.6847777 2.1740358 1.3085251 4294967295
2.6766002 2.1540403 1.3204761 4294967295
2.6819999 0.50689507 1.3270638 4294967295
2.6860998 -0.89768875 1.3158357 4294967295
2.671 -0.90194285 1.3206551 4294967295
2.6833637 2.252048 1.2867125 4294967295
2.6861765 2.2431936 1.2876148 4294967295
2.6866667 2.2046802 1.297286 4294967295
2.6710002 2.1842508 1.298965 4294967295
2.6847141 -0.89321399 1.2869432 4294967295
2.6802502 2.2306602 1.2635761 4294967295
2.6860001 2.2077026 1.2518215 4294967295
2.6833999 -0.89491755 1.2589973 4294967295
2.6710002 2.190448 1.2369932 4294967295
2.6806004 2.1818125 1.2243274 4294967295
2.677 -0.89775783 1.2386038 4294967295
2.6823332 -0.90369093 1.2234485 4294967295
2.6811054 2.1787405 1.1955042 4294967295
2.6878335 -0.90866232 1.1957681 4294967295
2.6822724 2.1962757 1.1613802 4294967295
2.6790004 2.1858113 1.1744967 4294967295
2.6824 -0.92196345 1.1703513 4294967295
2.6809998 -0.93641162 1.1557043 4294967295
2.6822727 2.2081635 1.1353555 4294967295
2.6790001 -0.94069135 1.1334682 4294967295
2.6990004 2.2259345 1.1067423 4294967295
2.6776998 2.2158163 1.105216 4294967295
2.6848569 -0.91638964 1.1001003 4294967295
2.6916666 -0.93388498 1.115551 4294967295
2.6990001 2.2259345 1.0848248 4294967295
2.6797779 2.2135172 1.0742198 4294967295
2.6786668 0.50005013 1.077466 4294967295
2.6837499 -0.8875519 1.0743691 4294967295
2.675 -0.90536392 1.0870463 4294967295
2.6852725 2.203263 1.0437067 4294967295
2.6839998 -0.88514698 1.045562 4294967295
2.6989999 2.2290657 1.003417 4294967295
2.6816924 2.2073324 1.015872 4294967295
2.6989999 0.50384587 1.000286 4294967295
2.6766665 -0.89557177 1.025293 4294967295
2.6864998 -0.91028875 1.0105244 4294967295
2.6989999 2.250983 0.97523737 4294967295
2.6826427 2.2368779 0.98448533 4294967295
2.6989999 0.50384587 0.99089277 4294967295
2.6812 -0.91782892 0.98467678 4294967295
2.6851904 2.2406259 0.95392007 4294967295
2.6868 -0.90852779 0.95449066 4294967295
2.6859999 2.2309792 0.92484069 4294967295
2.6855998 0.49635282 0.92687082 4294967295
2.6813333 -0.89505792 0.92351508 4294967295
2.6833999 2.2242503 0.90411055 4294967295
2.684375 2.2138488 0.89023495 4294967295
2.6855998 0.49759224 0.89572066 4294967295
2.6831665 -0.89774263 0.89682293 4294967295
2.6817501 2.2018385 0.86498863 4294967295
2.678 0.4999257 0.86605144 4294967295
2.6821668 -0.89845109 0.86453068 4294967295
2.671 -0.90194285 0.86826122 4294967295
2.6819088 2.1971226 0.83433115 4294967295
2.6989999 0.51010799 0.82494605 4294967295
2.6764998 0.50585556 0.83171237 4294967295
2.6822999 -0.88645703 0.83551383 4294967295
2.6797776 2.2280052 0.79376101 4294967295
2.6833997 2.2099314 0.80949354 4294967295
2.688 -0.88482428 0.8112129 4294967295
2.6819999 -0.90565729 0.79191178 4294967295
2.6722858 2.2574849 0.77321172 4294967295
2.683346 2.2386253 0.7738471 4294967295
2.6819999 0.51311773 0.77324367 4294967295
2.688 -0.9201566 0.78004682 4294967295
2.6989999 -0.93331534 0.77171779 4294967295
2.671 2.2555182 0.75981069 4294967295
2.677727 2.2309468 0.75306797 4294967295
2.6862855 2.2163234 0.73891407 4294967295
2.671 0.52960479 0.74121916 4294967295
2.6819999 -0.94921619 0.74213022 4294967295
2.6802943 2.2115858 0.71454883 4294967295
2.6819999 -0.96166158 0.70479405 4294967295
2.6795001 2.2249272 0.68107772 4294967295
2.6849997 2.2133329 0.69357216 4294967295
2.671 0.53580195 0.67305022 4294967295
2.6835001 -0.97776312 0.6831075 4294967295
2.6829998 2.2289054 0.65630406 4294967295
2.671 0.54199916 0.64206433 4294967295
2.6872723 0.53281951 0.65186656 4294967295
2.6989999 0.36607882 0.64334393 4294967295
2.6941247 0.34432986 0.64546943 4294967295
2.6871426 0.31370157 0.64860678 4294967295
2.685818 0.28328067 0.64671493 4294967295
2.6849997 0.2551609 0.64582247 4294967295
