# .PCD v0.7 - Point Cloud Data file format
VERSION 0.7
FIELDS x y z rgb
SIZE 4 4 4 4
TYPE F F F U
COUNT 1 1 1 1
WIDTH 1043
HEIGHT 1
VIEWPOINT 0 0 0 1 0 0 0
POINTS 1043
DATA ascii
0.81398219 0.78632832 -0.057116836 4278190080
0.82392877 0.79039532 -0.057638448 4278190080
0.83029824 0.79095829 -0.057899255 4278190080
0.82579923 0.78119266 -0.05737764 4278190080
0.82852125 0.77830517 -0.05737764 4278190080
1.1139753 0.80845958 -0.069896393 4278190080
1.1167907 0.80456591 -0.069896393 4278190080
1.0952232 0.78323591 -0.068331555 4278190080
1.1101655 0.78807884 -0.06911397 4278190080
1.0965827 0.77269483 -0.068070747 4278190080
1.0992734 0.76886207 -0.068070747 4278190080
1.097849 0.76217246 -0.067809939 4278190080
1.1005026 0.75833595 -0.067809939 4278190080
1.1073968 0.75711501 -0.068070747 4278190080
1.1141644 0.75604892 -0.068331555 4278190080
1.1250799 0.75773346 -0.068853162 4278190080
1.131869 0.75657672 -0.06911397 4278190080
1.138664 0.75538117 -0.069374777 4278190080
1.1454645 0.75414741 -0.069635585 4278190080
1.1522697 0.75287592 -0.069896393 4278190080
1.1590806 0.75156558 -0.070157208 4278190080
1.1658957 0.75021732 -0.070418015 4278190080
1.1769243 0.75151724 -0.07093963 4278190080
1.1837584 0.75007671 -0.071200438 4278190080
1.1905962 0.74859828 -0.071461245 4278190080
1.2016748 0.74972355 -0.071982861 4278190080
1.2085298 0.74815297 -0.072243668 4278190080
1.2153888 0.74654299 -0.072504476 4278190080
1.2266451 0.74727911 -0.073026083 4278190080
1.2335196 0.74557537 -0.073286891 4278190080
1.2403966 0.74383336 -0.073547699 4278190080
1.2472769 0.74205178 -0.073808506 4278190080
1.2541597 0.74023116 -0.074069314 4278190080
1.2610446 0.73837215 -0.074330121 4278190080
1.2679322 0.73647344 -0.074590929 4278190080
1.2748214 0.73453629 -0.074851736 4278190080
1.2817129 0.73255926 -0.075112544 4278190080
1.288606 0.73054308 -0.075373352 4278190080
1.2998526 0.73093569 -0.075894967 4278190080
1.3111179 0.73125798 -0.076416582 4278190080
1.3180314 0.72909427 -0.076677389 4278190080
1.329324 0.72929209 -0.077199012 4278190080
1.3363744 0.7268008 -0.077459812 4278190080
1.3476928 0.72687185 -0.077981427 4278190080
1.3590276 0.7268734 -0.078503042 4278190080
1.3703791 0.72680384 -0.079024658 4278190080
1.3817466 0.72666389 -0.079546273 4278190080
1.3931293 0.72645408 -0.080067888 4278190080
1.4045277 0.72617286 -0.080589503 4278190080
1.4159405 0.72582161 -0.081111118 4278190080
1.4273683 0.72539872 -0.081632733 4278190080
1.4388102 0.72490484 -0.082154348 4278190080
1.4547327 0.72657174 -0.082936764 4278190080
1.4662098 0.72591996 -0.083458379 4278190080
1.4776996 0.72519767 -0.083980002 4278190080
1.4892024 0.72440314 -0.084501617 4278190080
1.5007176 0.72353709 -0.085023232 4278190080
1.5167497 0.72475302 -0.085805655 4278190080
1.528296 0.72372788 -0.08632727 4278190080
1.5443733 0.72475302 -0.087109685 4278190080
1.5559491 0.72356832 -0.0876313 4278190080
1.567661 0.72203863 -0.088152915 4278190080
1.5792571 0.72070777 -0.08867453 4278190080
1.5908629 0.71930468 -0.089196146 4278190080
1.6024776 0.71783018 -0.089717761 4278190080
1.6186657 0.71830785 -0.090500191 4278190080
1.6303049 0.7166726 -0.091021806 4278190080
1.6511089 0.71895075 -0.092065029 4278190080
1.6674887 0.71882445 -0.092847452 4278190080
1.6883564 0.72084153 -0.093890682 4278190080
1.704659 0.72077799 -0.094673105 4278190080
1.720982 0.72060835 -0.095455527 4278190080
1.7373244 0.72033352 -0.09623795 4278190080
1.7490661 0.71805793 -0.096759565 4278190080
1.7654393 0.71758837 -0.097541988 4278190080
1.7771976 0.71515006 -0.098063603 4278190080
1.7935992 0.71448523 -0.098846026 4278190080
1.8100178 0.71371454 -0.099628448 4278190080
1.8264524 0.71283889 -0.10041087 4278190080
1.842903 0.71185607 -0.10119329 4278190080
1.8594927 0.71044326 -0.10197571 4278190080
1.875973 0.70924503 -0.10275813 4278190080
1.897144 0.70969087 -0.10380137 4278190080
1.9136579 0.70826322 -0.10458378 4278190080
1.9348738 0.70844567 -0.10562702 4278190080
1.9561137 0.7084896 -0.10667024 4278190080
1.9726771 0.70670879 -0.10745267 4278190080
1.9939578 0.7064895 -0.1084959 4278190080
2.0152609 0.70612913 -0.10953913 4278190080
2.0365858 0.70562857 -0.11058236 4278190080
2.0532074 0.70337057 -0.11136478 4278190080
2.0745676 0.70260566 -0.11240801 4278190080
2.0959468 0.70170116 -0.11345124 4278190080
2.1173451 0.70065486 -0.11449447 4278190080
2.1387615 0.6994676 -0.1155377 4278190080
2.1601946 0.69814044 -0.11658093 4278190080
2.1864016 0.69818985 -0.11788497 4278190080
2.2126341 0.69806588 -0.119189 4278190080
2.2341259 0.69628042 -0.12023224 4278190080
2.2556317 0.69435328 -0.12127547 4278190080
2.2820489 0.69333923 -0.1225795 4278190080
2.3083682 0.69254416 -0.12388355 4278190080
2.3347094 0.69157243 -0.12518758 4278190080
2.3610718 0.69042522 -0.12649162 4278190080
2.3874543 0.68910354 -0.12779565 4278190080
2.413856 0.68760467 -0.12909968 4278190080
2.4450827 0.68728226 -0.13066453 4278190080
2.471525 0.68541455 -0.13196857 4278190080
2.4979835 0.68337041 -0.1332726 4278190080
2.5293977 0.68201011 -0.13483746 4278190080
2.5558903 0.67959285 -0.13614149 4278190080
2.5919383 0.67998284 -0.13796714 4278190080
2.5749595 0.66592979 -0.13692391 4278190080
2.4514678 0.62487078 -0.13014291 4278190080
2.3278244 0.58427703 -0.12336193 4278190080
2.3153079 0.57255256 -0.1225795 4278190080
2.3318467 0.56801188 -0.12336193 4278190080
2.3338153 0.55986828 -0.12336193 4278190080
2.3308957 0.5505712 -0.12310112 4278190080
2.3328032 0.542431 -0.12310112 4278190080
2.3298151 0.53317159 -0.12284032 4278190080
2.3316622 0.52503526 -0.12284032 4278190080
2.3286057 0.51581264 -0.1225795 4278190080
2.3303919 0.50768191 -0.1225795 4278190080
2.33215 0.49954373 -0.1225795 4278190080
2.3387654 0.49242949 -0.12284032 4278190080
2.3404703 0.4842622 -0.12284032 4278190080
2.3470395 0.47708359 -0.12310112 4278190080
2.3535869 0.46986631 -0.12336193 4278190080
2.3552129 0.46164736 -0.12336193 4278190080
2.3617129 0.4543674 -0.12362273 4278190080
2.3583784 0.44519404 -0.12336193 4278190080
2.3500986 0.43514037 -0.12284032 4278190080
2.3811557 0.43187073 -0.12440515 4278190080
2.4760551 0.44016033 -0.1293605 4278190080
2.5857975 0.45036408 -0.13509826 4278190080
2.5627434 0.43713677 -0.13379423 4278190080
2.5051534 0.41832051 -0.13066453 4278190080
2.5312378 0.41359881 -0.13196857 4278190080
2.5277355 0.40397209 -0.13170776 4278190080
2.52913 0.395147 -0.13170776 4278190080
2.5502381 0.38932994 -0.13275099 4278190080
2.5663974 0.38263535 -0.13353342 4278190080
2.582541 0.37583131 -0.13431585 4278190080
2.5937245 0.36821735 -0.13483746 4278190080
2.5999398 0.35984671 -0.13509826 4278190080
2.6061287 0.35143578 -0.13535908 4278190080
2.6073394 0.34233737 -0.13535908 4278190080
2.6085186 0.33323342 -0.13535908 4278190080
2.6096659 0.32412541 -0.13535908 4278190080
2.605824 0.31441668 -0.13509826 4278190080
2.6069057 0.30531821 -0.13509826 4278190080
2.6029942 0.29565388 -0.13483746 4278190080
2.6040106 0.28656536 -0.13483746 4278190080
2.6000779 0.27649164 -0.13457665 4278190080
2.6010273 0.26741344 -0.13457665 4278190080
2.60199 0.25787878 -0.13457665 4278190080
2.6027873 0.24970347 -0.13457665 4278190080
2.6036429 0.24061596 -0.13457665 4278190080
2.6044672 0.23152554 -0.13457665 4278190080
2.6052983 0.22197853 -0.13457665 4278190080
2.6060572 0.21288382 -0.13457665 4278190080
2.6018064 0.20339598 -0.13431585 4278190080
2.6024666 0.19476685 -0.13431585 4278190080
2.6031308 0.18568081 -0.13431585 4278190080
2.6037629 0.17659388 -0.13431585 4278190080
2.5994096 0.1667302 -0.13405503 4278190080
2.5999758 0.157655 -0.13405503 4278190080
2.6005104 0.14857787 -0.13405503 4278190080
2.6009886 0.13995335 -0.13405503 4278190080
2.5964973 0.13016969 -0.13379423 4278190080
2.596936 0.12110625 -0.13379423 4278190080
2.597343 0.11203997 -0.13379423 4278190080
2.5977182 0.10297231 -0.13379423 4278190080
2.5980618 0.093904786 -0.13379423 4278190080
2.5983737 0.084834732 -0.13379423 4278190080
2.598654 0.075765029 -0.13379423 4278190080
2.5989027 0.066693015 -0.13379423 4278190080
2.5991197 0.057620198 -0.13379423 4278190080
2.5993049 0.048548054 -0.13379423 4278190080
2.5994585 0.03947394 -0.13379423 4278190080
2.5945876 0.030342335 -0.13353342 4278190080
2.5946777 0.021284796 -0.13353342 4278190080
2.5947361 0.012226999 -0.13353342 4278190080
2.594763 0.0031704344 -0.13353342 4278190080
2.5947583 -0.0058873296 -0.13353342 4278190080
2.5947218 -0.014944691 -0.13353342 4278190080
2.5946538 -0.024001868 -0.13353342 4278190080
2.5945544 -0.033058755 -0.13353342 4278190080
2.5944231 -0.042115238 -0.13353342 4278190080
2.5942602 -0.05117121 -0.13353342 4278190080
2.5940659 -0.060226556 -0.13353342 4278190080
2.5938399 -0.069281168 -0.13353342 4278190080
2.5935822 -0.078334935 -0.13353342 4278190080
2.5932777 -0.087840363 -0.13353342 4278190080
2.5929554 -0.096892059 -0.13353342 4278190080
2.5926013 -0.10594257 -0.13353342 4278190080
2.5922155 -0.11499179 -0.13353342 4278190080
2.5917985 -0.12403961 -0.13353342 4278190080
2.5913496 -0.13308592 -0.13353342 4278190080
2.5908694 -0.14213061 -0.13353342 4278190080
2.5903573 -0.15117356 -0.13353342 4278190080
2.5898139 -0.16021468 -0.13353342 4278190080
2.5892389 -0.16925384 -0.13353342 4278190080
2.5886323 -0.17829095 -0.13353342 4278190080
2.5929744 -0.18768634 -0.13379423 4278190080
2.5923035 -0.19673638 -0.13379423 4278190080
2.5916009 -0.20578401 -0.13379423 4278190080
2.5908668 -0.21482912 -0.13379423 4278190080
2.5901012 -0.22387163 -0.13379423 4278190080
2.589304 -0.23291141 -0.13379423 4278190080
2.5884752 -0.24194835 -0.13379423 4278190080
2.5876148 -0.25098234 -0.13379423 4278190080
2.5867231 -0.26001325 -0.13379423 4278190080
2.5857997 -0.26904103 -0.13379423 4278190080
2.5898092 -0.27859956 -0.13405503 4278190080
2.5888209 -0.28763801 -0.13405503 4278190080
2.587801 -0.29667291 -0.13405503 4278190080
2.5867498 -0.30570421 -0.13405503 4278190080
2.5856669 -0.31473181 -0.13405503 4278190080
2.5845525 -0.32375553 -0.13405503 4278190080
2.5834067 -0.33277535 -0.13405503 4278190080
2.5822294 -0.34179109 -0.13405503 4278190080
2.5810206 -0.35080266 -0.13405503 4278190080
2.5797803 -0.35980996 -0.13405503 4278190080
2.5785086 -0.36881292 -0.13405503 4278190080
2.5821459 -0.3785356 -0.13431585 4278190080
2.5808089 -0.38754666 -0.13431585 4278190080
2.5794404 -0.39655298 -0.13431585 4278190080
2.6347117 -0.41918305 -0.045899827 4278190080
2.6332324 -0.42837736 -0.045899827 4278190080
2.631721 -0.43756643 -0.045899827 4278190080
2.6351063 -0.4475874 -0.045987092 4278190080
2.633528 -0.45678291 -0.045987092 4278190080
2.6319175 -0.46597284 -0.045987092 4278190080
2.6351943 -0.47604579 -0.046074349 4278190080
2.6335166 -0.48524144 -0.046074349 4278190080
2.6318066 -0.4944312 -0.046074349 4278190080
2.6300647 -0.5036149 -0.046074349 4278190080
2.6331079 -0.51420939 -0.046161614 4278190080
2.6312969 -0.52339751 -0.046161614 4278190080
2.6294539 -0.53257924 -0.046161614 4278190080
2.627579 -0.54175448 -0.046161614 4278190080
2.6257679 -0.55046493 -0.046161614 4278190080
2.6238303 -0.55962718 -0.046161614 4278190080
2.6267464 -0.56984252 -0.046248876 4278190080
2.6247413 -0.5790081 -0.046248876 4278190080
2.6275823 -0.58926064 -0.046336137 4278190080
2.6255095 -0.59842902 -0.046336137 4278190080
2.6234045 -0.60759008 -0.046336137 4278190080
2.6212678 -0.61674374 -0.046336137 4278190080
2.6190989 -0.62588996 -0.046336137 4278190080
2.6217563 -0.6362074 -0.046423398 4278190080
2.6194069 -0.64581233 -0.046423398 4278190080
2.6219864 -0.65616554 -0.046510663 4278190080
2.6196799 -0.66531396 -0.046510663 4278190080
2.6221826 -0.67570174 -0.046597924 4278190080
2.619808 -0.68485075 -0.046597924 4278190080
2.6222339 -0.69527274 -0.046685185 4278190080
2.619791 -0.70442182 -0.046685185 4278190080
2.617316 -0.71356225 -0.046685185 4278190080
2.6196277 -0.72402579 -0.046772446 4278190080
2.6170845 -0.73316556 -0.046772446 4278190080
2.6193187 -0.74366188 -0.046859711 4278190080
2.6215112 -0.75418264 -0.046946973 4278190080
2.6188626 -0.76332885 -0.046946973 4278190080
2.6209767 -0.77388144 -0.047034234 4278190080
2.6182594 -0.78302556 -0.047034234 4278190080
2.6155102 -0.79216027 -0.047034234 4278190080
2.6175086 -0.80275106 -0.047121499 4278190080
2.6146908 -0.81188303 -0.047121499 4278190080
2.6167533 -0.82204747 -0.04720876 4278190080
2.613868 -0.83117658 -0.04720876 4278190080
2.6155627 -0.84228379 -0.047296021 4278190080
2.6126065 -0.85140866 -0.047296021 4278190080
2.6142159 -0.86254501 -0.047383282 4278190080
2.6159313 -0.87324804 -0.047470547 4278190080
2.6130209 -0.88191801 -0.047470547 4278190080
2.6146576 -0.89264899 -0.047557805 4278190080
2.6115258 -0.90177035 -0.047557805 4278190080
2.6130819 -0.91252905 -0.04764507 4278190080
2.6098807 -0.92164487 -0.04764507 4278190080
2.6113555 -0.93243045 -0.047732331 4278190080
2.6127872 -0.94323772 -0.047819592 4278190080
2.6094787 -0.95235229 -0.047819592 4278190080
2.6108286 -0.96318555 -0.047906853 4278190080
2.6121349 -0.97403991 -0.047994118 4278190080
2.6088905 -0.98269665 -0.047994118 4278190080
2.6101165 -0.99357593 -0.048081379 4278190080
2.6112983 -1.0044758 -0.048168641 4278190080
2.6124358 -1.0153958 -0.048255902 4278190080
2.6088753 -1.0245087 -0.048255902 4278190080
2.6099303 -1.0354527 -0.048343167 4278190080
2.6062999 -1.0445569 -0.048343167 4278190080
2.6072717 -1.0555241 -0.048430424 4278190080
2.6035714 -1.0646187 -0.048430424 4278190080
2.60446 -1.0756087 -0.048517689 4278190080
2.6053035 -1.0866178 -0.04860495 4278190080
2.606102 -1.097646 -0.048692212 4278190080
2.6068549 -1.1086928 -0.048779473 4278190080
2.6075628 -1.1197582 -0.048866738 4278190080
2.603441 -1.129308 -0.048866738 4278190080
2.6040626 -1.1403942 -0.048953999 4278190080
2.6048393 -1.151044 -0.04904126 4278190080
2.6008055 -1.1601295 -0.04904126 4278190080
2.6012983 -1.1712534 -0.049128521 4278190080
2.6017456 -1.182395 -0.049215786 4278190080
2.6021466 -1.1935538 -0.049303047 4278190080
2.6025009 -1.2047298 -0.049390309 4278190080
2.6028092 -1.215923 -0.049477573 4278190080
2.603071 -1.2271326 -0.049564831 4278190080
2.6032863 -1.2383591 -0.049652096 4278190080
2.5989478 -1.2474387 -0.049652096 4278190080
2.5990767 -1.258682 -0.049739357 4278190080
2.599159 -1.2699416 -0.049826622 4278190080
2.5994179 -1.2807631 -0.049913879 4278190080
2.5994081 -1.2920543 -0.050001144 4278190080
2.5991235 -1.3038144 -0.050088406 4278190080
2.5990174 -1.3151363 -0.050175667 4278190080
2.6033163 -1.3287461 -0.050350193 4278190080
2.603107 -1.3401134 -0.050437454 4278190080
2.6028502 -1.3514956 -0.050524715 4278190080
2.5981166 -1.3605729 -0.050524715 4278190080
2.5980115 -1.371515 -0.050611977 4278190080
2.5932081 -1.3805754 -0.050611977 4278190080
2.592535 -1.3924363 -0.050699241 4278190080
2.5920544 -1.4038582 -0.050786499 4278190080
2.591526 -1.4152937 -0.050873764 4278190080
2.5909491 -1.4267427 -0.050961025 4278190080
2.5903237 -1.4382049 -0.051048286 4278190080
2.5940123 -1.452122 -0.051222812 4278190080
2.593281 -1.4636251 -0.051310074 4278190080
2.5968466 -1.4776132 -0.0514846 4278190080
2.5960093 -1.4891564 -0.051571861 4278190080
2.5951233 -1.5007118 -0.051659122 4278190080
2.5901325 -1.5093092 -0.051659122 4278190080
2.5891585 -1.5208732 -0.051746383 4278190080
2.588136 -1.5324489 -0.051833648 4278190080
2.5870636 -1.5440359 -0.051920906 4278190080
2.5902257 -1.5582111 -0.052095432 4278190080
2.5890458 -1.5698352 -0.052182697 4278190080
2.5878158 -1.58147 -0.052269954 4278190080
2.5907929 -1.595737 -0.05244448 4278190080
2.5809596 -1.6021342 -0.052357219 4278190080
2.5823984 -1.6281121 -0.052619003 4278190080
1.0907359 -0.70373994 -0.021990033 4278190080
1.075699 -0.69936806 -0.021728246 4278190080
1.0523424 -0.68942076 -0.021291936 4278190080
1.0391786 -0.69121319 -0.02111741 4278190080
1.0384709 -0.70124882 -0.021204673 4278190080
1.04015 -0.70768172 -0.021291936 4278190080
1.026957 -0.70924407 -0.02111741 4278190080
0.13607784 -0.74582809 -0.012565732 4278190080
0.12995309 -0.72661394 -0.012216684 4278190080
0.13000482 -0.74183571 -0.01247847 4278190080
0.1189569 -0.69301319 -0.011605849 4278190080
0.12233704 -0.72793496 -0.012216684 4278190080
0.22300798 -2.3724346 -0.040925894 4278190080
0.21562605 -2.3831563 -0.041100416 4278190080
0.20643988 -2.3739336 -0.040925894 4278190080
0.19981474 -2.3945675 -0.041274942 4278190080
0.19065839 -2.3852837 -0.041100416 4278190080
0.18233116 -2.3859346 -0.041100416 4278190080
0.17363787 -2.3815706 -0.041013155 4278190080
0.16573955 -2.3821332 -0.041013155 4278190080
0.15775274 -2.3876858 -0.041100416 4278190080
0.14941733 -2.3882217 -0.041100416 4278190080
0.03118721 -0.89757735 -0.015009069 4278190080
0.024920205 -0.89777315 -0.015009069 4278190080
0.021665018 -0.89285696 -0.014921807 4278190080
0.018652106 -0.89792526 -0.015009069 4278190080
0.0154312 -0.89298642 -0.014921807 4278190080
0.012539747 -0.89803141 -0.015009069 4278190080
0.0094048837 -0.89806974 -0.015009069 4278190080
0.0062700263 -0.8980971 -0.015009069 4278190080
0.0031349724 -0.89811349 -0.015009069 4278190080
5.4993925e-17 -0.89811897 -0.015009069 4278190080
-0.0031349724 -0.89811349 -0.015009069 4278190080
-0.0062700263 -0.8980971 -0.015009069 4278190080
-0.0094048837 -0.89806974 -0.015009069 4278190080
-0.012330346 -0.88303518 -0.014747282 4278190080
-0.015150845 -0.86799133 -0.014485497 4278190080
-0.017821515 -0.85794002 -0.014310973 4278190080
-0.019967239 -0.8228882 -0.013700139 4278190080
-0.024365349 -0.87778395 -0.014660021 4278190080
-0.026492361 -0.84771276 -0.014136449 4278190080
-0.035199448 -0.72228849 -0.011954898 4278190080
-0.042188451 -0.75696558 -0.012565732 4278190080
-0.038326915 -0.64702296 -0.010645968 4278190080
-0.041408826 -0.6618607 -0.010907754 4278190080
-0.043718863 -0.66171217 -0.010907754 4278190080
-0.043946523 -0.63163239 -0.010384182 4278190080
-0.046515424 -0.63646108 -0.010471444 4278190080
-0.052554738 -0.68614119 -0.011344064 4278190080
-0.06173585 -0.77066922 -0.012827518 4278190080
-0.071090959 -0.85015869 -0.014223712 4278190080
-0.077096015 -0.88476789 -0.014834545 4278190080
-0.080183916 -0.88449341 -0.014834545 4278190080
-0.082802109 -0.87923092 -0.014747282 4278190080
-0.085870758 -0.87893653 -0.014747282 4278190080
-0.088938251 -0.87863141 -0.014747282 4278190080
-0.092004776 -0.87831563 -0.014747282 4278190080
-0.095608242 -0.88295931 -0.014834545 4278190080
-0.098689713 -0.88262016 -0.014834545 4278190080
-0.10234297 -0.8872366 -0.014921807 4278190080
-0.1052845 -0.88689238 -0.014921807 4278190080
-0.10837977 -0.88651943 -0.014921807 4278190080
-0.11131901 -0.88615513 -0.014921807 4278190080
-0.11441155 -0.8857612 -0.014921807 4278190080
-0.11750269 -0.88535643 -0.014921807 4278190080
-0.12059251 -0.88494086 -0.014921807 4278190080
-0.12368076 -0.88451451 -0.014921807 4278190080
-0.12676761 -0.88407737 -0.014921807 4278190080
-0.12985279 -0.8836295 -0.014921807 4278190080
-0.13293639 -0.88317084 -0.014921807 4278190080
-0.13677986 -0.88764238 -0.015009069 4278190080
-0.13987742 -0.88715953 -0.015009069 4278190080
-0.14297341 -0.88666582 -0.015009069 4278190080
-0.14606753 -0.88616139 -0.015009069 4278190080
-0.14931448 -0.88562006 -0.015009069 4278190080
-0.15155658 -0.88016671 -0.014921807 4278190080
-0.15432096 -0.87968624 -0.014921807 4278190080
-0.15739076 -0.87914222 -0.014921807 4278190080
-0.16045853 -0.87858748 -0.014921807 4278190080
-0.16352448 -0.87802202 -0.014921807 4278190080
-0.16658829 -0.87744582 -0.014921807 4278190080
-0.16965009 -0.87685901 -0.014921807 4278190080
-0.17255697 -0.87629157 -0.014921807 4278190080
-0.1756147 -0.8756839 -0.014921807 4278190080
-0.17967051 -0.87996376 -0.015009069 4278190080
-0.18274102 -0.87933123 -0.015009069 4278190080
-0.18580942 -0.87868798 -0.015009069 4278190080
-0.18887542 -0.87803406 -0.015009069 4278190080
-0.19193915 -0.8773694 -0.015009069 4278190080
-0.19500063 -0.87669402 -0.015009069 4278190080
-0.19805963 -0.87600803 -0.015009069 4278190080
-0.20111634 -0.87531132 -0.015009069 4278190080
-0.20401779 -0.87463957 -0.015009069 4278190080
-0.20706968 -0.87392211 -0.015009069 4278190080
-0.21011892 -0.87319398 -0.015009069 4278190080
-0.21316573 -0.87245518 -0.015009069 4278190080
-0.21620981 -0.87170577 -0.015009069 4278190080
-0.21925128 -0.87094581 -0.015009069 4278190080
-0.22090177 -0.86537004 -0.014921807 4278190080
-0.22266769 -0.85975409 -0.014834545 4278190080
-0.22566751 -0.8589716 -0.014834545 4278190080
-0.23381308 -0.87750149 -0.015183594 4278190080
-0.23557077 -0.87185377 -0.015096332 4278190080
-0.21070337 -0.6760751 -0.011693112 4278190080
-0.21306208 -0.67533547 -0.011693112 4278190080
-0.229105 -0.71744853 -0.01247847 4278190080
-0.21611741 -0.66911232 -0.011605849 4278190080
-0.21534541 -0.65885019 -0.011431326 4278190080
-0.21136509 -0.63910884 -0.011082278 4278190080
-0.20249069 -0.60518086 -0.010471444 4278190080
-0.21090445 -0.62344855 -0.010820492 4278190080
-0.20984234 -0.61324859 -0.010645968 4278190080
-0.21852173 -0.63140959 -0.010995016 4278190080
-0.32313082 -0.86471277 -0.01544538 4278190080
-0.32084846 -0.84954911 -0.015183594 4278190080
-0.32737714 -0.8577652 -0.015358117 4278190080
-0.32677147 -0.84728849 -0.015183594 4278190080
-0.33335745 -0.8554588 -0.015358117 4278190080
-0.3363415 -0.85428995 -0.015358117 4278190080
-0.34116918 -0.85775596 -0.01544538 4278190080
-0.3458747 -0.86125904 -0.015532642 4278190080
-0.35263744 -0.86931157 -0.015707165 4278190080
-0.35756508 -0.87270141 -0.015794428 4278190080
-0.36060926 -0.87144792 -0.015794428 4278190080
-0.36542386 -0.87486035 -0.015881689 4278190080
-0.36847553 -0.87357938 -0.015881689 4278190080
-0.37152261 -0.87228787 -0.015881689 4278190080
-0.37456515 -0.87098575 -0.015881689 4278190080
-0.37760323 -0.86967289 -0.015881689 4278190080
-0.3806366 -0.86834955 -0.015881689 4278190080
-0.38568848 -0.87158716 -0.01596895 4278190080
-0.39076743 -0.87480015 -0.016056214 4278190080
-0.39381862 -0.87343079 -0.016056214 4278190080
-1.0585197 -2.2845604 -0.043281969 4278190080
-1.0622528 -2.2717946 -0.043107443 4278190080
-1.06591 -2.2590301 -0.04293292 4278190080
-1.0737888 -2.2552958 -0.04293292 4278190080
-1.0838196 -2.2560399 -0.043020181 4278190080
-1.0938686 -2.2567415 -0.043107443 4278190080
-1.1039355 -2.2574005 -0.043194704 4278190080
-1.1140206 -2.2580166 -0.043281969 4278190080
-1.1218957 -2.2541142 -0.043281969 4278190080
-1.1316068 -2.2548494 -0.04336923 4278190080
-1.1417286 -2.2553461 -0.043456491 4278190080
-1.151868 -2.2557993 -0.043543752 4278190080
-1.1620241 -2.2562094 -0.043631017 4278190080
-1.172197 -2.2565756 -0.043718275 4278190080
-1.182387 -2.2568984 -0.04380554 4278190080
-1.1925931 -2.2571776 -0.043892801 4278190080
-1.202816 -2.2574129 -0.043980066 4278190080
-1.2106884 -2.2532005 -0.043980066 4278190080
-1.2209276 -2.2533562 -0.044067323 4278190080
-1.2283933 -2.249295 -0.044067323 4278190080
-1.2386488 -2.2493727 -0.044154588 4278190080
-1.2489198 -2.2494059 -0.044241849 4278190080
-1.2616479 -2.2537572 -0.044416372 4278190080
-1.2670504 -2.2449858 -0.044329111 4278190080
-1.2773513 -2.2448945 -0.044416372 4278190080
-1.2876672 -2.2447586 -0.044503637 4278190080
-0.43204397 -0.7181899 -0.013961924 4278190080
-0.41640452 -0.68675369 -0.01335109 4278190080
-1.4224863 -2.2746871 -0.046161614 4278190080
-1.4463725 -2.2773609 -0.046423398 4278190080
-1.4408388 -2.2512448 -0.045987092 4278190080
-1.4568169 -2.2588055 -0.046248876 4278190080
-1.4592441 -2.2453229 -0.046074349 4278190080
-1.4725507 -2.24858 -0.046248876 4278190080
-1.4803907 -2.2434261 -0.046248876 4278190080
-1.490981 -2.2424078 -0.046336137 4278190080
-1.5015817 -2.241343 -0.046423398 4278190080
-1.5121932 -2.2402318 -0.046510663 4278190080
-1.5256269 -2.243207 -0.046685185 4278190080
-1.5362735 -2.2419918 -0.046772446 4278190080
-1.5469306 -2.2407296 -0.046859711 4278190080
-1.5575973 -2.2394204 -0.046946973 4278190080
-1.5707513 -2.2424321 -0.047121499 4278190080
-1.5814515 -2.24102 -0.04720876 4278190080
-1.5921614 -2.2395606 -0.047296021 4278190080
-1.60288 -2.2380536 -0.047383282 4278190080
-1.6165324 -2.2405534 -0.047557805 4278190080
-1.627283 -2.238941 -0.04764507 4278190080
-1.6409949 -2.2413144 -0.047819592 4278190080
-1.651776 -2.2395957 -0.047906853 4278190080
-1.6655462 -2.2418423 -0.048081379 4278190080
-1.6763569 -2.2400174 -0.048168641 4278190080
-1.6867844 -2.2384386 -0.048255902 4278190080
-1.6976103 -2.2365191 -0.048343167 4278190080
-1.7114798 -2.2385225 -0.048517689 4278190080
-1.7223334 -2.2364955 -0.04860495 4278190080
-1.733194 -2.2344201 -0.048692212 4278190080
-1.7471386 -2.2362354 -0.048866738 4278190080
-1.7549337 -2.2301233 -0.048866738 4278190080
-1.7720232 -2.2357373 -0.049128521 4278190080
-1.7829361 -2.2334449 -0.049215786 4278190080
-1.7938539 -2.2311041 -0.049303047 4278190080
-0.58449489 -0.70153248 -0.015270855 4278190080
-0.56765944 -0.67651016 -0.014747282 4278190080
-1.9532219 -2.2477164 -0.051310074 4278190080
-1.9544712 -2.2333608 -0.051135547 4278190080
-1.9688659 -2.234026 -0.051310074 4278190080
-1.9799706 -2.2308788 -0.051397335 4278190080
-1.9940193 -2.2317567 -0.051571861 4278190080
-2.0051413 -2.2284992 -0.051659122 4278190080
-2.0196214 -2.2288957 -0.051833648 4278190080
-2.037499 -2.2329104 -0.052095432 4278190080
-2.0520458 -2.2331469 -0.052269954 4278190080
-2.0666192 -2.233309 -0.05244448 4278190080
-2.0778105 -2.2297392 -0.052531742 4278190080
-2.0924227 -2.2297637 -0.052706268 4278190080
-2.1036274 -2.2260792 -0.052793525 4278190080
-2.1182775 -2.2259657 -0.052968051 4278190080
-2.1329525 -2.2257771 -0.053142574 4278190080
-2.1476517 -2.225513 -0.0533171 4278190080
-2.1619871 -2.2255504 -0.053491622 4278190080
-2.1767342 -2.2251377 -0.053666152 4278190080
-2.1915054 -2.2246482 -0.053840674 4278190080
-2.2062988 -2.2240834 -0.054015197 4278190080
-2.2242596 -2.2273669 -0.05427698 4278190080
-2.2355659 -2.2231147 -0.054364245 4278190080
-2.2504265 -2.2223232 -0.054538772 4278190080
-2.2617395 -2.2179544 -0.054626029 4278190080
-0.71008092 -0.67266488 -0.016405262 4278190080
-0.71970719 -0.67703295 -0.016579786 4278190080
-2.4632599 -2.237468 -0.057418417 4278190080
-2.4524939 -2.2121141 -0.056982104 4278190080
-2.4676483 -2.2102106 -0.05715663 4278190080
-2.4753489 -2.2015829 -0.05715663 4278190080
-2.5928216 -2.2420156 -0.059163656 4278190080
-2.6154118 -2.2464345 -0.059512705 4278190080
-2.5890038 -2.2080946 -0.058727346 4278190080
-2.6539214 -2.2475049 -0.060036276 4278190080
-2.6426191 -2.2221403 -0.059599966 4278190080
-2.6618719 -2.2225146 -0.059861749 4278190080
-2.665765 -2.2100191 -0.059774492 4278190080
-2.6966217 -2.2197638 -0.060298063 4278190080
-2.708225 -2.2135005 -0.060385328 4278190080
-3.0621343 -2.2966089 -0.066144623 4278190080
-3.0621126 -2.2799351 -0.065970093 4278190080
-3.0780926 -2.2751756 -0.066144623 4278190080
-3.0618322 -2.2466724 -0.065621048 4278190080
-3.0736966 -2.2389145 -0.065708309 4278190080
-3.0612381 -2.2135246 -0.065272003 4278190080
-3.0933139 -2.2203164 -0.065795571 4278190080
-3.0925179 -2.2042429 -0.065621048 4278190080
-3.1124363 -2.2020969 -0.065882832 4278190080
-3.1323774 -2.1998386 -0.066144623 4278190080
-3.1564415 -2.2003269 -0.066493668 4278190080
-3.1805477 -2.2006729 -0.066842712 4278190080
-3.204694 -2.2008781 -0.067191765 4278190080
-3.2247493 -2.1981258 -0.067453548 4278190080
-3.2406838 -2.1924586 -0.067628078 4278190080
-3.248317 -2.1811335 -0.067628078 4278190080
-3.4808586 -2.1996565 -0.071205817 4278190080
-3.4969859 -2.1928046 -0.07138034 4278190080
-3.5131085 -2.1858668 -0.071554862 4278190080
-3.5334785 -2.1814692 -0.071816646 4278190080
-3.5623868 -2.1821787 -0.072252959 4278190080
-3.5870712 -2.1801155 -0.072602011 4278190080
-3.6160648 -2.1804888 -0.073038317 4278190080
-3.6408145 -2.1781194 -0.07338737 4278190080
-3.6741898 -2.1807072 -0.073910944 4278190080
-3.7033186 -2.1805513 -0.07434725 4278190080
-3.7195418 -2.1726534 -0.074521773 4278190080
-3.7227774 -2.1571503 -0.074434511 4278190080
-2.9376628 -1.5950208 -0.057680201 4278190080
-2.9256055 -1.5752765 -0.057331152 4278190080
-2.8781669 -1.5367985 -0.05628401 4278190080
-2.7642241 -1.4635808 -0.053927936 4278190080
-2.7471843 -1.4423039 -0.053491622 4278190080
-2.7344646 -1.4234722 -0.053142574 4278190080
-2.721647 -1.404747 -0.052793525 4278190080
-1.2667717 -0.62607765 -0.023997059 4278190080
-1.2734388 -0.62385142 -0.02408432 4278190080
-2.805053 -1.2907737 -0.053229839 4278190080
-2.7913468 -1.2726781 -0.05288079 4278190080
-2.8046627 -1.2675329 -0.053055316 4278190080
-2.8090703 -1.2577345 -0.053055316 4278190080
-2.8406668 -1.2481484 -0.053491622 4278190080
-1.4536953 -0.62666196 -0.026963968 4278190080
-1.4327786 -0.61201888 -0.026527658 4278190080
-3.1657934 -1.2745662 -0.058901872 4278190080
-3.1052072 -1.2375954 -0.057680201 4278190080
-3.0723047 -1.2120717 -0.056982104 4278190080
-1.6118108 -0.62291598 -0.029494565 4278190080
-1.5859592 -0.60657036 -0.028970994 4278190080
-2.1519628 -0.80587041 -0.039442439 4278190080
-3.1673322 -1.1735175 -0.058291037 4278190080
-3.2324293 -1.1848209 -0.059425443 4278190080
-3.2177463 -1.1667134 -0.059076395 4278190080
-1.7625616 -0.61862189 -0.031937901 4278190080
-1.7363729 -0.60263091 -0.03141433 4278190080
-3.7667794 -1.2779166 -0.068762481 4278190080
-3.7332993 -1.2520428 -0.068064384 4278190080
-3.6996844 -1.2264194 -0.067366287 4278190080
-3.6754382 -1.204159 -0.066842712 4278190080
-3.7396131 -1.1676241 -0.067715332 4278190080
-3.6958938 -1.1398304 -0.066842712 4278190080
-3.6950676 -1.1254659 -0.066755451 4278190080
-3.6750369 -1.1053615 -0.066319145 4278190080
-3.7333753 -1.0662985 -0.067104504 4278190080
-3.6889565 -1.0396987 -0.066231877 4278190080
-3.6492152 -1.0147606 -0.065446526 4278190080
-2.1871114 -0.5999673 -0.038918868 4278190080
-2.1649616 -0.58617848 -0.038482554 4278190080
-3.7319212 -0.99647534 -0.066755451 4278190080
-3.6967008 -0.9732601 -0.066057354 4278190080
-2.3202889 -0.58496904 -0.041100416 4278190080
-2.3222158 -0.577272 -0.041100416 4278190080
-3.6784713 -0.86006898 -0.065272003 4278190080
-3.6668351 -0.84386009 -0.065010212 4278190080
-3.6746345 -0.83215874 -0.065097474 4278190080
-3.6677577 -0.81715274 -0.064922951 4278190080
-3.6705878 -0.80434507 -0.064922951 4278190080
-3.6684859 -0.79047453 -0.06483569 4278190080
-3.6712227 -0.77766454 -0.06483569 4278190080
-3.6690207 -0.76382512 -0.064748421 4278190080
-3.6716645 -0.7510134 -0.064748421 4278190080
-3.6693623 -0.73720783 -0.064661168 4278190080
-3.6670086 -0.72342741 -0.064573899 4278190080
-3.6646035 -0.70967251 -0.064486638 4278190080
-3.662147 -0.69594222 -0.064399377 4278190080
-3.6645539 -0.68315488 -0.064399377 4278190080
-3.6619987 -0.66946024 -0.064312115 4278190080
-3.6593921 -0.6557917 -0.064224854 4278190080
-3.6566231 -0.64278746 -0.064137593 4278190080
-3.6539178 -0.62917137 -0.064050332 4278190080
-3.6511621 -0.61558205 -0.063963071 4278190080
-3.6483562 -0.60201865 -0.063875802 4278190080
-3.6504354 -0.58928007 -0.063875802 4278190080
-3.647532 -0.57575482 -0.063788548 4278190080
-3.6445787 -0.56225699 -0.063701279 4278190080
-3.6415758 -0.54878688 -0.063614018 4278190080
-3.6434693 -0.53607124 -0.063614018 4278190080
-3.6403697 -0.52263963 -0.063526757 4278190080
-3.6421719 -0.50992942 -0.063526757 4278190080
-3.6439297 -0.49721292 -0.063526757 4278190080
-3.6406875 -0.48383182 -0.063439496 4278190080
-3.6423542 -0.47111973 -0.063439496 4278190080
-3.6390164 -0.4577789 -0.063352235 4278190080
-3.6405921 -0.44507375 -0.063352235 4278190080
-3.6371591 -0.43177387 -0.063264973 4278190080
-3.6386442 -0.4190754 -0.063264973 4278190080
-3.6351166 -0.40581617 -0.063177712 4278190080
-3.6365108 -0.39312494 -0.063177712 4278190080
-3.632889 -0.37990901 -0.063090451 4278190080
-3.6341929 -0.36722574 -0.063090451 4278190080
-3.6354527 -0.35453799 -0.063090451 4278190080
-3.6366682 -0.34184498 -0.063090451 4278190080
-3.6328602 -0.32869825 -0.063003182 4278190080
-3.6339855 -0.31601539 -0.063003182 4278190080
-3.6300845 -0.30291295 -0.062915929 4278190080
-3.6311197 -0.29023996 -0.062915929 4278190080
-3.6321108 -0.27756244 -0.062915929 4278190080
-3.6330576 -0.2648825 -0.062915929 4278190080
-3.6289287 -0.25248626 -0.06282866 4278190080
-3.6297879 -0.23981757 -0.06282866 4278190080
-3.625653 -0.22620139 -0.062741399 4278190080
-3.6264207 -0.21354334 -0.062741399 4278190080
-3.6221523 -0.20060721 -0.062654138 4278190080
-3.6228304 -0.1879625 -0.062654138 4278190080
-3.6184406 -0.17570512 -0.062566876 4278190080
-3.6190319 -0.16307352 -0.062566876 4278190080
-3.6195791 -0.15043995 -0.062566876 4278190080
-3.6200821 -0.13780357 -0.062566876 4278190080
-3.6205411 -0.12516648 -0.062566876 4278190080
-3.6209559 -0.11252786 -0.062566876 4278190080
-3.6213267 -0.09988787 -0.062566876 4278190080
-3.6166553 -0.08712627 -0.062479615 4278190080
-3.6169374 -0.074500486 -0.062479615 4278190080
-3.6171756 -0.061874755 -0.062479615 4278190080
-3.6173694 -0.049248271 -0.062479615 4278190080
-3.6175194 -0.036621187 -0.062479615 4278190080
-3.617625 -0.023993658 -0.062479615 4278190080
-3.6176867 -0.011364873 -0.062479615 4278190080
-3.6177044 0.0012630869 -0.062479615 4278190080
-3.6126788 0.013871836 -0.06239235 4278190080
-3.6126082 0.026482161 -0.06239235 4278190080
-3.6124938 0.039092164 -0.06239235 4278190080
-3.6073368 0.051631108 -0.062305089 4278190080
-3.6071346 0.064222552 -0.062305089 4278190080
-3.6068883 0.076813221 -0.062305089 4278190080
-3.6115959 0.089526832 -0.06239235 4278190080
-3.6112614 0.10213292 -0.06239235 4278190080
-3.6108828 0.11473872 -0.06239235 4278190080
-3.6104603 0.12734216 -0.06239235 4278190080
-3.6099939 0.13994405 -0.06239235 4278190080
-3.6044886 0.15233316 -0.062305089 4278190080
-3.603935 0.16491404 -0.062305089 4278190080
-3.6033373 0.17749389 -0.062305089 4278190080
-3.6026959 0.19007061 -0.062305089 4278190080
-3.6020105 0.20264502 -0.062305089 4278190080
-3.6012812 0.21521695 -0.062305089 4278190080
-3.6005476 0.2271582 -0.062305089 4278190080
-3.5997329 0.23972489 -0.062305089 4278190080
-3.59883 0.25291738 -0.062305089 4278190080
-3.5979252 0.2654779 -0.062305089 4278190080
-3.5969765 0.27803519 -0.062305089 4278190080
-3.5959842 0.29058909 -0.062305089 4278190080
-3.5950007 0.30251238 -0.062305089 4278190080
-3.5939229 0.31505924 -0.062305089 4278190080
-3.5928011 0.32760322 -0.062305089 4278190080
-3.5916357 0.34014225 -0.062305089 4278190080
-3.5904264 0.35267714 -0.062305089 4278190080
-3.594147 0.36571378 -0.06239235 4278190080
-3.5928485 0.37825727 -0.06239235 4278190080
-3.5964763 0.3913379 -0.062479615 4278190080
-3.5950885 0.40388939 -0.062479615 4278190080
-3.5936568 0.41643593 -0.062479615 4278190080
-3.5921812 0.4289774 -0.062479615 4278190080
-3.590662 0.44151366 -0.062479615 4278190080
-3.5890987 0.45404547 -0.062479615 4278190080
-3.587492 0.46657079 -0.062479615 4278190080
-3.5858414 0.47909045 -0.062479615 4278190080
-3.5891004 0.49228361 -0.062566876 4278190080
-3.5873601 0.50480872 -0.062566876 4278190080
-3.5855761 0.51732862 -0.062566876 4278190080
-3.5837483 0.5298413 -0.062566876 4278190080
-3.581877 0.54234749 -0.062566876 4278190080
-3.5799623 0.55484706 -0.062566876 4278190080
-3.5780036 0.5673399 -0.062566876 4278190080
-3.5760014 0.57982677 -0.062566876 4278190080
-3.5739555 0.59230566 -0.062566876 4278190080
-3.5718663 0.60477728 -0.062566876 4278190080
-3.5697336 0.6172415 -0.062566876 4278190080
-3.5724802 0.63056719 -0.062654138 4278190080
-3.5702572 0.6430344 -0.062654138 4278190080
-3.5678766 0.65611523 -0.062654138 4278190080
-3.5655646 0.66856527 -0.062654138 4278190080
-3.5682385 0.68132323 -0.062741399 4278190080
-3.5658386 0.69377434 -0.062741399 4278190080
-3.5682986 0.7071898 -0.06282866 4278190080
-3.5658085 0.71964103 -0.06282866 4278190080
-3.5681717 0.73308957 -0.062915929 4278190080
-3.5704844 0.74656332 -0.063003182 4278190080
-3.5679891 0.75839949 -0.063003182 4278190080
-3.56532 0.77084929 -0.063003182 4278190080
-3.5673532 0.7849865 -0.063090451 4278190080
-3.5645914 0.79743385 -0.063090451 4278190080
-3.5666609 0.81097996 -0.063177712 4278190080
-3.5638084 0.82342482 -0.063177712 4278190080
-3.5657792 0.83700305 -0.063264973 4278190080
-3.5676987 0.850604 -0.063352235 4278190080
-3.559849 0.86187589 -0.063264973 4278190080
-3.5471096 0.87190998 -0.063090451 4278190080
-3.5149412 0.87702459 -0.062566876 4278190080
-3.4924729 0.88438058 -0.062217824 4278190080
-3.4312613 0.88163674 -0.061170682 4278190080
-3.3507617 0.87343258 -0.059774492 4278190080
-3.246196 0.85828799 -0.057941988 4278190080
-3.2383516 0.86831915 -0.057854723 4278190080
-3.1918836 0.86781424 -0.057069369 4278190080
-3.1454594 0.86699474 -0.05628401 4278190080
-3.0990801 0.86586183 -0.055498648 4278190080
-3.052748 0.86441594 -0.054713294 4278190080
-3.0112693 0.86403608 -0.054015197 4278190080
-2.9650304 0.86198252 -0.053229839 4278190080
-2.923789 0.86051762 -0.052531742 4278190080
-2.8824403 0.8592931 -0.051833648 4278190080
-2.8411362 0.85778975 -0.051135547 4278190080
-2.8046594 0.85747039 -0.050524715 4278190080
-2.7634437 0.85542858 -0.049826622 4278190080
-2.7270477 0.8546046 -0.049215786 4278190080
-2.690691 0.8535378 -0.04860495 4278190080
-2.654376 0.85222703 -0.047994118 4278190080
-2.6179545 0.85112989 -0.047383282 4278190080
-2.5817254 0.84932774 -0.046772446 4278190080
-2.5455413 0.84728259 -0.046161614 4278190080
-2.5141413 0.84659058 -0.045638043 4278190080
-2.4827776 0.84568983 -0.045114473 4278190080
-2.4514506 0.84458053 -0.044590894 4278190080
-2.4250307 0.84448493 -0.044154588 4278190080
-2.3937759 0.84298128 -0.043631017 4278190080
-2.3672707 0.84294742 -0.043194704 4278190080
-2.3407955 0.84273839 -0.042758398 4278190080
-2.3190484 0.84406459 -0.042409346 4278190080
-2.2926292 0.8435232 -0.041973036 4278190080
-2.2709281 0.84455037 -0.041623991 4278190080
-2.2445681 0.843678 -0.041187678 4278190080
-2.2227685 0.84479439 -0.040838629 4278190080
-2.2011387 0.84537852 -0.04048958 4278190080
-2.1748712 0.84401393 -0.040053271 4278190080
-2.1486406 0.84247583 -0.039616961 4278190080
-2.1270955 0.84260613 -0.039267916 4278190080
-2.100934 0.84073895 -0.038831603 4278190080
-2.0749586 0.83833772 -0.038395297 4278190080
-2.0488763 0.83613086 -0.037958983 4278190080
-2.0274572 0.8356573 -0.037609935 4278190080
-2.0014508 0.8331238 -0.037173625 4278190080
-1.9800961 0.83235592 -0.036824577 4278190080
-1.9587713 0.83144909 -0.036475528 4278190080
-1.9374772 0.83040369 -0.03612648 4278190080
-1.9162146 0.82921988 -0.035777431 4278190080
-1.8995647 0.82989967 -0.035515644 4278190080
-1.8829342 0.83047307 -0.03525386 4278190080
-1.8617557 0.82890707 -0.034904812 4278190080
-1.8451713 0.82925278 -0.034643028 4278190080
-1.8239099 0.82774621 -0.034293976 4278190080
-1.8073741 0.82786208 -0.034032192 4278190080
-1.7907152 0.82818556 -0.033770405 4278190080
-1.769693 0.82597375 -0.033421356 4278190080
-1.7533751 0.82544971 -0.033159573 4278190080
-1.7414519 0.82727474 -0.032985047 4278190080
-1.7250292 0.82686579 -0.032723263 4278190080
-1.7086309 0.8263523 -0.032461476 4278190080
-1.6922573 0.82573444 -0.032199688 4278190080
-1.6759087 0.82501292 -0.031937901 4278190080
-1.6595863 0.82418698 -0.031676117 4278190080
-1.6432902 0.82325721 -0.03141433 4278190080
-1.6314828 0.82447863 -0.031239808 4278190080
-1.6152331 0.82335728 -0.03097802 4278190080
-1.5990111 0.82213312 -0.030716235 4278190080
-1.5828176 0.82080531 -0.030454449 4278190080
-1.566653 0.81937462 -0.030192664 4278190080
-1.5549396 0.82017344 -0.030018138 4278190080
-1.5388262 0.81855279 -0.029756352 4278190080
-1.5271486 0.8191933 -0.029581828 4278190080
-1.5110884 0.81738341 -0.029320043 4278190080
-1.4994483 0.81786531 -0.029145518 4278190080
-1.483443 0.81586683 -0.028883733 4278190080
-1.4718422 0.81619108 -0.028709209 4278190080
-1.4558934 0.81400502 -0.028447423 4278190080
-1.4443332 0.81417221 -0.028272899 4278190080
-1.4327897 0.81426865 -0.028098375 4278190080
-1.4212631 0.81429446 -0.027923848 4278190080
-1.4140831 0.81675017 -0.027836587 4278190080
-1.4025828 0.81665063 -0.027662063 4278190080
-1.3911006 0.81648046 -0.027487539 4278190080
-1.379637 0.81624013 -0.027313014 4278190080
-1.3681921 0.81592977 -0.02713849 4278190080
-1.3567661 0.81554949 -0.026963968 4278190080
-1.3453594 0.81509984 -0.026789444 4278190080
-1.3297062 0.81197482 -0.026527658 4278190080
-1.3183488 0.81137079 -0.026353134 4278190080
-1.3070118 0.81069744 -0.02617861 4278190080
-1.2999349 0.81260484 -0.026091348 4278190080
-1.2886306 0.81180835 -0.025916824 4278190080
-1.2900096 0.81898093 -0.026004085 4278190080
-1.287143 0.82347888 -0.026004085 4278190080
-1.3052692 0.84151107 -0.026440395 4278190080
-1.2729783 0.82699752 -0.025829561 4278190080
-1.265901 0.82869816 -0.0257423 4278190080
-1.2504811 0.82485366 -0.025480513 4278190080
-1.2392672 0.82367903 -0.025305988 4278190080
-1.2322308 0.82521802 -0.025218727 4278190080
-1.2210547 0.82392168 -0.025044203 4278190080
-1.2099024 0.82255781 -0.024869679 4278190080
-1.2028995 0.82395095 -0.024782415 4278190080
-1.1959015 0.82530528 -0.024695154 4278190080
-1.1848041 0.82376695 -0.02452063 4278190080
-1.1737322 0.82216132 -0.024346106 4278190080
-1.1667705 0.82337123 -0.024258845 4278190080
-1.1557403 0.82164556 -0.02408432 4278190080
-1.1445934 0.82005268 -0.023909796 4278190080
-1.1336163 0.81819183 -0.023735274 4278190080
-1.1226666 0.81626403 -0.023560749 4278190080
-1.1157774 0.81722385 -0.023473486 4278190080
-1.1048722 0.81517744 -0.023298962 4278190080
-1.10202 0.81902915 -0.023298962 4278190080
-1.0951523 0.81987512 -0.023211699 4278190080
-1.0882921 0.82068288 -0.023124438 4278190080
-1.0814399 0.82145274 -0.023037175 4278190080
-1.0706251 0.81914699 -0.022862652 4278190080
-1.0637995 0.8198275 -0.022775389 4278190080
-1.0530329 0.81740516 -0.022600865 4278190080
-1.0462348 0.81799668 -0.022513604 4278190080
-1.0394456 0.81855077 -0.022426343 4278190080
-1.0326653 0.81906742 -0.02233908 4278190080
-1.025894 0.81954676 -0.022251818 4278190080
-1.0191319 0.81998914 -0.022164555 4278190080
-1.0123794 0.82039404 -0.022077294 4278190080
-1.0056365 0.82076186 -0.021990033 4278190080
-0.99890345 0.82109261 -0.02190277 4278190080
-0.99218041 0.8213864 -0.021815509 4278190080
-0.98162758 0.81844217 -0.021640984 4278190080
-0.98642176 0.8282932 -0.021815509 4278190080
-0.94535178 0.79945004 -0.020942887 4278190080
-0.95016742 0.80922788 -0.02111741 4278190080
-0.95113158 0.81579429 -0.021204673 4278190080
-0.95295674 0.82897693 -0.021379199 4278190080
-0.8100124 0.87595987 -0.020157529 4278190080
-0.80356854 0.87509966 -0.020070268 4278190080
-0.79377216 0.87051111 -0.019895744 4278190080
-0.77730674 0.85845339 -0.019546695 4278190080
-0.76108289 0.84615874 -0.019197648 4278190080
-0.74147356 0.83016735 -0.018761335 4278190080
-0.73179275 0.82539803 -0.018586813 4278190080
-0.72890717 0.82794738 -0.018586813 4278190080
-0.72257793 0.8268491 -0.018499549 4278190080
-0.71968734 0.82936633 -0.018499549 4278190080
-0.71366912 0.82796168 -0.018412288 4278190080
-0.70752394 0.82664973 -0.018325025 4278190080
-0.70463413 0.82911438 -0.018325025 4278190080
-0.6985116 0.82774824 -0.018237764 4278190080
-0.69561803 0.83018142 -0.018237764 4278190080
-0.68951839 0.82876164 -0.018150503 4278190080
-0.68662131 0.83116341 -0.018150503 4278190080
-0.68054539 0.8296898 -0.01806324 4278190080
-0.67764515 0.83206022 -0.01806324 4278190080
-0.67159319 0.83053321 -0.017975979 4278190080
-0.66868985 0.83287263 -0.017975979 4278190080
-0.66266233 0.83129245 -0.017888715 4278190080
-0.65961117 0.83371556 -0.017888715 4278190080
-0.65360862 0.83208174 -0.017801454 4278190080
-0.65070021 0.83435816 -0.017801454 4278190080
-0.64472318 0.83267152 -0.017714193 4278190080
-0.63876593 0.83095342 -0.01762693 4278190080
-0.63586152 0.83317804 -0.01762693 4278190080
-0.62993008 0.83140802 -0.017539669 4278190080
-0.62702411 0.83360177 -0.017539669 4278190080
-0.62111938 0.83177972 -0.017452406 4278190080
-0.61523503 0.82992667 -0.017365145 4278190080
-0.61233437 0.83206916 -0.017365145 4278190080
-0.6064769 0.83016485 -0.017277882 4278190080
-0.60357541 0.83227676 -0.017277882 4278190080
-0.59774578 0.83032131 -0.01719062 4278190080
-0.59193718 0.82833529 -0.017103357 4278190080
-0.58614981 0.82631892 -0.017016096 4278190080
-0.58038354 0.82427245 -0.016928833 4278190080
-0.5746389 0.82219571 -0.016841572 4278190080
-0.57162166 0.82429624 -0.016841572 4278190080
-0.56590623 0.82216865 -0.016754311 4278190080
-0.56303293 0.824139 -0.016754311 4278190080
-0.56015277 0.82609928 -0.016754311 4278190080
-0.55726576 0.82804954 -0.016754311 4278190080
-0.55437195 0.82998967 -0.016754311 4278190080
-0.55147123 0.83191985 -0.016754311 4278190080
-0.54581636 0.82966328 -0.016667048 4278190080
-0.54291701 0.83156341 -0.016667048 4278190080
-0.53729266 0.82925791 -0.016579786 4278190080
-0.53169107 0.82692331 -0.016492523 4278190080
-0.52611208 0.82455993 -0.016405262 4278190080
-0.52323067 0.82639134 -0.016405262 4278190080
-0.51768339 0.82397956 -0.016318001 4278190080
-0.51480401 0.82578158 -0.016318001 4278190080
-0.51191843 0.82757354 -0.016318001 4278190080
-0.50641125 0.82509482 -0.016230738 4278190080
-0.50352812 0.82685745 -0.016230738 4278190080
-0.50063884 0.82861 -0.016230738 4278190080
-0.4951731 0.82606459 -0.016143475 4278190080
-0.49228662 0.827788 -0.016143475 4278190080
-0.48939392 0.82950145 -0.016143475 4278190080
-0.48382598 0.82697451 -0.016056214 4278190080
-0.48093638 0.82865834 -0.016056214 4278190080
-0.47554639 0.82599968 -0.01596895 4278190080
-0.47266027 0.82765454 -0.01596895 4278190080
-0.46730438 0.82494956 -0.015881689 4278190080
-0.46442196 0.8265757 -0.015881689 4278190080
-0.45910028 0.82382488 -0.015794428 4278190080
-0.45622164 0.82542253 -0.015794428 4278190080
-0.45093459 0.82262617 -0.015707165 4278190080
-0.44567266 0.819803 -0.015619904 4278190080
-0.44280833 0.82135367 -0.015619904 4278190080
-0.4375816 0.81848562 -0.015532642 4278190080
-0.43472174 0.82000816 -0.015532642 4278190080
-0.43185675 0.82152063 -0.015532642 4278190080
-0.42898652 0.82302308 -0.015532642 4278190080
-0.42611107 0.82451546 -0.015532642 4278190080
-0.42095071 0.82154864 -0.01544538 4278190080
-0.41808024 0.82301313 -0.01544538 4278190080
-0.4129563 0.82000244 -0.015358117 4278190080
-0.41009149 0.82143891 -0.015358117 4278190080
-0.40707812 0.82293642 -0.015358117 4278190080
-0.40420288 0.82435244 -0.015358117 4278190080
-0.39899442 0.82133162 -0.015270855 4278190080
-0.39612505 0.82271934 -0.015270855 4278190080
-0.39325064 0.82409716 -0.015270855 4278190080
-0.38823441 0.82094544 -0.015183594 4278190080
-0.38536644 0.82229561 -0.015183594 4278190080
-0.38249379 0.82363576 -0.015183594 4278190080
-0.37752667 0.82042438 -0.015096332 4278190080
-0.3746604 0.82173729 -0.015096332 4278190080
-0.37178975 0.82304007 -0.015096332 4278190080
-0.36687243 0.81976968 -0.015009069 4278190080
-0.36400869 0.82104528 -0.015009069 4278190080
-0.36114055 0.82231086 -0.015009069 4278190080
-0.35826778 0.82356656 -0.015009069 4278190080
-0.35341263 0.82022095 -0.014921807 4278190080
-0.3505474 0.82144958 -0.014921807 4278190080
-0.34767792 0.82266819 -0.014921807 4278190080
-0.34287417 0.81926513 -0.014834545 4278190080
-0.34001213 0.82045704 -0.014834545 4278190080
-0.33524838 0.81701392 -0.014747282 4278190080
-0.33239445 0.81817913 -0.014747282 4278190080
-0.3295365 0.81933439 -0.014747282 4278190080
-0.32667452 0.82047969 -0.014747282 4278190080
-0.32366502 0.82167155 -0.014747282 4278190080
-0.31897897 0.8181386 -0.014660021 4278190080
-0.31612122 0.81924701 -0.014660021 4278190080
-0.31325942 0.82034558 -0.014660021 4278190080
-0.31039402 0.82143402 -0.014660021 4278190080
-0.30752483 0.82251251 -0.014660021 4278190080
-0.30291748 0.81889218 -0.014572759 4278190080
-0.3000572 0.81994456 -0.014572759 4278190080
-0.29719305 0.82098705 -0.014572759 4278190080
-0.2943255 0.8220194 -0.014572759 4278190080
-0.29145437 0.8230418 -0.014572759 4278190080
-0.28692737 0.81933582 -0.014485497 4278190080
-0.28406566 0.82033241 -0.014485497 4278190080
