# .PCD v0.7 - Point Cloud Data file format
VERSION 0.7
FIELDS x y z rgb
SIZE 4 4 4 4
TYPE F F F U
COUNT 1 1 1 1
WIDTH 1087
HEIGHT 1
VIEWPOINT 0 0 0 1 0 0 0
POINTS 1087
DATA ascii
-4.8941774 -1.0519018 0.60995609 4278190080
-4.8881083 -1.0327587 0.60873735 4278190080
-4.8868246 -1.0146811 0.60812801 4278190080
-4.8854737 -0.99662495 0.60751861 4278190080
-4.8791909 -0.97761577 0.6063 4278190080
-4.8775368 -0.96047133 0.6056906 4278190080
-4.8759871 -0.94249815 0.60508126 4278190080
-4.874372 -0.92454749 0.60447192 4278190080
-4.8726907 -0.9066183 0.60386258 4278190080
-4.8709431 -0.88871342 0.60325325 4278190080
-4.8691301 -0.87083173 0.60264385 4278190080
-4.8672523 -0.8529737 0.60203457 4278190080
-4.8653088 -0.83513927 0.60142523 4278190080
-4.8633003 -0.8173275 0.60081583 4278190080
-4.8612266 -0.79954129 0.60020649 4278190080
-4.8639879 -0.7825678 0.60020649 4278190080
-4.8617878 -0.76481366 0.59959716 4278190080
-4.859653 -0.74623537 0.59898782 4278190080
-4.8573203 -0.7285316 0.59837848 4278190080
-4.8547993 -0.71170008 0.59776908 4278190080
-4.8523417 -0.69404697 0.5971598 4278190080
-4.8498192 -0.67641962 0.59655041 4278190080
-4.8521509 -0.65948671 0.59655041 4278190080
-4.8495035 -0.64189327 0.59594107 4278190080
-4.8467927 -0.62432766 0.59533173 4278190080
-4.8440185 -0.60678887 0.59472239 4278190080
-4.8411803 -0.58927697 0.59411305 4278190080
-4.8382792 -0.5717923 0.59350371 4278190080
-4.8353152 -0.55433381 0.59289432 4278190080
-4.8321943 -0.53774846 0.59228498 4278190080
-4.8340421 -0.52087665 0.59228498 4278190080
-4.8308954 -0.50348538 0.59167564 4278190080
-4.8276854 -0.48612237 0.5910663 4278190080
-4.8293529 -0.4692679 0.5910663 4278190080
-4.8260202 -0.45194498 0.59045696 4278190080
-4.8226256 -0.43464977 0.58984756 4278190080
-4.8241134 -0.41781327 0.58984756 4278190080
-4.8205972 -0.40056074 0.58923829 4278190080
-4.817019 -0.38333783 0.58862895 4278190080
-4.8183274 -0.36652124 0.58862895 4278190080
-4.8146281 -0.34933972 0.58801955 4278190080
-4.8158178 -0.33253166 0.58801955 4278190080
-4.8119974 -0.31539497 0.58741021 4278190080
-4.808116 -0.29828903 0.58680087 4278190080
-4.8091278 -0.28150401 0.58680087 4278190080
-4.8051257 -0.26444158 0.58619153 4278190080
-4.8060198 -0.24766719 0.58619153 4278190080
-4.801898 -0.23065169 0.5855822 4278190080
-4.8026738 -0.21388879 0.5855822 4278190080
-4.803391 -0.19712329 0.5855822 4278190080
-4.80405 -0.18035409 0.5855822 4278190080
-4.8046503 -0.16358399 0.5855822 4278190080
-4.8002315 -0.14666033 0.5849728 4278190080
-4.800714 -0.12990376 0.5849728 4278190080
-4.7961774 -0.11302869 0.58436352 4278190080
-4.7965426 -0.096285202 0.58436352 4278190080
-4.7918873 -0.079459526 0.58375412 4278190080
-4.7921352 -0.062732488 0.58375412 4278190080
-4.7873626 -0.045957047 0.58314478 4278190080
-4.7874937 -0.02924601 0.58314478 4278190080
-4.7875667 -0.012533339 0.58314478 4278190080
-4.7875814 0.0041782088 0.58314478 4278190080
-4.7875376 0.020889707 0.58314478 4278190080
-4.7874355 0.037600949 0.58314478 4278190080
-4.7872753 0.054311734 0.58314478 4278190080
-4.782094 0.07094951 0.58253545 4278190080
-4.7818174 0.087641448 0.58253545 4278190080
-4.7814822 0.10433231 0.58253545 4278190080
-4.7810888 0.12102191 0.58253545 4278190080
-4.7806373 0.13771003 0.58253545 4278190080
-4.7801275 0.15439776 0.58253545 4278190080
-4.7795596 0.17108232 0.58253545 4278190080
-4.778933 0.18776479 0.58253545 4278190080
-4.7782488 0.20444499 0.58253545 4278190080
-4.7725487 0.22089325 0.58192611 4278190080
-4.7717485 0.23755223 0.58192611 4278190080
-4.7708902 0.25420704 0.58192611 4278190080
-4.7699738 0.27085873 0.58192611 4278190080
-4.7689996 0.28750715 0.58192611 4278190080
-4.7680197 0.30332035 0.58192611 4278190080
-4.771883 0.32029408 0.58253545 4278190080
-4.7706771 0.33778232 0.58253545 4278190080
-4.7694688 0.35443276 0.58253545 4278190080
-4.7682028 0.37107891 0.58253545 4278190080
-4.7668786 0.38772053 0.58253545 4278190080
-4.7705116 0.40394488 0.58314478 4278190080
-4.7690725 0.42059436 0.58314478 4278190080
-4.767499 0.43807161 0.58314478 4278190080
-4.7659407 0.45471036 0.58314478 4278190080
-4.7642422 0.47217593 0.58314478 4278190080
-4.7625647 0.48880309 0.58314478 4278190080
-4.7610059 0.50376207 0.58314478 4278190080
-4.7592182 0.52037907 0.58314478 4278190080
-4.7573729 0.53698838 0.58314478 4278190080
-4.7603989 0.55416507 0.58375412 4278190080
-4.7584357 0.57077831 0.58375412 4278190080
-4.7613397 0.58799291 0.58436352 4278190080
-4.7592583 0.6046105 0.58436352 4278190080
-4.7571187 0.62121946 0.58436352 4278190080
-4.7549214 0.6378209 0.58436352 4278190080
-4.7575817 0.6550914 0.5849728 4278190080
-4.7552662 0.67169422 0.5849728 4278190080
-4.7528925 0.68829012 0.5849728 4278190080
-4.7553701 0.70560479 0.5855822 4278190080
-4.7528782 0.72219956 0.5855822 4278190080
-4.7503281 0.73878556 0.5855822 4278190080
-4.7526217 0.75614232 0.58619153 4278190080
-4.7499533 0.7727285 0.58619153 4278190080
-4.7472267 0.78930396 0.58619153 4278190080
-4.7493358 0.80670089 0.58680087 4278190080
-4.75138 0.82412201 0.58741021 4278190080
-4.7582483 0.84243256 0.58862895 4278190080
-4.7699294 0.8616845 0.59045696 4278190080
-4.7766538 0.88012773 0.59167564 4278190080
-4.7735524 0.89679575 0.59167564 4278190080
-4.7655187 0.91251951 0.5910663 4278190080
-4.3033371 0.87083203 0.53439707 4278190080
-4.2856894 0.88284409 0.53256899 4278190080
-4.214581 0.88354278 0.52403814 4278190080
-4.1483755 0.88479131 0.51611668 4278190080
-4.0725126 0.88348532 0.50697643 4278190080
-4.0015564 0.88272858 0.49844557 4278190080
-3.9306569 0.88148755 0.48991475 4278190080
-3.8598151 0.87976241 0.48138389 4278190080
-3.793869 0.87867343 0.4734624 4278190080
-3.7231469 0.87599927 0.46493152 4278190080
-3.6573179 0.87399483 0.45701003 4278190080
-3.5915489 0.87154168 0.44908851 4278190080
-3.5306611 0.86982733 0.44177637 4278190080
-3.4746439 0.86890262 0.43507355 4278190080
-3.4186769 0.86759853 0.42837071 4278190080
-3.3627622 0.86591363 0.42166793 4278190080
-3.311703 0.8651033 0.41557443 4278190080
-3.2606912 0.86394727 0.40948099 4278190080
-3.2097282 0.86244583 0.40338752 4278190080
-3.1588161 0.86060017 0.39729404 4278190080
-3.11274 0.85973006 0.39180994 4278190080
-3.0667093 0.85854888 0.38632581 4278190080
-3.0207253 0.85705709 0.3808417 4278190080
-2.9795592 0.85662603 0.37596694 4278190080
-2.9336681 0.85453111 0.3704828 4278190080
-2.8925886 0.85353005 0.36560804 4278190080
-2.8515525 0.85225284 0.36073327 4278190080
-2.8105607 0.8506996 0.35585847 4278190080
-2.7696154 0.84887075 0.35098368 4278190080
-2.7334569 0.84823817 0.34671828 4278190080
-2.6926024 0.84587544 0.34184349 4278190080
-2.656528 0.84474194 0.33757809 4278190080
-2.6204944 0.84336698 0.33331263 4278190080
-2.5845032 0.84175092 0.32904723 4278190080
-2.5532687 0.84144795 0.32539111 4278190080
-2.5173607 0.83936691 0.32112572 4278190080
-2.4862008 0.83863175 0.31746966 4278190080
-2.4550774 0.8376894 0.31381357 4278190080
-2.423991 0.83654004 0.31015745 4278190080
-2.3929427 0.83518469 0.30650139 4278190080
-2.3619339 0.83362222 0.3028453 4278190080
-2.3309655 0.83185363 0.29918924 4278190080
-2.2953706 0.82819468 0.29492378 4278190080
-2.2551677 0.82259703 0.29004902 4278190080
-2.2476261 0.82874763 0.28943968 4278190080
-2.2307687 0.83138877 0.28761163 4278190080
-2.2139206 0.83392245 0.28578362 4278190080
-2.1924441 0.83458316 0.28334624 4278190080
-2.166358 0.83332241 0.28029948 4278190080
-2.1449335 0.83368826 0.2778621 4278190080
-2.123533 0.83391428 0.27542472 4278190080
-2.1021574 0.83400106 0.27298734 4278190080
-2.0808074 0.83394897 0.27054995 4278190080
-2.0594835 0.833758 0.26811257 4278190080
-2.0335927 0.8315506 0.26506582 4278190080
-2.0123298 0.83106661 0.26262844 4278190080
-1.9865149 0.82853395 0.25958169 4278190080
-1.9653163 0.82775772 0.2571443 4278190080
-1.9441476 0.82684374 0.25470692 4278190080
-1.9230092 0.82579261 0.25226954 4278190080
-1.9064554 0.82657772 0.25044152 4278190080
-1.8853732 0.82526726 0.24800409 4278190080
-1.864324 0.82381988 0.24556671 4278190080
-1.8478403 0.82425749 0.24373868 4278190080
-1.8268508 0.82255298 0.24130128 4278190080
-1.8104143 0.82276493 0.23947325 4278190080
-1.7939988 0.82287222 0.23764521 4278190080
-1.7776048 0.82287502 0.23581718 4278190080
-1.7612327 0.82277352 0.23398913 4278190080
-1.7447395 0.82287258 0.23216109 4278190080
-1.7284132 0.82255995 0.23033306 4278190080
-1.7121104 0.8221435 0.22850502 4278190080
-1.6958315 0.82162374 0.22667699 4278190080
-1.6751188 0.81882048 0.22423959 4278190080
-1.6588976 0.8180778 0.22241154 4278190080
-1.6427022 0.81723189 0.2205835 4278190080
-1.6309686 0.81850898 0.21936481 4278190080
-1.6148182 0.81747317 0.21753678 4278190080
-1.5986954 0.81633419 0.21570873 4278190080
-1.5870123 0.81736499 0.21449004 4278190080
-1.5753415 0.81832427 0.21327135 4278190080
-1.5592875 0.81690902 0.21144332 4278190080
-1.5476503 0.81771052 0.2102246 4278190080
-1.5360271 0.81844038 0.20900591 4278190080
-1.520046 0.81675017 0.20717788 4278190080
-1.508459 0.81732267 0.20595919 4278190080
-1.4925315 0.81544489 0.20413114 4278190080
-1.4809823 0.81586093 0.20291245 4278190080
-1.4651102 0.81379616 0.20108442 4278190080
-1.4536008 0.81405556 0.19986573 4278190080
-1.4421074 0.81424451 0.19864702 4278190080
-1.4263177 0.81190819 0.19681899 4278190080
-1.4148661 0.8119421 0.1956003 4278190080
-1.4034318 0.81190562 0.19438159 4278190080
-1.3920152 0.81179929 0.1931629 4278190080
-1.3806167 0.81162322 0.19194421 4278190080
-1.3692364 0.81137758 0.19072552 4278190080
-1.3578745 0.81106275 0.18950683 4278190080
-1.3465317 0.81067818 0.18828814 4278190080
-1.3350672 0.81045729 0.18706943 4278190080
-1.3237634 0.80993277 0.18585074 4278190080
-1.3124797 0.80933893 0.18463205 4278190080
-1.3012166 0.80867618 0.18341336 4278190080
-1.2899742 0.80794477 0.18219467 4278190080
-1.2787528 0.80714482 0.18097597 4278190080
-1.2675526 0.8062768 0.17975728 4278190080
-1.2563742 0.80533999 0.17853858 4278190080
-1.2452182 0.80433518 0.17731988 4278190080
-1.2382437 0.8059696 0.17671055 4278190080
-1.2271233 0.80484337 0.17549184 4278190080
-1.220166 0.80638599 0.1748825 4278190080
-1.2090824 0.80513883 0.17366381 4278190080
-1.2021435 0.80658931 0.17305446 4278190080
-1.191098 0.80522174 0.17183577 4278190080
-1.1800767 0.80378693 0.17061707 4278190080
-1.1690799 0.80228543 0.16939838 4278190080
-1.1581082 0.80071664 0.16817969 4278190080
-1.1471618 0.79908115 0.166961 4278190080
-1.1403033 0.80022979 0.16635166 4278190080
-1.1293986 0.79847544 0.16513297 4278190080
-1.1225621 0.79953408 0.16452362 4278190080
-1.1157322 0.80055451 0.16391426 4278190080
-1.1048868 0.7986297 0.16269556 4278190080
-1.0980805 0.79956037 0.16208622 4278190080
-1.0872796 0.79751801 0.16086753 4278190080
-1.0804975 0.79835957 0.16025817 4278190080
-1.0737231 0.79916322 0.15964884 4278190080
-1.0669563 0.79992932 0.15903948 4278190080
-1.0641576 0.80364877 0.15903948 4278190080
-1.0613459 0.80735838 0.15903948 4278190080
-1.058521 0.81105852 0.15903948 4278190080
-1.0517548 0.81171632 0.15843014 4278190080
-1.0449969 0.81233686 0.15782079 4278190080
-1.0382475 0.81292009 0.15721145 4278190080
-1.0276101 0.8103931 0.15599276 4278190080
-1.0207473 0.81106687 0.15538341 4278190080
-1.0101606 0.80842316 0.15416472 4278190080
-1.0034688 0.8088299 0.15355538 4278190080
-0.99678618 0.80920011 0.15294603 4278190080
-0.9901135 0.80953324 0.15233667 4278190080
-0.98345071 0.80982977 0.15172733 4278190080
-0.97679794 0.81008959 0.15111798 4278190080
-0.97015536 0.81031293 0.15050864 4278190080
-0.96352303 0.81050009 0.14989929 4278190080
-0.95690143 0.81065053 0.14928995 4278190080
-0.94651508 0.80754358 0.14807124 4278190080
-0.95121884 0.81731105 0.14928995 4278190080
-0.92584324 0.80114233 0.14563386 4278190080
-0.79006302 0.85588312 0.1383217 4278190080
-0.79377723 0.86595255 0.13954039 4278190080
-0.770706 0.84669799 0.13588431 4278190080
-0.76109028 0.8420198 0.13466562 4278190080
-0.74503148 0.8297683 0.13222823 4278190080
-0.73222262 0.82125127 0.1304002 4278190080
-0.72262943 0.81649697 0.1291815 4278190080
-0.71322286 0.8115589 0.1279628 4278190080
-0.7069813 0.81042773 0.12735346 4278190080
-0.70414793 0.81289077 0.12735346 4278190080
-0.69821173 0.8114593 0.12674411 4278190080
-0.69537479 0.81389177 0.12674411 4278190080
-0.68931907 0.81252968 0.12613477 4278190080
-0.68647867 0.81493092 0.12613477 4278190080
-0.68044591 0.81351548 0.12552541 4278190080
-0.67760211 0.81588566 0.12552541 4278190080
-0.67145038 0.81453449 0.12491608 4278190080
-0.66860306 0.81687325 0.12491608 4278190080
-0.66261774 0.81535083 0.12430673 4278190080
-0.65976745 0.81765896 0.12430673 4278190080
-0.65394896 0.81596965 0.12369739 4278190080
-0.6480065 0.81436419 0.12308803 4278190080
-0.64501745 0.81673366 0.12308803 4278190080
-0.63910049 0.81507486 0.12247869 4278190080
-0.63320273 0.81338489 0.12186934 4278190080
-0.62732482 0.81166357 0.12125999 4278190080
-0.6214667 0.80991113 0.12065064 4278190080
-0.61562848 0.80812776 0.1200413 4278190080
-0.61280388 0.81027174 0.1200413 4278190080
-0.60699183 0.80843741 0.11943195 4278190080
-0.60416621 0.81055129 0.11943195 4278190080
-0.59838128 0.80866593 0.1188226 4278190080
-0.59555495 0.81074971 0.1188226 4278190080
-0.58979726 0.80881375 0.11821326 4278190080
-0.58682877 0.81097013 0.11821326 4278190080
-0.58109915 0.80898291 0.11760391 4278190080
-0.57827181 0.81100637 0.11760391 4278190080
-0.57257009 0.80896932 0.11699457 4278190080
-0.56974286 0.81096298 0.11699457 4278190080
-0.56406993 0.8088761 0.11638522 4278190080
-0.56124306 0.81084013 0.11638522 4278190080
-0.55559909 0.80870384 0.11577588 4278190080
-0.55277264 0.81063843 0.11577588 4278190080
-0.54715806 0.80845308 0.11516653 4278190080
-0.54433274 0.81035811 0.11516653 4278190080
-0.53874797 0.80812395 0.11455718 4278190080
-0.53592384 0.80999959 0.11455718 4278190080
-0.53036904 0.80771714 0.11394784 4278190080
-0.52754641 0.80956352 0.11394784 4278190080
-0.52202243 0.80723274 0.11333849 4278190080
-0.51920152 0.80905002 0.11333849 4278190080
-0.51370853 0.80667138 0.11272914 4278190080
-0.51088941 0.80845976 0.11272914 4278190080
-0.50542784 0.80603361 0.11211979 4278190080
-0.50247031 0.80788064 0.11211979 4278190080
-0.49964705 0.80962974 0.11211979 4278190080
-0.49408558 0.80722278 0.11151045 4278190080
-0.49126488 0.8089425 0.11151045 4278190080
-0.48601767 0.80631685 0.11090109 4278190080
-0.48320016 0.80800843 0.11090109 4278190080
-0.48037657 0.8096903 0.11090109 4278190080
-0.47503006 0.80708528 0.11029175 4278190080
-0.47220996 0.80873847 0.11029175 4278190080
-0.46689674 0.80608749 0.1096824 4278190080
-0.46393907 0.80779338 0.1096824 4278190080
-0.45865998 0.80509579 0.10907306 4278190080
-0.45584694 0.80669188 0.10907306 4278190080
-0.45060191 0.80394906 0.10846371 4278190080
-0.44779289 0.80551702 0.10846371 4278190080
-0.4425821 0.80272937 0.10785437 4278190080
-0.4397774 0.80426937 0.10785437 4278190080
-0.43696734 0.80579954 0.10785437 4278190080
-0.43415195 0.80731988 0.10785437 4278190080
-0.42899606 0.80445147 0.10724502 4278190080
-0.42618522 0.80594414 0.10724502 4278190080
-0.42336938 0.80742687 0.10724502 4278190080
-0.41825917 0.80449653 0.10663567 4278190080
-0.41544846 0.80595165 0.10663567 4278190080
-0.41263267 0.80739689 0.10663567 4278190080
-0.40981165 0.80883241 0.10663567 4278190080
-0.40698585 0.81025797 0.10663567 4278190080
-0.40194306 0.80723119 0.10602633 4278190080
-0.3989816 0.80869901 0.10602633 4278190080
-0.39615634 0.81008679 0.10602633 4278190080
-0.39116162 0.80699885 0.10541698 4278190080
-0.38834232 0.80835932 0.10541698 4278190080
-0.38551831 0.80970997 0.10541698 4278190080
-0.3805716 0.8065626 0.10480763 4278190080
-0.37761298 0.80795199 0.10480763 4278190080
-0.37270489 0.80476189 0.10419828 4278190080
-0.36989331 0.80605805 0.10419828 4278190080
-0.36707741 0.80734432 0.10419828 4278190080
-0.3622188 0.80409586 0.10358894 4278190080
-0.35940981 0.80535537 0.10358894 4278190080
-0.35458979 0.80206603 0.10297959 4278190080
-0.35178772 0.80329901 0.10297959 4278190080
-0.34700668 0.7999692 0.10237025 4278190080
-0.3442122 0.80117559 0.10237025 4278190080
-0.34141353 0.80237222 0.10237025 4278190080
-0.33861068 0.80355906 0.10237025 4278190080
-0.33389235 0.80015624 0.1017609 4278190080
-0.3310973 0.80131686 0.1017609 4278190080
-0.32829821 0.8024677 0.1017609 4278190080
-0.32549512 0.80360878 0.1017609 4278190080
-0.32268804 0.80474001 0.1017609 4278190080
-0.31804591 0.80124897 0.10115156 4278190080
-0.31510717 0.80240923 0.10115156 4278190080
-0.31230438 0.80350429 0.10115156 4278190080
-0.30949754 0.80458957 0.10115156 4278190080
-0.30492163 0.80102694 0.10054221 4278190080
-0.3021237 0.80208641 0.10054221 4278190080
-0.2993221 0.80313611 0.10054221 4278190080
-0.29479998 0.79951978 0.099932864 4278190080
-0.29200718 0.80054402 0.099932864 4278190080
-0.289211 0.80155843 0.099932864 4278190080
-0.28641135 0.80256307 0.099932864 4278190080
-0.28360817 0.80355793 0.099932864 4278190080
-0.27916619 0.79985744 0.099323511 4278190080
-0.27637228 0.80082709 0.099323511 4278190080
-0.27357525 0.8017869 0.099323511 4278190080
-0.26918867 0.79803455 0.098714165 4278190080
-0.26640141 0.79896933 0.098714165 4278190080
-0.26347116 0.79994041 0.098714165 4278190080
-0.25914124 0.7961362 0.09810482 4278190080
-0.25636068 0.79703587 0.09810482 4278190080
-0.25357699 0.79792589 0.09810482 4278190080
-0.25079 0.79880619 0.09810482 4278190080
-0.24800014 0.79967678 0.09810482 4278190080
-0.24375382 0.7957924 0.097495466 4278190080
-0.24097455 0.79663837 0.097495466 4278190080
-0.23819233 0.79747468 0.097495466 4278190080
-0.23540701 0.79830128 0.097495466 4278190080
-0.23261903 0.79911816 0.097495466 4278190080
-0.22982821 0.79992527 0.097495466 4278190080
-0.22689492 0.80076224 0.097495466 4278190080
-0.22276193 0.79676998 0.096886121 4278190080
-0.21997938 0.79754269 0.096886121 4278190080
-0.21719413 0.79830569 0.096886121 4278190080
-0.21312012 0.79426575 0.096276775 4278190080
-0.21034636 0.79500484 0.096276775 4278190080
-0.20868281 0.80057275 0.096886121 4278190080
-0.20588705 0.80129629 0.096886121 4278190080
-0.20308881 0.80201012 0.096886121 4278190080
-0.20028785 0.80271417 0.096886121 4278190080
-0.19630006 0.79858911 0.096276775 4278190080
-0.1935111 0.7992695 0.096276775 4278190080
-0.1907202 0.79994005 0.096276775 4278190080
-0.18792656 0.80060095 0.096276775 4278190080
-0.18401384 0.7964167 0.095667429 4278190080
-0.18123253 0.79705417 0.095667429 4278190080
-0.17844902 0.79768199 0.095667429 4278190080
-0.17566375 0.79829997 0.095667429 4278190080
-0.17287593 0.79890835 0.095667429 4278190080
-0.17008643 0.79950684 0.095667429 4278190080
-0.16715464 0.80012494 0.095667429 4278190080
-0.16436091 0.80070353 0.095667429 4278190080
-0.16156477 0.80127239 0.095667429 4278190080
-0.15876707 0.80183142 0.095667429 4278190080
-0.15596703 0.8023808 0.095667429 4278190080
-0.15223515 0.79804552 0.095058084 4278190080
-0.14930926 0.79859811 0.095058084 4278190080
-0.14562596 0.79423302 0.094448738 4278190080
-0.14285251 0.79473656 0.094448738 4278190080
-0.14007732 0.79523039 0.094448738 4278190080
-0.13730086 0.79571444 0.094448738 4278190080
-0.13452229 0.79618889 0.094448738 4278190080
-0.13174251 0.79665357 0.094448738 4278190080
-0.12816811 0.79220963 0.093839392 4278190080
-0.12540182 0.79265219 0.093839392 4278190080
-0.12263444 0.79308504 0.093839392 4278190080
-0.11986514 0.79350835 0.093839392 4278190080
-0.11709481 0.79392189 0.093839392 4278190080
-0.11418384 0.79434574 0.093839392 4278190080
-0.11141062 0.79473948 0.093839392 4278190080
-0.10863561 0.79512352 0.093839392 4278190080
-0.10585928 0.79549789 0.093839392 4278190080
-0.10244463 0.79094094 0.093230046 4278190080
-0.099682935 0.79129374 0.093230046 4278190080
-0.096782148 0.79165375 0.093230046 4278190080
-0.094018005 0.79198682 0.093230046 4278190080
-0.091253132 0.79231012 0.093230046 4278190080
-0.088486731 0.79262388 0.093230046 4278190080
-0.085719667 0.79292786 0.093230046 4278190080
-0.082951143 0.79322231 0.093230046 4278190080
-0.080181606 0.79350704 0.093230046 4278190080
-0.077411518 0.79378206 0.093230046 4278190080
-0.074640058 0.79404742 0.093230046 4278190080
-0.071868114 0.79430312 0.093230046 4278190080
-0.068956062 0.79456121 0.093230046 4278190080
-0.06618236 0.79479706 0.093230046 4278190080
-0.063407429 0.79502326 0.093230046 4278190080
-0.060631722 0.79523975 0.093230046 4278190080
-0.057855699 0.79544652 0.093230046 4278190080
-0.055078551 0.79564369 0.093230046 4278190080
-0.052301157 0.79583108 0.093230046 4278190080
-0.049522698 0.79600877 0.093230046 4278190080
-0.046604969 0.79618496 0.093230046 4278190080
-0.04382531 0.79634279 0.093230046 4278190080
-0.041045543 0.79649091 0.093230046 4278190080
-0.038264852 0.79662931 0.093230046 4278190080
-0.035483692 0.79675806 0.093230046 4278190080
-0.032499034 0.79191852 0.092620701 4278190080
-0.029734356 0.79202712 0.092620701 4278190080
-0.026969738 0.79212606 0.092620701 4278190080
-0.02420437 0.79221541 0.092620701 4278190080
-0.021438705 0.79229504 0.092620701 4278190080
-0.018673202 0.79236507 0.092620701 4278190080
-0.015907049 0.79242539 0.092620701 4278190080
-0.013141125 0.79247612 0.092620701 4278190080
-0.010374618 0.79251719 0.092620701 4278190080
-0.0076079848 0.79254854 0.092620701 4278190080
-0.0048416811 0.79257029 0.092620701 4278190080
-0.0019247239 0.78762001 0.092011355 4278190080
0.00082476245 0.78762192 0.092011355 4278190080
0.0035742389 0.78761423 0.092011355 4278190080
0.0063232519 0.78759694 0.092011355 4278190080
0.0090726074 0.78757006 0.092011355 4278190080
0.011895919 0.79249579 0.092620701 4278190080
0.014662342 0.79244941 0.092620701 4278190080
0.017428586 0.79239345 0.092620701 4278190080
0.020067751 0.78736663 0.092011355 4278190080
0.022816218 0.78729177 0.092011355 4278190080
0.025563989 0.78720737 0.092011355 4278190080
0.028490258 0.79207283 0.092620701 4278190080
0.031255104 0.79196858 0.092620701 4278190080
0.034019146 0.79185462 0.092620701 4278190080
0.036921512 0.79172462 0.092620701 4278190080
0.039684672 0.79159093 0.092620701 4278190080
0.042447764 0.79144758 0.092620701 4278190080
0.045209922 0.79129457 0.092620701 4278190080
0.047971949 0.79113197 0.092620701 4278190080
0.050733391 0.79095966 0.092620701 4278190080
0.053493794 0.7907778 0.092620701 4278190080
0.056253966 0.79058623 0.092620701 4278190080
0.059151113 0.79037476 0.092620701 4278190080
0.061522197 0.78521585 0.092011355 4278190080
0.064262487 0.78499633 0.092011355 4278190080
0.067002416 0.78476727 0.092011355 4278190080
0.0697411 0.78452861 0.092011355 4278190080
0.07247936 0.78428036 0.092011355 4278190080
0.075690664 0.7889626 0.092620701 4278190080
0.078443952 0.78869361 0.092620701 4278190080
0.081196696 0.78841496 0.092620701 4278190080
0.083948031 0.78812677 0.092620701 4278190080
0.086698763 0.78782892 0.092620701 4278190080
0.089448437 0.78752148 0.092620701 4278190080
0.092196606 0.78720444 0.092620701 4278190080
0.094944067 0.78687781 0.092620701 4278190080
0.097689949 0.78654164 0.092620701 4278190080
0.10043506 0.78619581 0.092620701 4278190080
0.10331582 0.78582245 0.092620701 4278190080
0.1060584 0.78545702 0.092620701 4278190080
0.10893641 0.78506303 0.092620701 4278190080
0.1116763 0.78467798 0.092620701 4278190080
0.1144144 0.7842834 0.092620701 4278190080
0.11715153 0.78387922 0.092620701 4278190080
0.11988723 0.78346545 0.092620701 4278190080
0.12262106 0.78304225 0.092620701 4278190080
0.1261387 0.78750968 0.093230046 4278190080
0.12888661 0.78706461 0.093230046 4278190080
0.13163336 0.78660989 0.093230046 4278190080
0.13437849 0.78614557 0.093230046 4278190080
0.13797483 0.7905606 0.093839392 4278190080
0.14073372 0.79007417 0.093839392 4278190080
0.14362843 0.78955305 0.093839392 4278190080
0.14638378 0.78904682 0.093839392 4278190080
0.14913692 0.78853112 0.093839392 4278190080
0.15188867 0.78800571 0.093839392 4278190080
0.15463814 0.78747076 0.093839392 4278190080
0.15738615 0.78692615 0.093839392 4278190080
0.16013224 0.78637195 0.093839392 4278190080
0.16287597 0.78580821 0.093839392 4278190080
0.16561814 0.78523487 0.093839392 4278190080
0.16835785 0.78465199 0.093839392 4278190080
0.17123291 0.7840296 0.093839392 4278190080
0.17396839 0.78342718 0.093839392 4278190080
0.1777949 0.78765601 0.094448738 4278190080
0.18054342 0.78703058 0.094448738 4278190080
0.18328932 0.78639561 0.094448738 4278190080
0.1860334 0.78575099 0.094448738 4278190080
0.18877479 0.78509688 0.094448738 4278190080
0.19151431 0.78443313 0.094448738 4278190080
0.19425149 0.78375977 0.094448738 4278190080
0.1969859 0.783077 0.094448738 4278190080
0.19971831 0.78238457 0.094448738 4278190080
0.20244788 0.78168273 0.094448738 4278190080
0.20531182 0.78093541 0.094448738 4278190080
0.2080363 0.78021401 0.094448738 4278190080
0.21075866 0.77948308 0.094448738 4278190080
0.21479006 0.78352886 0.095058084 4278190080
0.21752395 0.78277427 0.095058084 4278190080
0.22160059 0.78678703 0.095667429 4278190080
0.22434539 0.78600878 0.095667429 4278190080
0.22708787 0.7852208 0.095667429 4278190080
0.22843181 0.77966088 0.095058084 4278190080
0.2311521 0.77885872 0.095058084 4278190080
0.23386958 0.77804703 0.095058084 4278190080
0.2365838 0.77722603 0.095058084 4278190080
0.24089375 0.78109592 0.095667429 4278190080
0.24361856 0.78025037 0.095667429 4278190080
0.24797302 0.78408396 0.096276775 4278190080
0.25070864 0.78321356 0.096276775 4278190080
0.25344121 0.78233361 0.096276775 4278190080
0.25617027 0.78144425 0.096276775 4278190080
0.25889662 0.78054523 0.096276775 4278190080
0.26161939 0.77963686 0.096276775 4278190080
0.2660715 0.78337169 0.096886121 4278190080
0.2688041 0.78243822 0.096886121 4278190080
0.27153385 0.78149509 0.096886121 4278190080
0.27590501 0.78522474 0.097495466 4278190080
0.27864447 0.78425676 0.097495466 4278190080
0.2813805 0.7832793 0.097495466 4278190080
0.28411269 0.78229243 0.097495466 4278190080
0.28684184 0.78129584 0.097495466 4278190080
0.28970337 0.78023934 0.097495466 4278190080
0.29242533 0.77922326 0.097495466 4278190080
0.29514328 0.77819782 0.097495466 4278190080
0.29963416 0.78179687 0.09810482 4278190080
0.30236149 0.78074616 0.09810482 4278190080
0.30508471 0.77968603 0.09810482 4278190080
0.30780461 0.77861625 0.09810482 4278190080
0.31052038 0.77753717 0.09810482 4278190080
0.31522587 0.78099573 0.098714165 4278190080
0.31794989 0.77989078 0.098714165 4278190080
0.32067043 0.77877605 0.098714165 4278190080
0.32338667 0.77765208 0.098714165 4278190080
0.3280209 0.78109407 0.099323511 4278190080
0.33074561 0.77994424 0.099323511 4278190080
0.3354193 0.78334719 0.099932864 4278190080
0.33815181 0.78217149 0.099932864 4278190080
0.34087977 0.78098649 0.099932864 4278190080
0.34560513 0.78433317 0.10054221 4278190080
0.34834102 0.78312188 0.10054221 4278190080
0.35107225 0.7819013 0.10054221 4278190080
0.35379961 0.780671 0.10054221 4278190080
0.35652226 0.77943134 0.10054221 4278190080
0.35924098 0.77818203 0.10054221 4278190080
0.36195531 0.77692324 0.10054221 4278190080
0.36480033 0.77559143 0.10054221 4278190080
0.36963353 0.77879661 0.10115156 4278190080
0.37234953 0.77750176 0.10115156 4278190080
0.37722054 0.78066558 0.1017609 4278190080
0.37994304 0.7793442 0.1017609 4278190080
0.3848516 0.78246635 0.10237025 4278190080
0.38758075 0.78111815 0.10237025 4278190080
0.39252609 0.7841984 0.10297959 4278190080
0.39539754 0.78275454 0.10297959 4278190080
0.39812765 0.78136951 0.10297959 4278190080
0.40085286 0.77997488 0.10297959 4278190080
0.4035728 0.77857107 0.10297959 4278190080
0.40628821 0.77715749 0.10297959 4278190080
0.40899828 0.77573466 0.10297959 4278190080
0.41183904 0.77423024 0.10297959 4278190080
0.41688475 0.77716136 0.10358894 4278190080
0.41959518 0.77570128 0.10358894 4278190080
0.42467645 0.77858883 0.10419828 4278190080
0.42739183 0.77710158 0.10419828 4278190080
0.43250871 0.77994496 0.10480763 4278190080
0.43522835 0.77843064 0.10480763 4278190080
0.43794307 0.77690655 0.10480763 4278190080
0.44310415 0.77968794 0.10541698 4278190080
0.44582325 0.77813637 0.10541698 4278190080
0.45115501 0.7807942 0.10602633 4278190080
0.4538779 0.7792145 0.10602633 4278190080
0.45910808 0.78190488 0.10663567 4278190080
0.46183437 0.7802977 0.10663567 4278190080
0.46455547 0.77868074 0.10663567 4278190080
0.46727049 0.77705455 0.10663567 4278190080
0.46998024 0.77541858 0.10663567 4278190080
0.47268426 0.77377325 0.10663567 4278190080
0.475517 0.77203566 0.10663567 4278190080
0.48082611 0.77458763 0.10724502 4278190080
0.48352715 0.77290446 0.10724502 4278190080
0.48622233 0.7712118 0.10724502 4278190080
0.4915725 0.77369881 0.10785437 4278190080
0.49694633 0.7761575 0.10846371 4278190080
0.49978766 0.77433097 0.10846371 4278190080
0.50248766 0.77258158 0.10846371 4278190080
0.50790149 0.77497375 0.10907306 4278190080
0.51060373 0.77319604 0.10907306 4278190080
0.51329976 0.77140886 0.10907306 4278190080
0.51875269 0.77373457 0.1096824 4278190080
0.52422851 0.77603132 0.11029175 4278190080
0.52693397 0.77419686 0.11029175 4278190080
0.52963334 0.7723527 0.11029175 4278190080
0.53514719 0.77458215 0.11090109 4278190080
0.54081833 0.77668828 0.11151045 4278190080
0.54352593 0.77479589 0.11151045 4278190080
0.54909158 0.7769466 0.11211979 4278190080
0.55180043 0.77502507 0.11211979 4278190080
0.55739462 0.77712703 0.11272914 4278190080
0.56010407 0.77517653 0.11272914 4278190080
0.56572682 0.77722925 0.11333849 4278190080
0.56843656 0.77524966 0.11333849 4278190080
0.5711394 0.77326059 0.11333849 4278190080
0.57383484 0.77126241 0.11333849 4278190080
0.57949996 0.77322578 0.11394784 4278190080
0.58219528 0.77119839 0.11394784 4278190080
0.58788776 0.7731117 0.11455718 4278190080
0.59058303 0.77105474 0.11455718 4278190080
0.59630209 0.77291799 0.11516653 4278190080
0.60204172 0.77475029 0.11577588 4278190080
0.60487717 0.7725386 0.11577588 4278190080
0.61064339 0.77431911 0.11638522 4278190080
0.61334229 0.77218306 0.11638522 4278190080
0.61603415 0.77003729 0.11638522 4278190080
0.62183177 0.77174681 0.11699457 4278190080
0.62452203 0.76957136 0.11699457 4278190080
0.63034534 0.77122909 0.11760391 4278190080
0.63303334 0.76902431 0.11760391 4278190080
0.63901603 0.77051866 0.11821326 4278190080
0.64488286 0.77209252 0.1188226 4278190080
0.64757419 0.7698366 0.1188226 4278190080
0.65346509 0.77135825 0.11943195 4278190080
0.65937483 0.77284777 0.1200413 4278190080
0.66206872 0.77054131 0.1200413 4278190080
0.66800147 0.77197856 0.12065064 4278190080
0.67395276 0.77338344 0.12125999 4278190080
0.67992145 0.77475643 0.12186934 4278190080
0.6826219 0.77237821 0.12186934 4278190080
0.68874818 0.77357769 0.12247869 4278190080
0.6914444 0.77116865 0.12247869 4278190080
0.69745767 0.77243394 0.12308803 4278190080
0.70014989 0.7699945 0.12308803 4278190080
0.7061851 0.77120578 0.12369739 4278190080
0.70887256 0.76873624 0.12369739 4278190080
0.71492875 0.76989359 0.12430673 4278190080
0.71761155 0.76739353 0.12430673 4278190080
0.7236883 0.76849669 0.12491608 4278190080
0.72978151 0.76956677 0.12552541 4278190080
0.73589051 0.77060395 0.12613477 4278190080
0.74201602 0.77160752 0.12674411 4278190080
0.74470466 0.76901293 0.12674411 4278190080
0.75084943 0.76996154 0.12735346 4278190080
0.75700986 0.77087665 0.1279628 4278190080
0.75969589 0.76822972 0.1279628 4278190080
0.76600921 0.76895577 0.12857215 4278190080
0.76868844 0.76627743 0.12857215 4278190080
0.77488565 0.76708072 0.1291815 4278190080
0.77755827 0.76437145 0.1291815 4278190080
0.78022188 0.76165247 0.1291815 4278190080
0.78287596 0.75892419 0.1291815 4278190080
0.78922808 0.75949097 0.12979084 4278190080
0.79546201 0.76016033 0.1304002 4278190080
0.80171061 0.760795 0.13100953 4278190080
1.11814 0.81416649 0.16513297 4278190080
1.1116999 0.7976613 0.16330491 4278190080
1.0984449 0.78206813 0.16086753 4278190080
1.0971155 0.77536464 0.16025817 4278190080
1.0835646 0.76012981 0.15782079 4278190080
1.0943564 0.76201493 0.15903948 4278190080
1.0929273 0.75536841 0.15843014 4278190080
1.0996495 0.75435644 0.15903948 4278190080
1.1063783 0.75330615 0.15964884 4278190080
1.1131132 0.75221807 0.16025817 4278190080
1.1157318 0.74832839 0.16025817 4278190080
1.1224685 0.74717885 0.16086753 4278190080
1.1251994 0.74305999 0.16086753 4278190080
1.1319373 0.74184781 0.16147687 4278190080
1.1386799 0.74059826 0.16208622 4278190080
1.1454278 0.73931003 0.16269556 4278190080
1.1521803 0.7379843 0.16330491 4278190080
1.1589379 0.73661983 0.16391426 4278190080
1.1698974 0.73786455 0.16513297 4278190080
1.1808792 0.73904234 0.16635166 4278190080
1.187668 0.73753363 0.166961 4278190080
1.1986851 0.73859048 0.16817969 4278190080
1.2054902 0.73699009 0.16878904 4278190080
1.2165419 0.73792499 0.17000774 4278190080
1.2233622 0.73623329 0.17061707 4278190080
1.2344469 0.73704642 0.17183577 4278190080
1.2414101 0.73504567 0.17244512 4278190080
1.2525268 0.7357347 0.17366381 4278190080
1.2636628 0.73635566 0.1748825 4278190080
1.2705221 0.73442352 0.17549184 4278190080
1.2816886 0.73492104 0.17671055 4278190080
1.2928734 0.73535013 0.17792924 4278190080
1.2997549 0.73327088 0.17853858 4278190080
1.310968 0.73357666 0.17975728 4278190080
1.3221993 0.73381227 0.18097597 4278190080
1.3291005 0.73158526 0.18158533 4278190080
1.3404856 0.73146343 0.18280402 4278190080
1.3517598 0.73150408 0.18402271 4278190080
1.3630508 0.73147416 0.1852414 4278190080
1.3743579 0.73137426 0.18646009 4278190080
1.3856806 0.73120499 0.18767878 4278190080
1.397019 0.73096478 0.18889748 4278190080
1.4083723 0.73065507 0.19011617 4278190080
1.4197406 0.73027414 0.19133486 4278190080
1.4355443 0.7320773 0.1931629 4278190080
1.4469485 0.73154056 0.19438159 4278190080
1.4583669 0.73093235 0.1956003 4278190080
1.469798 0.73025405 0.19681899 4278190080
1.4767903 0.72731137 0.19742833 4278190080
1.4882396 0.72650582 0.19864702 4278190080
1.49536 0.72320718 0.19925638 4278190080
1.5023507 0.72012776 0.19986573 4278190080
1.5138203 0.71913862 0.20108442 4278190080
1.5208114 0.71596354 0.20169376 4278190080
1.5322959 0.71484727 0.20291245 4278190080
1.5437914 0.71365869 0.20413114 4278190080
1.5552971 0.71239853 0.20534983 4278190080
1.5713315 0.71311843 0.20717788 4278190080
1.5873902 0.71373415 0.20900591 4278190080
1.5989382 0.71222794 0.2102246 4278190080
1.615036 0.71265239 0.21205266 4278190080
1.6311558 0.712973 0.2138807 4278190080
1.6474216 0.71290278 0.21570873 4278190080
1.6635841 0.71301347 0.21753678 4278190080
1.6751994 0.71107996 0.21875547 4278190080
1.6913964 0.71099716 0.2205835 4278190080
1.7076126 0.71081072 0.22241154 4278190080
1.7238483 0.71051878 0.22423959 4278190080
1.7355075 0.7082479 0.22545828 4278190080
1.7517735 0.70776242 0.22728632 4278190080
1.7727883 0.70870614 0.22972371 4278190080
1.7890952 0.70799154 0.23155175 4278190080
1.805418 0.70717263 0.23337978 4278190080
1.8217572 0.70624739 0.23520783 4278190080
1.8381118 0.70521659 0.23703587 4278190080
1.8544807 0.70408112 0.2388639 4278190080
1.8708645 0.70283896 0.24069194 4278190080
1.8919134 0.70322102 0.24312934 4278190080
1.9083301 0.7017507 0.24495737 4278190080
1.9294231 0.70187086 0.24739477 4278190080
1.9459922 0.69983304 0.24922279 4278190080
1.9671266 0.69968814 0.2516602 4278190080
1.9836012 0.69775826 0.25348821 4278190080
2.0047739 0.69735128 0.2559256 4278190080
2.0259674 0.69680601 0.25836301 4278190080
2.0518801 0.69771779 0.26140973 4278190080
2.0731196 0.69687575 0.26384711 4278190080
2.0943775 0.69589496 0.2662845 4278190080
2.1203692 0.69632155 0.26933125 4278190080
2.1416681 0.69504416 0.27176863 4278190080
2.1629841 0.69362539 0.27420601 4278190080
2.1890469 0.69356507 0.27725273 4278190080
2.2103989 0.69184995 0.27969012 4278190080
2.2365072 0.69145888 0.28273687 4278190080
2.262639 0.69089508 0.28578362 4278190080
2.2840426 0.68872321 0.288221 4278190080
2.3103347 0.687424 0.29126772 4278190080
2.3365281 0.6863482 0.29431447 4278190080
2.3627415 0.68509912 0.2973612 4278190080
2.3889747 0.68367398 0.30040792 4278190080
2.4152265 0.68207401 0.30345467 4278190080
2.4462759 0.68163234 0.30711076 4278190080
2.4725666 0.67966545 0.31015745 4278190080
2.5036628 0.67882329 0.31381357 4278190080
2.5347831 0.67777079 0.31746966 4278190080
2.5659261 0.67650926 0.32112572 4278190080
2.5970905 0.67503983 0.32478181 4278190080
2.6330833 0.6745913 0.32904723 4278190080
2.6642923 0.6726861 0.33270332 4278190080
2.7003357 0.67176777 0.33696872 4278190080
2.731585 0.66942471 0.34062481 4278190080
2.7676742 0.66803747 0.34489024 4278190080
2.803787 0.66640484 0.34915566 4278190080
2.8399212 0.66452962 0.35342109 4278190080
2.8809125 0.66352248 0.35829586 4278190080
2.8928914 0.6556555 0.35951456 4278190080
2.5969512 0.5690757 0.32173505 4278190080
2.5649621 0.55269057 0.31746966 4278190080
2.5183258 0.53344899 0.31137615 4278190080
2.5541823 0.53173625 0.31564158 4278190080
2.5560231 0.52281672 0.31564158 4278190080
2.5529671 0.51291329 0.31503224 4278190080
2.5547419 0.50399947 0.31503224 4278190080
2.5516133 0.49413458 0.31442291 4278190080
2.5484471 0.48429909 0.31381357 4278190080
2.5501223 0.47539985 0.31381357 4278190080
2.5517662 0.46649483 0.31381357 4278190080
2.5533791 0.45758548 0.31381357 4278190080
2.5598485 0.44952753 0.31442291 4278190080
2.5760748 0.44311395 0.31625095 4278190080
2.577606 0.43411854 0.31625095 4278190080
2.6084857 0.42996055 0.31990704 4278190080
2.5707748 0.41453323 0.31503224 4278190080
2.5722063 0.40555647 0.31503224 4278190080
2.6618931 0.41018063 0.32600048 4278190080
2.8350697 0.42673951 0.34732762 4278190080
2.8660018 0.42116934 0.35098368 4278190080
2.8429635 0.40714481 0.34793699 4278190080
2.859112 0.39927861 0.349765 4278190080
2.865406 0.38996464 0.35037437 4278190080
2.8765893 0.38126364 0.35159305 4278190080
2.8828244 0.37185594 0.35220239 4278190080
2.8841047 0.36179012 0.35220239 4278190080
2.8902764 0.35232195 0.35281175 4278190080
2.8865602 0.34164691 0.35220239 4278190080
2.8877354 0.33156824 0.35220239 4278190080
2.888875 0.32148707 0.35220239 4278190080
2.8850455 0.3108688 0.35159305 4278190080
2.8861132 0.30079713 0.35159305 4278190080
2.8871455 0.29072028 0.35159305 4278190080
2.8881428 0.28063986 0.35159305 4278190080
2.8841636 0.27009484 0.35098368 4278190080
2.8850889 0.26002496 0.35098368 4278190080
2.8810782 0.24902193 0.35037437 4278190080
2.8819301 0.23896296 0.35037437 4278190080
2.8777993 0.22850978 0.349765 4278190080
2.8785794 0.21846238 0.349765 4278190080
2.879288 0.20891535 0.349765 4278190080
2.8750489 0.19852255 0.34915566 4278190080
2.8757572 0.18798253 0.34915566 4278190080
2.8714426 0.17763761 0.3485463 4278190080
2.872045 0.1676127 0.3485463 4278190080
2.8726127 0.15758729 0.3485463 4278190080
2.8731453 0.14755844 0.3485463 4278190080
2.8736429 0.13752778 0.3485463 4278190080
2.8741055 0.12749697 0.3485463 4278190080
2.8745329 0.11746308 0.3485463 4278190080
2.8749254 0.10742929 0.3485463 4278190080
2.875283 0.097392663 0.3485463 4278190080
2.870645 0.087204158 0.34793699 4278190080
2.8709319 0.077184126 0.34793699 4278190080
2.8711839 0.06716162 0.34793699 4278190080
2.8714008 0.057139829 0.34793699 4278190080
2.8715827 0.04711581 0.34793699 4278190080
2.8717299 0.037091218 0.34793699 4278190080
2.8718417 0.0270677 0.34793699 4278190080
2.8719187 0.017042326 0.34793699 4278190080
2.8719606 0.0070182723 0.34793699 4278190080
2.8719678 -0.0030075186 0.34793699 4278190080
2.866977 -0.013010018 0.34732762 4278190080
2.866914 -0.023017555 0.34732762 4278190080
2.8668163 -0.033024814 0.34732762 4278190080
2.8666835 -0.04303167 0.34732762 4278190080
2.8714685 -0.053630978 0.34793699 4278190080
2.8712637 -0.063653946 0.34793699 4278190080
2.8710241 -0.073676139 0.34793699 4278190080
2.8707495 -0.083697431 0.34793699 4278190080
2.8704398 -0.093717709 0.34793699 4278190080
2.8651357 -0.10355758 0.34732762 4278190080
2.8647566 -0.11355814 0.34732762 4278190080
2.8643427 -0.12355731 0.34732762 4278190080
2.863894 -0.133555 0.34732762 4278190080
2.8634105 -0.14355102 0.34732762 4278190080
2.8628919 -0.15354532 0.34732762 4278190080
2.8623385 -0.16353774 0.34732762 4278190080
2.8617501 -0.17352818 0.34732762 4278190080
2.8611269 -0.18351649 0.34732762 4278190080
2.8604689 -0.19350256 0.34732762 4278190080
2.859776 -0.20348629 0.34732762 4278190080
2.8590484 -0.21346752 0.34732762 4278190080
2.8582859 -0.22344616 0.34732762 4278190080
2.8574884 -0.23342209 0.34732762 4278190080
2.8566563 -0.24339515 0.34732762 4278190080
2.8557892 -0.25336528 0.34732762 4278190080
2.8548875 -0.26333228 0.34732762 4278190080
2.8539507 -0.27329609 0.34732762 4278190080
2.8529794 -0.28325659 0.34732762 4278190080
2.8568587 -0.29421979 0.34793699 4278190080
2.8558145 -0.30419031 0.34793699 4278190080
2.859668 -0.31469995 0.3485463 4278190080
2.858552 -0.32468012 0.3485463 4278190080
2.8574014 -0.33465636 0.3485463 4278190080
2.8562157 -0.34462851 0.3485463 4278190080
2.8549953 -0.35459647 0.3485463 4278190080
2.8537402 -0.36456013 0.3485463 4278190080
2.8524501 -0.37451929 0.3485463 4278190080
2.8511255 -0.38447392 0.3485463 4278190080
2.849766 -0.39442387 0.3485463 4278190080
2.8532856 -0.40506655 0.34915566 4278190080
2.8518543 -0.41502389 0.34915566 4278190080
2.8552964 -0.425708 0.349765 4278190080
2.8537931 -0.43567228 0.349765 4278190080
2.8522549 -0.44563124 0.349765 4278190080
2.7877858 -0.44204068 0.24360029 4278190080
2.7862258 -0.45176917 0.24360029 4278190080
2.784632 -0.46149215 0.24360029 4278190080
2.7879152 -0.47204107 0.24403608 4278190080
2.7862506 -0.48176986 0.24403608 4278190080
2.7845519 -0.49149275 0.24403608 4278190080
2.7828193 -0.50120968 0.24403608 4278190080
2.7859516 -0.51182044 0.24447185 4278190080
2.784148 -0.52154207 0.24447185 4278190080
2.7823105 -0.53125745 0.24447185 4278190080
2.7853286 -0.54191756 0.24490763 4278190080
2.7834201 -0.55163687 0.24490763 4278190080
2.7814775 -0.56134945 0.24490763 4278190080
2.779501 -0.57105517 0.24490763 4278190080
2.782366 -0.5817734 0.2453434 4278190080
2.7803185 -0.59148216 0.2453434 4278190080
2.7831051 -0.60223711 0.24577919 4278190080
2.7809861 -0.61194831 0.24577919 4278190080
2.783694 -0.62273943 0.24621497 4278190080
2.7815032 -0.63245261 0.24621497 4278190080
2.7792788 -0.64215797 0.24621497 4278190080
2.7770202 -0.65185559 0.24621497 4278190080
2.779573 -0.66270036 0.24665074 4278190080
2.7772427 -0.67239881 0.24665074 4278190080
2.7748787 -0.68208915 0.24665074 4278190080
2.7724807 -0.69177109 0.24665074 4278190080
2.7747552 -0.7031517 0.24708654 4278190080
2.7722838 -0.71283311 0.24708654 4278190080
2.7745984 -0.72376305 0.24752229 4278190080
2.7768703 -0.73471785 0.24795809 4278190080
2.7742889 -0.74440652 0.24795809 4278190080
2.7764795 -0.75539362 0.24839386 4278190080
2.7738259 -0.76508075 0.24839386 4278190080
2.7759354 -0.77609974 0.24882965 4278190080
2.7732093 -0.78578478 0.24882965 4278190080
2.7752371 -0.79683495 0.24926542 4278190080
2.7772214 -0.80790877 0.2497012 4278190080
2.7743845 -0.81759816 0.2497012 4278190080
2.7762864 -0.82870227 0.25013697 4278190080
2.7733767 -0.83838826 0.25013697 4278190080
2.7751963 -0.84952205 0.25057277 4278190080
2.7722139 -0.85920405 0.25057277 4278190080
2.7739503 -0.87036681 0.25100854 4278190080
2.7708952 -0.88004446 0.25100854 4278190080
2.7725484 -0.89123565 0.25144431 4278190080
2.7741573 -0.90244907 0.25188008 4278190080
2.7709901 -0.91212714 0.25188008 4278190080
2.7725153 -0.9233681 0.25231588 4278190080
2.7739954 -0.93463069 0.25275165 4278190080
2.7754307 -0.94591492 0.25318742 4278190080
2.7721119 -0.95559722 0.25318742 4278190080
2.7734628 -0.9669075 0.25362319 4278190080
2.7747684 -0.978239 0.25405899 4278190080
2.7713368 -0.98791885 0.25405899 4278190080
2.7725573 -0.99927539 0.25449476 4278190080
2.769052 -1.0089474 0.25449476 4278190080
2.7701876 -1.0203285 0.25493056 4278190080
2.771277 -1.0317299 0.25536633 4278190080
2.7723205 -1.0431514 0.25580209 4278190080
2.7686625 -1.0528222 0.25580209 4278190080
2.7696199 -1.0642669 0.25623786 4278190080
2.765888 -1.0739281 0.25623786 4278190080
2.7667594 -1.0853955 0.25667366 4278190080
2.7675846 -1.096882 0.25710943 4278190080
2.768363 -1.1083872 0.2575452 4278190080
2.764477 -1.1180439 0.2575452 4278190080
2.7651687 -1.1295705 0.257981 4278190080
2.7658134 -1.1411155 0.25841677 4278190080
2.7664111 -1.152679 0.25885257 4278190080
2.7669616 -1.1642603 0.25928834 4278190080
2.7674651 -1.1758596 0.25972411 4278190080
2.7679212 -1.1874764 0.26015988 4278190080
2.7683299 -1.1991109 0.26059568 4278190080
2.7686911 -1.2107625 0.26103145 4278190080
2.7690046 -1.2224313 0.26146722 4278190080
2.7647207 -1.2320895 0.26146722 4278190080
2.7649455 -1.243776 0.26190299 4278190080
2.7651224 -1.2554792 0.26233879 4278190080
2.7652512 -1.2671987 0.26277456 4278190080
2.765332 -1.2789344 0.26321036 4278190080
2.7653642 -1.2906859 0.2636461 4278190080
2.7653484 -1.3024534 0.2640819 4278190080
2.761014 -1.3116164 0.2640819 4278190080
2.7609103 -1.3233992 0.26451766 4278190080
2.7607582 -1.3351971 0.26495346 4278190080
2.7605572 -1.3470101 0.26538923 4278190080
2.764776 -1.3610379 0.26626077 4278190080
2.7644694 -1.372896 0.26669657 4278190080
2.7641137 -1.3847685 0.26713234 4278190080
2.7637086 -1.3966552 0.26756811 4278190080
2.7632544 -1.408556 0.26800391 4278190080
2.7627504 -1.4204704 0.26843968 4278190080
2.762197 -1.4323987 0.26887548 4278190080
2.7615938 -1.4443402 0.26931125 4278190080
2.7609413 -1.456295 0.26974702 4278190080
2.7602384 -1.4682628 0.27018279 4278190080
2.763875 -1.4825978 0.27105436 4278190080
2.7630641 -1.4946065 0.27149013 4278190080
2.7619398 -1.5071094 0.2719259 4278190080
2.7610264 -1.5191424 0.2723617 4278190080
2.7603295 -1.5307055 0.27279747 4278190080
2.7636647 -1.545193 0.27366903 4278190080
2.7625933 -1.5572766 0.2741048 4278190080
2.7614708 -1.5693713 0.27454057 4278190080
2.7602978 -1.5814773 0.27497637 4278190080
2.7633872 -1.5960854 0.27584791 4278190080
2.7621033 -1.6082278 0.27628368 4278190080
2.765064 -1.6229023 0.27715525 4278190080
2.7636693 -1.6350806 0.27759105 4278190080
2.7622228 -1.6472688 0.27802679 4278190080
2.7649941 -1.662033 0.27889836 4278190080
2.7634358 -1.6742555 0.27933416 4278190080
2.761826 -1.6864874 0.27976993 4278190080
2.7644062 -1.7013392 0.2806415 4278190080
2.7626832 -1.7136037 0.28107727 4278190080
2.7609086 -1.7258772 0.28151307 4278190080
2.7632961 -1.740814 0.2823846 4278190080
2.7614076 -1.7531188 0.28282037 4278190080
2.7636628 -1.7681159 0.28369194 4278190080
2.7616606 -1.7804512 0.28412771 4278190080
2.7596056 -1.7927936 0.28456348 4278190080
2.7616658 -1.8078718 0.28543505 4278190080
2.7594962 -1.8202436 0.28587082 4278190080
2.7614222 -1.8353792 0.28674239 4278190080
2.7591372 -1.8477788 0.28717816 4278190080
2.7609282 -1.8629707 0.28804973 4278190080
2.7585278 -1.8753973 0.2884855 4278190080
2.7601833 -1.8906446 0.28935707 4278190080
2.7576663 -1.903097 0.28979284 4278190080
2.7550962 -1.915555 0.29022861 4278190080
2.760632 -1.9337333 0.29153597 4278190080
2.7538652 -1.9433581 0.29153597 4278190080
2.7446234 -1.9649572 0.29197174 4278190080
2.5209165 -2.4850936 0.30635244 4278190080
2.4400973 -2.4392459 0.29850841 4278190080
2.3859332 -2.4018097 0.29284328 4278190080
2.3775346 -2.4101236 0.29284328 4278190080
2.3586504 -2.4077337 0.29153597 4278190080
2.3432851 -2.4088118 0.2906644 4278190080
2.3244803 -2.4062295 0.28935707 4278190080
2.3091707 -2.4071395 0.2884855 4278190080
2.2904472 -2.404366 0.28717816 4278190080
2.2721906 -2.4010947 0.28587082 4278190080
2.2603843 -2.4053817 0.28543505 4278190080
2.2421987 -2.4019411 0.28412771 4278190080
2.2304144 -2.4061 0.28369194 4278190080
0.8392176 -0.93795466 0.10676578 4278190080
0.82932168 -0.93343109 0.10589422 4278190080
2.0594435 -2.4181273 0.27454057 4278190080
2.028476 -2.3986783 0.27149013 4278190080
2.0040753 -2.3866715 0.26931125 4278190080
1.9957321 -2.3936527 0.26931125 4278190080
1.9778357 -2.3890941 0.26800391 4278190080
1.9635749 -2.3879449 0.26713234 4278190080
1.9489272 -2.3870678 0.26626077 4278190080
