# .PCD v0.7 - Point Cloud Data file format
VERSION 0.7
FIELDS x y z rgb
SIZE 4 4 4 4
TYPE F F F U
COUNT 1 1 1 1
WIDTH 1125
HEIGHT 1
VIEWPOINT 0 0 0 1 0 0 0
POINTS 1125
DATA ascii
2.1058888 -0.90654635 0.39365715 4294967295
2.1010001 0.51407897 0.36740682 4294967295
2.1063533 0.49338543 0.35667902 4294967295
2.1147304 0.46544686 0.35449809 4294967295
2.1131144 0.43580279 0.35392818 4294967295
2.1101675 0.40616405 0.35451013 4294967295
2.107584 0.37633109 0.35471612 4294967295
2.1038263 0.3477501 0.35999119 4294967295
2.1019475 0.31589898 0.36271989 4294967295
2.1027653 0.28290799 0.35623074 4294967295
2.1091673 0.25425744 0.35458189 4294967295
2.1163337 0.2256638 0.35402423 4294967295
2.1206944 0.19661379 0.35368338 4294967295
2.1170001 0.16680582 0.35397869 4294967295
2.110112 0.1368901 0.35452253 4294967295
2.1079528 0.10494599 0.35468596 4294967295
2.114028 0.073365256 0.35421014 4294967295
2.1179166 0.044024058 0.35390383 4294967295
2.1169722 0.014536783 0.35398063 4294967295
2.113389 -0.014902585 0.3542524 4294967295
2.1070006 -0.044193551 0.35474131 4294967295
2.1076117 -0.073555566 0.35469228 4294967295
2.1123056 -0.10312379 0.35434112 4294967295
2.116436 -0.13410944 0.35345793 4294967295
2.1183426 -0.16562332 0.35413241 4294967295
2.1165409 -0.19616434 0.35434443 4294967295
2.1186392 -0.22632334 0.35384297 4294967295
2.1207783 -0.2560744 0.35366964 4294967295
2.1221673 -0.28578228 0.35356081 4294967295
2.1222229 -0.31533015 0.35355753 4294967295
2.122834 -0.34498155 0.35351121 4294967295
2.1271 -0.36540979 0.34972152 4294967295
2.1263499 -0.46764636 0.34830001 4294967295
2.1234519 -0.49359211 0.35021138 4294967295
2.1238849 -0.52557731 0.3494525 4294967295
2.1255 -0.5556832 0.35316435 4294967295
2.1242108 -0.5857836 0.35339534 4294967295
2.1232228 -0.61598271 0.35347068 4294967295
2.1256666 -0.6462822 0.35328069 4294967295
2.125833 -0.67592412 0.35327074 4294967295
2.1255832 -0.70543706 0.35329315 4294967295
2.1239448 -0.73541433 0.35260159 4294967295
2.1199489 -0.76542306 0.35354993 4294967295
2.1197815 -0.79450071 0.35375634 4294967295
2.1249144 -0.82389742 0.35369563 4294967295
2.1242595 -0.85567153 0.35913914 4294967295
2.1110916 -0.88337845 0.35318905 4294967295
2.1025 -0.90265745 0.34290707 4294967295
2.1026502 0.48618454 0.32679546 4294967295
2.1058617 0.46396217 0.32552904 4294967295
2.1066954 0.43482456 0.32545382 4294967295
2.1036861 0.40526968 0.32607651 4294967295
2.1016665 0.38150156 0.33430964 4294967295
2.1019135 0.27872926 0.32705566 4294967295
2.1052785 0.25379339 0.32558298 4294967295
2.1099169 0.22498138 0.32515571 4294967295
2.1118896 0.19580105 0.32497829 4294967295
2.1083617 0.16612257 0.32529747 4294967295
2.1056676 0.13659248 0.32553917 4294967295
2.1089535 0.10499342 0.3252275 4294967295
2.1118891 0.073297888 0.32496658 4294967295
2.1087782 0.043838833 0.32525957 4294967295
2.1072781 0.01446549 0.3253974 4294967295
2.1092784 -0.014885953 0.32520658 4294967295
2.1145558 -0.044362292 0.32471102 4294967295
2.1183887 -0.073928006 0.32435474 4294967295
2.1177506 -0.1033841 0.32441154 4294967295
2.1187303 -0.13339593 0.32464987 4294967295
2.1184878 -0.16521615 0.32404572 4294967295
2.11675 -0.19665141 0.32451081 4294967295
2.1198893 -0.22645579 0.32422888 4294967295
2.122334 -0.25626028 0.32400274 4294967295
2.1234171 -0.28594896 0.32390523 4294967295
2.1193612 -0.31489938 0.32427704 4294967295
2.116611 -0.34396404 0.32453775 4294967295
2.1184859 -0.37341481 0.3240205 4294967295
2.1233463 -0.40342277 0.31993699 4294967295
2.1263447 -0.43579733 0.3211695 4294967295
2.1243334 -0.46350348 0.32381979 4294967295
2.1184764 -0.4941723 0.32435873 4294967295
2.1187944 -0.52549511 0.32404178 4294967295
2.1257269 -0.5546127 0.32361567 4294967295
2.1279993 -0.58014011 0.32436734 4294967295
2.128 -0.61243021 0.3358219 4294967295
2.128 -0.65748328 0.32656443 4294967295
2.1225002 -0.67575836 0.32347786 4294967295
2.1212652 -0.70472962 0.32469022 4294967295
2.1264999 -0.73534834 0.32362002 4294967295
2.1247144 -0.76535392 0.32427311 4294967295
2.1187563 -0.79446959 0.32451385 4294967295
2.1223004 -0.82499522 0.32401323 4294967295
2.1265001 -0.84306693 0.31704158 4294967295
2.1198235 -0.88924068 0.32567245 4294967295
2.1053343 -0.91119009 0.32356757 4294967295
2.115 0.60092628 0.28296828 4294967295
2.1048572 0.58409685 0.28549874 4294967295
2.1010001 0.48483095 0.30891067 4294967295
2.1016319 0.4631609 0.30422914 4294967295
2.1022856 0.43530494 0.30529958 4294967295
2.1010001 0.41171077 0.30891067 4294967295
2.1018572 0.24607104 0.30603904 4294967295
2.1034286 0.22208525 0.30193198 4294967295
2.1050594 0.19458938 0.297019 4294967295
2.1036119 0.1657476 0.29644945 4294967295
2.1046116 0.13652028 0.2963466 4294967295
2.1085961 0.10498053 0.29592794 4294967295
2.1074727 0.073147401 0.29604542 4294967295
2.1054449 0.043769158 0.29625362 4294967295
2.1065564 0.01445731 0.29613066 4294967295
2.1123335 -0.014915377 0.29551634 4294967295
2.1204448 -0.044485945 0.29465574 4294967295
2.1230838 -0.074091665 0.29438442 4294967295
2.1234167 -0.10366396 0.29435033 4294967295
2.1268327 -0.1334388 0.29398441 4294967295
2.1254735 -0.16384359 0.29412436 4294967295
2.1221006 -0.19542018 0.29448164 4294967295
2.1191385 -0.22637321 0.29479933 4294967295
2.1207781 -0.25607389 0.29462466 4294967295
2.1218898 -0.28574458 0.29450476 4294967295
2.1187782 -0.31481341 0.29483551 4294967295
2.1151669 -0.34372932 0.29521754 4294967295
2.1168611 -0.37347811 0.2950331 4294967295
2.1212227 -0.40377516 0.29457355 4294967295
2.1211059 -0.43418312 0.29408038 4294967295
2.1210275 -0.46484417 0.29454309 4294967295
2.1173592 -0.49504578 0.29555801 4294967295
2.1169996 -0.52577019 0.29502428 4294967295
2.1219172 -0.55652851 0.29450688 4294967295
2.1254287 -0.58386713 0.2934261 4294967295
2.128 -0.60584718 0.28315711 4294967295
2.128 -0.65686619 0.29015166 4294967295
2.1198809 -0.67647415 0.29471737 4294967295
2.1160004 -0.70471525 0.29512993 4294967295
2.1235554 -0.73433918 0.29433137 4294967295
2.1259735 -0.76565909 0.29355663 4294967295
2.1172497 -0.79427826 0.29549178 4294967295
2.118355 -0.82393765 0.29511645 4294967295
2.1264997 -0.85376149 0.29343411 4294967295
2.1202049 -0.8864153 0.29390803 4294967295
2.1048698 -0.90759683 0.29833585 4294967295
2.1156249 0.60539705 0.26880118 4294967295
2.1064377 0.58613032 0.2669813 4294967295
2.1010001 0.56770045 0.26991326 4294967295
2.1010001 0.18503821 0.27966261 4294967295
2.1010001 0.16553949 0.2777127 4294967295
2.1010001 0.13092928 0.27868766 4294967295
2.1023638 0.10467074 0.27773398 4294967295
2.1025007 0.071639888 0.27284116 4294967295
2.1036258 0.043238141 0.26545417 4294967295
2.1058981 0.015020032 0.26557997 4294967295
2.1079447 -0.014876546 0.26665637 4294967295
2.1102111 -0.044649616 0.26548877 4294967295
2.108001 -0.07323283 0.26619011 4294967295
2.1071823 -0.10364999 0.26375067 4294967295
2.1113634 -0.13458072 0.26369351 4294967295
2.1161709 -0.16540256 0.26537663 4294967295
2.1166668 -0.19663851 0.26560599 4294967295
2.1127567 -0.22601664 0.26561221 4294967295
2.111537 -0.2546615 0.26413724 4294967295
2.1166396 -0.28503844 0.26561117 4294967295
2.1146944 -0.31421131 0.26584023 4294967295
2.1135836 -0.34347492 0.26597488 4294967295
2.117167 -0.37353233 0.26554185 4294967295
2.1162441 -0.40491265 0.26535419 4294967295
2.110462 -0.43605185 0.26578569 4294967295
2.1066475 -0.46353272 0.26738498 4294967295
2.1080003 -0.49504334 0.26605642 4294967295
2.1139739 -0.52450693 0.26502728 4294967295
2.1193612 -0.55585724 0.26527727 4294967295
2.1187429 -0.58483362 0.26500815 4294967295
2.1197503 -0.61442405 0.26456299 4294967295
2.1210296 -0.64631617 0.26436475 4294967295
2.1155367 -0.67545289 0.26603955 4294967295
2.1142125 -0.70545781 0.26522323 4294967295
2.1220305 -0.73492634 0.26561987 4294967295
2.122143 -0.76583135 0.2649391 4294967295
2.1150279 -0.79516941 0.2657918 4294967295
2.1177351 -0.82495475 0.26488951 4294967295
2.1246178 -0.8554672 0.26464507 4294967295
2.1134288 -0.884547 0.26534498 4294967295
2.1022856 -0.90361029 0.26662502 4294967295
2.1010001 0.038797848 0.24553984 4294967295
2.1014285 -0.10607366 0.24235013 4294967295
2.1040001 -0.13688576 0.24514791 4294967295
2.1042857 -0.16898833 0.24511525 4294967295
2.1060874 -0.19619054 0.24275625 4294967295
2.1047277 -0.22371948 0.24261647 4294967295
2.1031537 -0.25488484 0.2433843 4294967295
2.1066432 -0.2843937 0.24061975 4294967295
2.107594 -0.31422296 0.23963994 4294967295
2.105773 -0.34464219 0.24425498 4294967295
2.1071668 -0.37665457 0.24473932 4294967295
2.1059096 -0.40662885 0.24312916 4294967295
2.1049414 -0.43241394 0.24359342 4294967295
2.1010001 -0.5096035 0.24553984 4294967295
2.1048334 -0.52817053 0.24287426 4294967295
2.1069601 -0.55562878 0.24242169 4294967295
2.1053336 -0.58514285 0.24314967 4294967295
2.1043336 -0.61538386 0.24510983 4294967295
2.1054211 -0.64565742 0.24445361 4294967295
2.105593 -0.67519081 0.24114692 4294967295
2.1090972 -0.70541608 0.23912266 4294967295
2.1138239 -0.73586529 0.23652723 4294967295
2.1112056 -0.76477259 0.23668984 4294967295
2.1094842 -0.79458618 0.23938531 4294967295
2.1110003 -0.82500178 0.23934481 4294967295
2.1117861 -0.8541466 0.24029729 4294967295
2.10725 -0.88048357 0.24301958 4294967295
2.1464 -0.90506577 1.6738596 4294967295
2.14575 -0.92246789 1.645497 4294967295
2.1489999 -0.93010187 1.6303765 4294967295
2.1442857 -0.92378604 1.610871 4294967295
2.1489999 -0.93010187 1.6253904 4294967295
2.1456668 -0.90997446 1.586325 4294967295
2.1443 -0.90716666 1.5567865 4294967295
2.151 -0.8985222 1.514123 4294967295
2.1444445 -0.90655619 1.5273994 4294967295
2.1429999 -0.89352727 1.4955107 4294967295
2.1370001 -0.89763576 1.4729532 4294967295
2.1475 -0.9086886 1.4643457 4294967295
2.1422224 -0.92219549 1.4379954 4294967295
2.1559999 -0.93313152 1.4238973 4294967295
2.135 -0.92899615 1.4150931 4294967295
2.1445556 -0.9348073 1.4008534 4294967295
2.1472499 0.501724 1.3716514 4294967295
2.1449442 -0.93828887 1.3752997 4294967295
2.1440001 0.48828042 1.343251 4294967295
2.148 -0.92633963 1.3341579 4294967295
2.1452858 -0.9334628 1.3497123 4294967295
2.1465714 0.52593845 1.3096538 4294967295
2.145 0.49871469 1.3247229 4294967295
2.1559999 0.44749996 1.3088446 4294967295
2.1451001 -0.91545743 1.3133022 4294967295
2.1459999 0.5400269 1.2952275 4294967295
2.135 0.53725886 1.2962074 4294967295
2.1441538 0.44121894 1.2815379 4294967295
2.1456668 -0.90459323 1.286816 4294967295
2.1559999 0.44249767 1.2688262 4294967295
2.135 -0.89927477 1.2553406 4294967295
2.1436665 -0.90292525 1.2496054 4294967295
2.1457143 -0.90662688 1.2240071 4294967295
2.1461112 -0.89232111 1.1901436 4294967295
2.141 -0.90179116 1.2039958 4294967295
2.1530001 0.52465856 1.1571795 4294967295
2.1435001 -0.8891716 1.1718471 4294967295
2.1448889 -0.90951759 1.1599028 4294967295
2.1470001 0.57846552 1.1228993 4294967295
2.1389999 0.55067259 1.1264436 4294967295
2.1451001 0.52437013 1.1401207 4294967295
2.14575 0.50013018 1.1271129 4294967295
2.1422501 -0.92096144 1.1335602 4294967295
2.135 0.57688737 1.1178792 4294967295
2.1389999 0.56307966 1.1189992 4294967295
2.1470001 0.48714289 1.1029737 4294967295
2.1449001 -0.915878 1.1032317 4294967295
2.1459999 0.48027796 1.0612105 4294967295
2.1559999 0.47751367 1.0637324 4294967295
2.1436665 -0.91949743 1.0755317 4294967295
2.1403751 0.47529143 1.0448964 4294967295
2.1496665 -0.92041522 1.0446861 4294967295
2.1466665 0.48374036 1.0115778 4294967295
2.1489999 -0.92012978 1.0145998 4294967295
2.1440001 0.48977923 0.99354541 4294967295
2.1437144 -0.92141116 0.98461807 4294967295
2.135 0.49267685 0.9667955 4294967295
2.1471429 -0.92288941 0.9533245 4294967295
2.151 0.50135964 0.92022538 4294967295
2.1413333 -0.91684723 0.9234066 4294967295
2.1428571 0.50371885 0.8956368 4294967295
2.1422858 -0.91654027 0.89198655 4294967295
2.1441429 0.50330925 0.86317277 4294967295
2.146143 -0.90752167 0.86420548 4294967295
2.1394999 0.49867928 0.83371973 4294967295
2.148 -0.90475041 0.83495188 4294967295
2.1463335 0.50027192 0.80480909 4294967295
2.144875 -0.90653479 0.80402362 4294967295
2.1489999 0.50254464 0.77363455 4294967295
2.1457777 -0.90989214 0.77516514 4294967295
2.1471109 0.50265586 0.74596769 4294967295
2.14675 -0.91106695 0.74324751 4294967295
2.1456251 0.49885631 0.71264613 4294967295
2.1426251 -0.89626342 0.7098875 4294967295
2.1470001 -0.9026618 0.72438681 4294967295
2.1452501 0.49814564 0.68647921 4294967295
2.1419001 -0.89422327 0.68299061 4294967295
2.1545999 0.5021987 0.65845078 4294967295
2.1421669 -0.89648682 0.6626296 4294967295
2.1458001 -0.90381593 0.64793777 4294967295
2.1489999 0.90974933 0.618209 4294967295
2.1456001 0.88639688 0.62700486 4294967295
2.1447501 0.50487906 0.62048173 4294967295
2.1459999 -0.91219735 0.62553859 4294967295
2.1433334 0.89739615 0.60302281 4294967295
2.1526 0.50672698 0.59441453 4294967295
2.1467144 -0.8942371 0.58680344 4294967295
2.1441109 -0.90475923 0.60029554 4294967295
2.1463335 0.5010975 0.56579435 4294967295
2.1416001 -0.89409512 0.5741486 4294967295
2.1454999 -0.90493584 0.56080699 4294967295
2.1520002 0.5015927 0.53594643 4294967295
2.1440001 -0.91301447 0.54087079 4294967295
2.1405001 0.49891236 0.50609505 4294967295
2.1484001 -0.91488826 0.50854331 4294967295
2.1489999 0.51086557 0.47361368 4294967295
2.1446667 0.50153774 0.48365918 4294967295
2.1453333 -0.90860474 0.47618002 4294967295
2.1389999 0.52833974 0.45894098 4294967295
2.1431668 -0.91762948 0.44307077 4294967295
2.1370001 0.53032249 0.40941137 4294967295
2.1454546 -0.92040944 0.41214135 4294967295
2.1475 0.51798111 0.39393041 4294967295
2.1465833 0.49325916 0.37862584 4294967295
2.1463637 0.46225247 0.377702 4294967295
2.1398571 0.43777153 0.38302737 4294967295
2.1431251 0.40505034 0.38175589 4294967295
2.1424 0.3750971 0.37931222 4294967295
2.145 0.34399509 0.38496006 4294967295
2.1470001 0.31362927 0.38897294 4294967295
2.1536667 0.2846064 0.38856608 4294967295
2.1402857 0.25483513 0.38513148 4294967295
2.142889 0.22104611 0.38260078 4294967295
2.142 0.19361892 0.38183147 4294967295
2.1421669 0.16381188 0.37768039 4294967295
2.1443334 0.13661481 0.37643325 4294967295
2.1421428 0.10239495 0.37578815 4294967295
2.1464999 0.074503265 0.37656385 4294967295
2.1421669 0.044534616 0.37684998 4294967295
2.1404002 0.017675674 0.38094121 4294967295
2.1475999 -0.015691612 0.3869549 4294967295
2.1501667 -0.045098975 0.3887797 4294967295
2.1482499 -0.072459117 0.38765594 4294967295
2.1430001 -0.10709706 0.37872964 4294967295
2.148 -0.13478282 0.37396073 4294967295
2.152 -0.16495973 0.37368876 4294967295
2.148 -0.19457169 0.37396073 4294967295
2.1470001 -0.22436258 0.37402871 4294967295
2.1433637 -0.25495273 0.37654531 4294967295
2.1419089 -0.28684884 0.38115776 4294967295
2.1423333 -0.31362519 0.38263595 4294967295
2.1463749 -0.34690973 0.38155434 4294967295
2.1477144 -0.37288839 0.37540144 4294967295
2.1559999 -0.45791414 0.37341684 4294967295
2.145 -0.56256962 0.3741647 4294967295
2.1418889 -0.58411497 0.37769353 4294967295
2.1389999 -0.615596 0.37953547 4294967295
2.1376667 -0.64744753 0.37797183 4294967295
2.1408184 -0.67459333 0.37671411 4294967295
2.1445553 -0.70259809 0.37586233 4294967295
2.1506 -0.73620766 0.37378395 4294967295
2.1559999 -0.76555485 0.37341684 4294967295
2.1515715 -0.79641348 0.3737179 4294967295
2.1435001 -0.82824492 0.37634438 4294967295
2.1409092 -0.85479289 0.38167375 4294967295
2.1461112 -0.88899958 0.39400548 4294967295
2.135 0.4728626 0.36989099 4294967295
2.135 -0.14385617 0.36989099 4294967295
2.135 -0.16367044 0.36989099 4294967295
2.135 -0.18100791 0.36989099 4294967295
2.135 -0.35933623 0.36989099 4294967295
2.1391535 -0.37836811 0.35643679 4294967295
2.1501932 -0.40293229 0.35467362 4294967295
2.1459455 -0.43692377 0.35366255 4294967295
2.1409996 -0.46185276 0.36149341 4294967295
2.1436155 -0.49621409 0.36623263 4294967295
2.1443748 -0.52446783 0.36489201 4294967295
2.139889 -0.55212098 0.36844647 4294967295
2.135 -0.71351606 0.36989099 4294967295
2.1355 -0.73474222 0.36861748 4294967295
2.1356666 -0.76329076 0.36984414 4294967295
2.135 -0.79277313 0.36989099 4294967295
2.135 -0.82001776 0.36989099 4294967295
2.135 -0.85716945 0.343472 4294967295
2.135 -0.38905761 0.33521605 4294967295
2.1385334 -0.40756586 0.3352468 4294967295
2.1381667 -0.43014273 0.33577418 4294967295
2.135 -0.59264916 0.32184142 4294967295
2.1381195 -0.61306757 0.3208544 4294967295
2.140147 -0.6442439 0.32249647 4294967295
2.135 -0.75809819 0.31044823 4294967295
2.1366549 -0.85911775 0.32396483 4294967295
2.1355717 -0.87721646 0.32207435 4294967295
2.135 -0.59710735 0.30301788 4294967295
2.1376424 -0.6155628 0.29496315 4294967295
2.1410496 -0.64287281 0.29558438 4294967295
2.135 -0.66150367 0.29063398 4294967295
2.135 -0.86955339 0.30549467 4294967295
2.135 -0.87450695 0.3005411 4294967295
2.135 -0.62682873 0.27577329 4294967295
2.135 -0.6367358 0.27577329 4294967295
2.1889999 -0.91440159 1.6967537 4294967295
2.1717498 -0.91727036 1.6748755 4294967295
2.1869998 -0.93132585 1.662694 4294967295
2.1737502 -0.92817467 1.6405771 4294967295
2.1763752 -0.93247122 1.6426237 4294967295
2.1744664 -0.91990125 1.6162673 4294967295
2.1761534 -0.90960479 1.5853437 4294967295
2.1739998 -0.91097683 1.5545065 4294967295
2.171 -0.89932692 1.5158165 4294967295
2.1733332 -0.90364343 1.5294892 4294967295
2.1663334 -0.89739376 1.503618 4294967295
2.1775 -0.90538603 1.4893113 4294967295
2.1729999 -0.91760325 1.4659146 4294967295
2.1849999 -0.93047422 1.4512641 4294967295
2.1613333 -0.92708099 1.4411772 4294967295
2.178333 -0.93478024 1.4315698 4294967295
2.1745262 -0.93475085 1.4034956 4294967295
2.176111 0.49766517 1.3734279 4294967295
2.1735237 -0.93493241 1.3750366 4294967295
2.1769998 0.48827651 1.337503 4294967295
2.1839998 0.47660476 1.337292 4294967295
2.1736667 -0.92618257 1.3382673 4294967295
2.1755002 -0.93397152 1.3538074 4294967295
2.1889999 0.54322928 1.3031428 4294967295
2.1760833 0.52654153 1.3157715 4294967295
2.1682 0.50435621 1.325376 4294967295
2.1779997 0.46282133 1.3140615 4294967295
2.1744542 -0.91495955 1.3165033 4294967295
2.174 0.54707301 1.2902102 4294967295
2.1787498 0.4610779 1.2874477 4294967295
2.1672502 0.44605547 1.2727256 4294967295
2.1766 -0.91174686 1.2860938 4294967295
2.1738887 -0.9089182 1.2565398 4294967295
2.1738331 -0.91015577 1.2245834 4294967295
2.181 0.51762235 1.1855819 4294967295
2.1744998 -0.88983655 1.1924291 4294967295
2.164 -0.90144807 1.2063339 4294967295
2.1804442 0.54757917 1.1660082 4294967295
2.1710832 0.52237678 1.1672235 4294967295
2.1726665 -0.89159632 1.1737846 4294967295
2.1762307 -0.91429019 1.1636041 4294967295
2.171 0.60172606 1.1380347 4294967295
2.1823997 0.58461714 1.1362164 4294967295
2.1694 0.55598873 1.1405996 4294967295
2.1660001 0.52157813 1.1483328 4294967295
2.1718574 0.50045013 1.1325121 4294967295
2.1719089 -0.92487818 1.1350503 4294967295
2.1849999 -0.93047422 1.1445549 4294967295
2.1743333 0.48828956 1.1120782 4294967295
2.177727 -0.92048138 1.1054929 4294967295
2.178 0.47733295 1.0667588 4294967295
2.1712501 -0.92524529 1.0763714 4294967295
2.174 0.47645631 1.0581839 4294967295
2.178333 -0.92594224 1.0423921 4294967295
2.1774001 0.49033591 1.008491 4294967295
2.1777499 -0.92611712 1.0174336 4294967295
2.1686001 0.49539894 0.98135674 4294967295
2.168 -0.92681849 0.98485887 4294967295
2.1849999 -0.93047422 0.98232865 4294967295
2.174 0.49663252 0.96739101 4294967295
2.1734998 -0.92556119 0.95264995 4294967295
2.1849999 -0.93047422 0.96711993 4294967295
2.178 0.50259954 0.92019826 4294967295
2.175833 -0.92403591 0.92484641 4294967295
2.1755452 0.50431365 0.89565492 4294967295
2.1773331 -0.92079389 0.89431894 4294967295
2.1749089 0.50278783 0.86709261 4294967295
2.1722498 -0.91243166 0.86936855 4294967295
2.1721816 0.49895325 0.83735132 4294967295
2.1766665 -0.91177487 0.83411467 4294967295
2.1707141 0.50091827 0.80553162 4294967295
2.1755452 -0.91174853 0.80250514 4294967295
2.1776249 0.50376588 0.77361679 4294967295
2.1739089 -0.91427773 0.77431935 4294967295
2.1769998 0.50308472 0.74576128 4294967295
2.1749086 -0.91469079 0.74552786 4294967295
2.1738749 0.49848765 0.71391594 4294967295
2.1745715 -0.89718825 0.70730543 4294967295
2.1765001 -0.90410876 0.72297591 4294967295
2.1758749 0.49894452 0.68316996 4294967295
2.1654284 -0.89629573 0.68786556 4294967295
2.1859999 -0.90046865 0.68329507 4294967295
2.175 0.5026232 0.65544075 4294967295
2.1673334 -0.89947855 0.6643126 4294967295
2.1754444 -0.90564078 0.6497004 4294967295
2.1794999 0.91211116 0.62170762 4294967295
2.1736665 0.88936406 0.61876369 4294967295
2.1745555 0.50515991 0.62945932 4294967295
2.1737998 -0.91257781 0.6263991 4294967295
2.1806667 0.90965545 0.6078496 4294967295
2.1796 0.89234447 0.60445625 4294967295
2.1774285 0.50823557 0.59786564 4294967295
2.1729999 -0.89446867 0.59094518 4294967295
2.1729999 -0.90416169 0.60518616 4294967295
2.1700001 0.50146937 0.56812096 4294967295
2.17275 -0.8949939 0.57644665 4294967295
2.1730001 -0.90878743 0.56240696 4294967295
2.177 0.50236881 0.53612834 4294967295
2.1678333 -0.92064142 0.53609031 4294967295
2.178 0.50259954 0.50583899 4294967295
2.1754999 -0.92011142 0.49702236 4294967295
2.171 0.51609546 0.47062024 4294967295
2.1764998 0.50477195 0.48313254 4294967295
2.1754999 -0.91633368 0.4755486 4294967295
2.1819999 0.53389829 0.45771351 4294967295
2.1655002 -0.92091155 0.4468818 4294967295
2.1849999 -0.93047422 0.43734959 4294967295
2.1889999 0.54322928 0.41688287 4294967295
2.1708333 0.53114426 0.406818 4294967295
2.1726153 -0.92050642 0.411044 4294967295
2.17975 -0.93202615 0.42110628 4294967295
2.1759999 0.51626694 0.39528751 4294967295
2.1753075 0.49730521 0.38647938 4294967295
2.1709089 0.46844319 0.38477769 4294967295
2.168 0.43237829 0.38769132 4294967295
2.1733334 0.40321127 0.38401359 4294967295
2.1721997 0.37528616 0.38239515 4294967295
2.1751668 0.34630135 0.3881101 4294967295
2.1835001 0.31389555 0.39181149 4294967295
2.1839998 0.2835575 0.39178216 4294967295
2.1661665 0.25528619 0.38864815 4294967295
2.1748335 0.22685209 0.38727432 4294967295
2.1743333 0.19654936 0.38730484 4294967295
2.1765714 0.16751672 0.38356569 4294967295
2.1735001 0.13851885 0.379807 4294967295
2.1658001 0.10278037 0.37879133 4294967295
2.1821668 0.075750642 0.38176382 4294967295
2.1752219 0.042691384 0.38389564 4294967295
2.1732857 0.016734937 0.38665283 4294967295
2.1765714 -0.015026687 0.39006779 4294967295
2.1874001 -0.043340921 0.39158255 4294967295
2.17275 -0.078312337 0.38867116 4294967295
2.1754999 -0.10618762 0.38387752 4294967295
2.1738572 -0.13459624 0.37797201 4294967295
2.1784999 -0.16698718 0.37694156 4294967295
2.174 -0.19440249 0.37723708 4294967295
2.1756666 -0.22734597 0.37712762 4294967295
2.175 -0.25575268 0.38150182 4294967295
2.1734288 -0.28657153 0.38592818 4294967295
2.1733999 -0.31537545 0.38736182 4294967295
2.1805711 -0.34674916 0.38620821 4294967295
2.1724284 -0.37354121 0.38095343 4294967295
2.1715 -0.40578565 0.37489235 4294967295
2.1739998 -0.4364993 0.37472337 4294967295
2.1675832 -0.46497557 0.37599275 4294967295
2.1719997 -0.49566466 0.37463063 4294967295
2.1746664 -0.52406448 0.37384066 4294967295
2.1748891 -0.55442452 0.37550715 4294967295
2.1771429 -0.58509231 0.38064882 4294967295
2.1691666 -0.61419845 0.38258731 4294967295
2.1718888 -0.64606178 0.38410783 4294967295
2.1749997 -0.67010742 0.38411885 4294967295
2.1775 -0.70409346 0.38038889 4294967295
2.1696665 -0.73518515 0.37752163 4294967295
2.1761429 -0.76728344 0.37566447 4294967295
2.179857 -0.7967636 0.37685245 4294967295
2.175 -0.82457072 0.38006496 4294967295
2.1749997 -0.85341907 0.38439077 4294967295
2.1726999 -0.88389152 0.39245135 4294967295
2.1600001 -0.41466194 0.36612868 4294967295
2.1600001 -0.42969662 0.36713099 4294967295
2.214 -0.91370714 1.7238878 4294967295
2.2109334 -0.91620171 1.7034096 4294967295
2.2084212 -0.92614323 1.6753459 4294967295
2.2013333 -0.93232226 1.6676255 4294967295
2.2088425 -0.92010945 1.6432215 4294967295
2.1976669 -0.93331456 1.6529716 4294967295
2.2069998 -0.90909469 1.6155236 4294967295
2.2067897 -0.90928966 1.5853058 4294967295
2.2066667 -0.90867728 1.5563395 4294967295
2.2028463 -0.90464723 1.5237268 4294967295
2.2063572 -0.91103929 1.4939909 4294967295
2.2088518 -0.92258304 1.4642583 4294967295
2.198 -0.93091053 1.4542527 4294967295
2.2132401 -0.92235714 1.4347472 4294967295
2.2000835 -0.9343406 1.4347212 4294967295
2.2086668 0.49940959 1.394715 4294967295
2.2112 -0.92109215 1.4054785 4294967295
2.1957142 -0.93139619 1.4070697 4294967295
2.2032857 0.49308965 1.3787174 4294967295
2.2123446 -0.92157 1.3756518 4294967295
2.1985004 -0.93324411 1.3753972 4294967295
2.201 0.49385852 1.3368082 4294967295
2.2045002 0.47034812 1.3436531 4294967295
2.2073078 -0.91887456 1.3455381 4294967295
2.1945 -0.93197227 1.356025 4294967295
2.2098 0.54582435 1.3039126 4294967295
2.2083046 0.5242871 1.3181638 4294967295
2.207 0.49308443 1.317753 4294967295
2.1947999 0.47592255 1.3128521 4294967295
2.2095003 -0.91783148 1.3155948 4294967295
2.2132001 0.48847535 1.2855999 4294967295
2.2043531 0.47197431 1.2804909 4294967295
2.2055001 0.44497961 1.2809017 4294967295
2.207875 -0.91587394 1.2830018 4294967295
2.2190001 0.48374435 1.2649653 4294967295
2.2136667 0.47658753 1.2665946 4294967295
2.2060003 -0.91279107 1.2524087 4294967295
2.2190001 0.51463503 1.2134807 4294967295
2.2190001 0.50691235 1.2134807 4294967295
2.20925 -0.89720911 1.2142725 4294967295
2.2052667 -0.90804476 1.2282901 4294967295
2.2008572 0.51297551 1.1946951 4294967295
2.2130001 0.50758994 1.1936333 4294967295
2.2068238 -0.88915163 1.193701 4294967295
2.2129998 0.58256906 1.1525562 4294967295
2.2052002 0.56311727 1.1641459 4294967295
2.1945 0.51149881 1.1676404 4294967295
2.2085557 0.50736445 1.1623838 4294967295
2.2075002 -0.89480472 1.1748776 4294967295
2.2073462 -0.91633904 1.1631408 4294967295
2.1960001 -0.93006349 1.1502467 4294967295
2.2014999 0.60251147 1.1467173 4294967295
2.20925 0.58542407 1.1489236 4294967295
2.2059095 0.4950673 1.135875 4294967295
2.2089131 -0.92125303 1.1356804 4294967295
2.1960001 -0.93006349 1.1451516 4294967295
2.2190001 0.48117012 1.11566 4294967295
2.2072635 -0.92107457 1.1079166 4294967295
2.2130001 -0.92955464 1.0627041 4294967295
2.204273 -0.93123537 1.0772979 4294967295
2.2086501 -0.92515314 1.0436904 4294967295
2.1960001 -0.93006349 1.0585351 4294967295
2.2100999 0.49051398 1.0137835 4294967295
2.2060001 -0.92566919 1.0149206 4294967295
2.2046669 0.49595788 0.98647487 4294967295
2.2094617 -0.92708123 0.98413968 4294967295
2.1960001 -0.93006349 0.98465621 4294967295
2.2055001 -0.92469245 0.95568097 4294967295
2.1960001 -0.93006349 0.96682334 4294967295
2.2058334 0.49919677 0.92104757 4294967295
2.207778 -0.9247911 0.92567921 4294967295
2.2071669 0.49907652 0.89484859 4294967295
2.2059336 -0.91890448 0.89616627 4294967295
2.2077894 0.49624503 0.86650181 4294967295
2.2068336 -0.91672516 0.86405909 4294967295
2.208909 0.49807429 0.83480626 4294967295
2.2076428 -0.91522515 0.83272111 4294967295
2.2042501 0.50097793 0.80483443 4294967295
2.2080002 -0.91235906 0.804461 4294967295
2.2050002 0.50138241 0.77563965 4294967295
2.206286 -0.91416758 0.77585346 4294967295
2.2051668 0.50118881 0.74613333 4294967295
2.2057776 -0.91485482 0.74675387 4294967295
2.2072001 0.49600941 0.71509677 4294967295
2.2066667 -0.89759058 0.70902836 4294967295
2.2064288 -0.90375483 0.72321934 4294967295
2.2050002 0.49602899 0.68471873 4294967295
2.2089999 -0.8989417 0.69416404 4294967295
2.2054446 -0.90164584 0.67878246 4294967295
2.2066431 0.50042063 0.65558302 4294967295
2.2061501 -0.90465742 0.65306568 4294967295
2.194 0.91352588 0.61686993 4294967295
2.207154 0.50458819 0.6236307 4294967295
2.213625 -0.8964324 0.61603308 4294967295
2.2042501 -0.90732729 0.62500942 4294967295
2.1987998 0.90429753 0.60313976 4294967295
2.1984 0.89495754 0.60006392 4294967295
2.207154 0.5049808 0.59289449 4294967295
2.2060001 -0.89794719 0.59828806 4294967295
2.2149999 -0.90213615 0.5801118 4294967295
2.2020001 0.50069958 0.56583267 4294967295
2.2066667 -0.91295034 0.56339538 4294967295
2.2062502 0.5014317 0.53634733 4294967295
2.2053335 -0.92718351 0.54572827 4294967295
2.2060001 -0.9325887 0.53380597 4294967295
2.2085001 0.50322658 0.50756317 4294967295
2.2043998 -0.92747217 0.50002605 4294967295
2.2087779 0.51937443 0.46548066 4294967295
2.2061665 0.50653285 0.48005483 4294967295
2.2062221 -0.92244321 0.47749525 4294967295
2.20925 0.54697013 0.44797456 4294967295
2.211 0.53586417 0.4568857 4294967295
2.1976669 -0.9273665 0.45216966 4294967295
2.2056668 -0.93329245 0.43656901 4294967295
2.2073333 0.54520667 0.41942215 4294967295
2.2080002 0.52367342 0.40756193 4294967295
2.2124169 0.49684572 0.40295213 4294967295
2.217 0.47301838 0.40013242 4294967295
2.2123334 -0.89590788 0.40038472 4294967295
2.2070773 -0.9154442 0.40816003 4294967295
2.2068572 -0.93464655 0.42262632 4294967295
2.1960001 0.51184839 0.39617273 4294967295
2.1997275 0.49369121 0.39364788 4294967295
2.2007504 0.46445009 0.39335909 4294967295
2.205364 0.43587074 0.3928614 4294967295
2.20575 0.40537339 0.38731354 4294967295
2.2051113 0.37242436 0.38770854 4294967295
2.2069998 0.34415036 0.39363921 4294967295
2.207 0.31470826 0.39555246 4294967295
2.207 0.28654486 0.39555249 4294967295
2.2064545 0.25458425 0.3932654 4294967295
2.2108183 0.2252529 0.39254791 4294967295
2.2085001 0.19450475 0.3929165 4294967295
2.2060001 0.1635662 0.3879391 4294967295
2.2047002 0.13278215 0.38341427 4294967295
2.2021999 0.10708455 0.38305873 4294967295
2.2082727 0.075484209 0.38757044 4294967295
2.2038889 0.048362512 0.38891691 4294967295
2.2084002 0.017734416 0.39292204 4294967295
2.2083333 -0.02326957 0.39547729 4294967295
2.21 -0.041234035 0.3953833 4294967295
2.206625 -0.075718261 0.3923834 4294967295
2.2075715 -0.10593674 0.38821173 4294967295
2.207 -0.13334163 0.3827579 4294967295
2.2068 -0.17275701 0.38225898 4294967295
2.2101667 -0.19507875 0.3825627 4294967295
2.2076249 -0.23006423 0.38208055 4294967295
2.2037144 -0.2540307 0.38478491 4294967295
2.2062225 -0.28258774 0.38934606 4294967295
2.2065001 -0.31419811 0.3913193 4294967295
2.2064998 -0.34321609 0.39046121 4294967295
2.2040002 -0.37661505 0.38607281 4294967295
2.2075713 -0.40741044 0.3816241 4294967295
2.2088335 -0.43581524 0.38264331 4294967295
2.2022729 -0.465424 0.38328487 4294967295
2.2095556 -0.49491671 0.38174385 4294967295
2.2042501 -0.52823472 0.37845677 4294967295
2.2068751 -0.5538547 0.38020611 4294967295
2.206111 -0.58116573 0.38366586 4294967295
2.2040002 -0.61384809 0.38549435 4294967295
2.2084444 -0.64498162 0.38808027 4294967295
2.2067144 -0.6771282 0.38899156 4294967295
2.2085001 -0.70346951 0.38587081 4294967295
2.2069168 -0.73499137 0.38276628 4294967295
2.2079999 -0.7635181 0.38098538 4294967295
2.2065001 -0.79372251 0.38022232 4294967295
2.2075 -0.82275933 0.38323969 4294967295
2.2081821 -0.85463631 0.38804066 4294967295
2.2041113 -0.882339 0.39401317 4294967295
2.2374284 -0.91348839 1.731686 4294967295
2.2341998 -0.91616756 1.7041106 4294967295
2.2311332 -0.92180741 1.6752157 4294967295
2.2409999 -0.89712703 1.6311167 4294967295
2.2309999 -0.90863079 1.6452563 4294967295
2.2321 -0.89872879 1.6189278 4294967295
2.2297142 -0.90294319 1.6121945 4294967295
2.2309999 -0.90346175 1.5856034 4294967295
2.2327499 -0.90460658 1.5575093 4294967295
2.2294445 -0.90744036 1.5253596 4294967295
2.2341537 -0.91311485 1.4925365 4294967295
2.2316844 -0.91272652 1.4629693 4294967295
2.2298234 -0.90907127 1.4344454 4294967295
2.2286665 0.49876654 1.4026413 4294967295
2.2338889 -0.9098137 1.4055729 4294967295
2.2219999 0.48697603 1.3793917 4294967295
2.2323155 -0.9075352 1.3743825 4294967295
2.2219999 0.47150975 1.35877 4294967295
2.2309999 -0.91063631 1.3486125 4294967295
2.2314 0.54390901 1.3043234 4294967295
2.2306001 0.52535123 1.3084384 4294967295
2.2231429 0.50564927 1.3090923 4294967295
2.2338574 -0.92018223 1.3165801 4294967295
2.2378461 0.52120829 1.2854629 4294967295
2.2262664 0.5023784 1.2835851 4294967295
2.2305999 0.46712688 1.2771316 4294967295
2.2319999 -0.91422969 1.2814114 4294967295
2.243 0.51326299 1.256542 4294967295
2.2351 0.49556032 1.2546177 4294967295
2.2279999 0.47795233 1.2602258 4294967295
2.2315333 -0.90885335 1.2553618 4294967295
2.233 0.51615649 1.2282283 4294967295
2.2357852 0.50220984 1.2261422 4294967295
2.2316666 -0.8959657 1.2217448 4294967295
2.2307501 -0.90336418 1.2352645 4294967295
2.2339089 0.50324273 1.198332 4294967295
2.2305713 -0.88851351 1.1963826 4294967295
2.2336667 0.57935983 1.1662511 4294967295
2.2312727 0.50263882 1.1655319 4294967295
2.2308571 -0.89527243 1.1742953 4294967295
2.23125 -0.91099566 1.158741 4294967295
2.2285001 0.48667479 1.1363118 4294967295
2.2311113 -0.91040903 1.1364437 4294967295
2.233 -0.92129946 1.1105372 4294967295
2.2349999 -0.93274266 1.095758 4294967295
2.2395 -0.92769402 1.0666025 4294967295
2.2282 -0.93232149 1.0777991 4294967295
2.2379999 0.48529008 1.032487 4294967295
2.2311332 -0.91904706 1.0457447 4294967295
2.2349999 0.48808986 1.0162385 4294967295
2.2316363 -0.92302448 1.0140797 4294967295
2.231909 0.49196318 0.98588485 4294967295
2.2311666 -0.92466909 0.98431575 4294967295
2.2311666 -0.92165238 0.95325589 4294967295
2.2344999 0.49229789 0.92022288 4294967295
2.2325556 -0.92309439 0.9224664 4294967295
2.2302725 0.49113417 0.89477289 4294967295
2.2323999 -0.9169811 0.89653903 4294967295
2.2322502 0.4905113 0.86154187 4294967295
2.2293332 -0.91831881 0.86756694 4294967295
2.2341108 0.49595949 0.83287907 4294967295
2.2318182 -0.91415215 0.8357079 4294967295
2.2317274 0.49709877 0.80462945 4294967295
2.2324615 -0.90883726 0.80609512 4294967295
2.2305 0.49659172 0.77459788 4294967295
2.2324998 -0.91036171 0.77408993 4294967295
2.2318182 0.49665022 0.74485904 4294967295
2.2327499 -0.91021574 0.74376994 4294967295
2.2345715 0.49194327 0.71320021 4294967295
2.2319999 -0.89713663 0.71521401 4294967295
2.2219999 -0.90498716 0.72980893 4294967295
2.2322223 0.49208146 0.68531632 4294967295
2.2276001 -0.89899337 0.68899965 4294967295
2.2365 -0.90180588 0.67799449 4294967295
2.2298751 0.49645451 0.65554106 4294967295
2.2306921 -0.89855903 0.65140241 4294967295
2.2349999 -0.90163231 0.66707861 4294967295
2.2295556 0.50069624 0.62188834 4294967295
2.2320714 -0.89575648 0.62903202 4294967295
2.2330766 0.49935439 0.59374666 4294967295
2.2323334 -0.89710069 0.60475451 4294967295
2.2349999 -0.90336311 0.59102803 4294967295
2.2312999 0.49676892 0.56502062 4294967295
2.2309999 -0.91554123 0.5650295 4294967295
2.2337143 0.49916446 0.53840548 4294967295
2.2449999 -0.92998105 0.54967326 4294967295
2.2313333 -0.93466145 0.53915083 4294967295
2.2296667 0.50243956 0.50639313 4294967295
2.2219999 -0.92560881 0.49265963 4294967295
2.2323332 -0.93336499 0.50462985 4294967295
2.2335 0.51280707 0.46142551 4294967295
2.2305 0.50608587 0.47616303 4294967295
2.2325001 -0.92652142 0.47613841 4294967295
2.234 -0.93060762 0.4614124 4294967295
2.2337499 0.55109394 0.44069085 4294967295
2.237 0.52571988 0.45527539 4294967295
2.2449999 -0.93518984 0.45591515 4294967295
2.2329998 0.54740447 0.42206764 4294967295
2.2349334 0.52298903 0.41957197 4294967295
2.2317498 0.49644986 0.41142747 4294967295
2.2375 0.47218812 0.40421543 4294967295
2.2323332 -0.89882231 0.40448278 4294967295
2.2323334 -0.91954142 0.41225341 4294967295
2.2335 -0.93298173 0.41996872 4294967295
2.223 0.45882413 0.39980802 4294967295
2.2331667 0.43502501 0.39753675 4294967295
2.23175 0.40629607 0.39157918 4294967295
2.2314286 0.3788406 0.39270204 4294967295
2.2306001 0.34498286 0.39836603 4294967295
2.2233334 0.31445807 0.39978999 4294967295
2.2266667 0.28392819 0.39960977 4294967295
2.2398 0.25701457 0.39889967 4294967295
2.2373333 0.22036918 0.39731458 4294967295
2.2419999 0.19745278 0.39878073 4294967295
2.2298334 0.16533291 0.39340574 4294967295
2.2293334 0.13425525 0.38912073 4294967295
2.2309999 0.10146838 0.38976699 4294967295
2.2378001 0.075084612 0.39381576 4294967295
2.2305999 0.047911461 0.39526165 4294967295
2.2418001 0.017993651 0.39879155 4294967295
2.2360001 -0.020968653 0.39910513 4294967295
2.2384 -0.044365015 0.39897537 4294967295
2.2358 -0.072272941 0.39705378 4294967295
2.2273333 -0.10096809 0.39268744 4294967295
2.2298334 -0.13472198 0.38737291 4294967295
2.2258 -0.1639424 0.38520381 4294967295
2.243 -0.19277099 0.38831839 4294967295
2.2219999 -0.21931639 0.38439584 4294967295
2.2298572 -0.25481689 0.38983411 4294967295
2.2305 -0.2848154 0.39422739 4294967295
2.2219999 -0.31520715 0.39470667 4294967295
2.2259998 -0.3462556 0.39448112 4294967295
2.2305999 -0.37541711 0.3921577 4294967295
2.2328 -0.40685955 0.38685504 4294967295
2.2375998 -0.43889418 0.3886354 4294967295
2.2253335 -0.4648867 0.38935554 4294967295
2.2337143 -0.4988437 0.38739055 4294967295
2.2253332 -0.52685225 0.38419241 4294967295
2.2219999 -0.55441862 0.38439584 4294967295
2.2331667 -0.58567607 0.38889569 4294967295
2.2219999 -0.61370593 0.38955125 4294967295
2.2219999 -0.63432759 0.38955125 4294967295
2.2296667 -0.70287663 0.39083433 4294967295
2.2390001 -0.73357183 0.3885532 4294967295
2.2312 -0.76476246 0.38591787 4294967295
2.2219999 -0.79414564 0.38439584 4294967295
2.2347143 -0.82793629 0.38806832 4294967295
2.2331429 -0.85843694 0.39334184 4294967295
2.2289999 -0.88300395 0.39845252 4294967295
2.2715001 -0.9185614 1.7595592 4294967295
2.2630911 -0.91359997 1.7322736 4294967295
2.2634547 -0.92043382 1.7062122 4294967295
2.2632728 -0.91891062 1.6760271 4294967295
2.257 -0.89829564 1.6364315 4294967295
2.2648335 -0.90402734 1.646422 4294967295
2.268091 -0.90461409 1.61392 4294967295
2.2646999 -0.9050321 1.5850512 4294967295
2.2657499 -0.91229206 1.5618846 4294967295
2.2644286 -0.91701382 1.5271229 4294967295
2.2664287 -0.91631496 1.4927254 4294967295
2.2643335 -0.9117108 1.4652183 4294967295
2.2650001 0.50691032 1.4222987 4294967295
2.2637501 -0.90841323 1.4344704 4294967295
2.2606666 0.4954325 1.4030588 4294967295
2.267909 -0.91076261 1.4067073 4294967295
2.2635002 -0.90875626 1.3737671 4294967295
2.2628334 -0.92162728 1.3452842 4294967295
2.276 -0.93226129 1.3316278 4294967295
2.2650001 0.54369664 1.3014293 4294967295
2.2650001 -0.92775565 1.3066845 4294967295
2.276 -0.93226129 1.3157856 4294967295
2.2543333 0.52893281 1.2733395 4294967295
2.2596667 0.47075021 1.2838732 4294967295
2.263875 -0.91677952 1.2865925 4294967295
2.2622857 0.5254342 1.2588699 4294967295
2.2615001 0.48950842 1.250362 4294967295
2.26425 -0.909711 1.2552013 4294967295
2.2618752 0.49833456 1.2268777 4294967295
2.263 -0.89805144 1.2219672 4294967295
2.2673333 -0.90239364 1.2320715 4294967295
2.2650001 0.50480455 1.196331 4294967295
2.257 -0.89305902 1.1965411 4294967295
2.2650001 -0.90147972 1.18056 4294967295
2.2673333 0.61787033 1.1707193 4294967295
2.2705002 0.595056 1.1742685 4294967295
2.2610002 0.49988565 1.1688923 4294967295
2.2638183 -0.90768498 1.1630243 4294967295
2.2610002 0.48764521 1.1426535 4294967295
2.26475 -0.91385698 1.1364679 4294967295
2.2690001 -0.92939407 1.1185529 4294967295
2.2627501 -0.93732703 1.1037841 4294967295
2.2667501 -0.92451596 1.0653628 4294967295
2.2632 -0.93855846 1.0834055 4294967295
2.27425 0.48787391 1.0381436 4294967295
2.2635002 -0.92082965 1.0456712 4294967295
2.2587502 0.48846936 1.0136757 4294967295
2.2590001 -0.92791325 1.0137203 4294967295
2.276 -0.93226129 1.0147853 4294967295
2.2632859 0.49227324 0.98575342 4294967295
2.2602 -0.92788237 0.98512471 4294967295
2.276 -0.93226129 0.99366248 4294967295
2.2616668 -0.92639023 0.95655334 4294967295
2.276 -0.93226129 0.94085538 4294967295
2.2697501 0.4921748 0.92127758 4294967295
2.2610002 -0.92698222 0.92495 4294967295
2.276 -0.93226129 0.93557471 4294967295
2.2562003 0.48923662 0.89532906 4294967295
2.2664001 -0.92411792 0.89701509 4294967295
2.2624002 0.49058101 0.87008023 4294967295
2.2648573 -0.92694277 0.86521345 4294967295
2.266 0.49661914 0.84435654 4294967295
2.2640002 -0.91683292 0.83182943 4294967295
2.2715001 0.49782455 0.80037284 4294967295
2.2632859 -0.91204655 0.80647212 4294967295
2.2676668 0.49698439 0.77357507 4294967295
2.2633753 -0.9139576 0.77309155 4294967295
2.2710001 0.49771497 0.74498731 4294967295
2.2615716 -0.91359925 0.74628013 4294967295
2.2550001 0.4942084 0.72507918 4294967295
2.2690001 -0.90481573 0.71582502 4294967295
2.253 0.49377006 0.67262161 4294967295
2.263 -0.90593421 0.68379927 4294967295
2.2590001 0.49770102 0.65469289 4294967295
2.2602 -0.89746356 0.64846003 4294967295
2.2675002 -0.90246135 0.66175818 4294967295
2.2695 0.50265181 0.62634075 4294967295
2.2620001 -0.8976534 0.63126051 4294967295
2.2705002 -0.90102834 0.62377429 4294967295
2.2661669 0.49840435 0.5946418 4294967295
2.2690001 -0.90833616 0.60263515 4294967295
2.2680001 0.49705747 0.56310707 4294967295
2.253 -0.92806768 0.55500633 4294967295
2.276 -0.93226129 0.56064439 4294967295
2.2637501 0.50137824 0.53676689 4294967295
2.2650001 -0.94746023 0.53154445 4294967295
2.253 0.50422466 0.50011921 4294967295
2.2636669 -0.94295341 0.50787848 4294967295
2.257 0.51035649 0.46080923 4294967295
2.2637143 0.50736934 0.47262111 4294967295
2.2708001 -0.9375034 0.47415534 4294967295
2.2632 0.55271363 0.44173399 4294967295
2.26525 0.52351838 0.44350365 4294967295
2.2650001 -0.9435212 0.45008904 4294967295
2.2667501 0.54673791 0.42637509 4294967295
2.2583334 0.52375734 0.42846316 4294967295
2.263273 0.49840698 0.41816872 4294967295
2.2627501 0.46311069 0.40422899 4294967295
2.2690001 0.44989643 0.40258539 4294967295
2.2667501 0.34165341 0.4027018 4294967295
2.2583334 0.31416085 0.40313736 4294967295
2.2688003 0.28666061 0.4025957 4294967295
2.266 -0.89660239 0.40274063 4294967295
2.2627501 -0.91895884 0.41078809 4294967295
2.2636669 -0.94121408 0.42387283 4294967295
2.2665 0.43098438 0.39745608 4294967295
2.256 0.40282369 0.39278948 4294967295
2.2646668 0.37023881 0.3975552 4294967295
2.253 0.22543301 0.398186 4294967295
2.2590001 0.18322274 0.3978616 4294967295
2.266 0.16718119 0.39574066 4294967295
2.2675002 0.13654958 0.39214101 4294967295
2.2656 0.10756785 0.39224815 4294967295
2.2736666 0.065730616 0.39706859 4294967295
2.263 0.0470469 0.39764529 4294967295
2.2583334 -0.081439458 0.39789763 4294967295
2.2646668 -0.1078958 0.39406103 4294967295
2.2609999 -0.13920344 0.38901645 4294967295
2.2610002 -0.16545711 0.38726163 4294967295
2.253 -0.20669414 0.38773131 4294967295
2.2546 -0.22253594 0.38763738 4294967295
2.2616 -0.25572547 0.3924737 4294967295
2.2686667 -0.29234201 0.39733893 4294967295
2.2576668 -0.31448546 0.39793366 4294967295
2.2650001 -0.34444284 0.39753717 4294967295
2.26775 -0.371135 0.39607933 4294967295
2.2705002 -0.39531812 0.39197186 4294967295
2.2550001 -0.42400265 0.38761389 4294967295
2.2705002 -0.4664163 0.39197186 4294967295
2.2705002 -0.49014756 0.39197186 4294967295
2.257 -0.52780437 0.38749647 4294967295
2.2563336 -0.55512106 0.3875356 4294967295
2.2636669 -0.58760297 0.39061472 4294967295
2.2596667 -0.61361134 0.39258271 4294967295
2.2550001 -0.64505285 0.39284587 4294967295
2.253 -0.70329189 0.39295864 4294967295
2.276 -0.72631365 0.39166173 4294967295
2.253 -0.77124739 0.38773131 4294967295
2.2563334 -0.79594547 0.38753563 4294967295
2.257 -0.81712794 0.38749647 4294967295
2.2678001 -0.851026 0.39318025 4294967295
2.2610002 -0.87626487 0.39775345 4294967295
2.3026667 -0.92002606 1.786352 4294967295
2.2963078 -0.9151473 1.7634301 4294967295
2.2925835 -0.91644108 1.7360125 4294967295
2.2944 -0.92594838 1.7086728 4294967295
2.294091 -0.91400653 1.6758149 4294967295
2.2956002 -0.90512598 1.6448493 4294967295
2.3000998 -0.90743536 1.6177094 4294967295
2.2933333 -0.91098034 1.5852114 4294967295
2.2943335 -0.92290807 1.552857 4294967295
2.299 -0.92389572 1.5238396 4294967295
2.2945554 -0.91914058 1.4973316 4294967295
2.2930999 -0.9121182 1.4648623 4294967295
2.2839999 0.5323596 1.4351667 4294967295
2.2944999 0.5055148 1.4313763 4294967295
2.2968001 -0.91199422 1.4376223 4294967295
2.296 0.48721263 1.3973582 4294967295
2.2989001 -0.91229427 1.403785 4294967295
2.28 0.47852743 1.3859541 4294967295
2.2927778 -0.91667533 1.3736415 4294967295
2.28 -0.9233197 1.3542142 4294967295
2.3033333 -0.93633038 1.3520601 4294967295
2.2980001 -0.92526108 1.3056998 4294967295
2.2923331 -0.93450487 1.3197045 4294967295
2.2932501 0.48529962 1.2779043 4294967295
2.2908998 -0.91496748 1.2864468 4294967295
2.296 0.54048371 1.2695074 4294967295
2.2964001 0.49582046 1.248318 4294967295
2.2901251 -0.91213351 1.2582738 4294967295
2.2895999 0.5017913 1.2195873 4294967295
2.2839999 -0.89844316 1.2125974 4294967295
2.2996001 -0.90457177 1.2269197 4294967295
2.2944 0.50442541 1.1939174 4294967295
2.2809999 -0.89726311 1.1984534 4294967295
2.298857 -0.90351099 1.193493 4294967295
2.2826667 0.61678767 1.1751199 4294967295
2.2906001 0.49562079 1.1667523 4294967295
2.2938185 -0.91051948 1.1662161 4294967295
2.28 0.4891074 1.1479046 4294967295
2.293 -0.92006499 1.1397815 4294967295
2.296 -0.93512625 1.1256754 4294967295
2.2936666 -0.94480973 1.1031647 4294967295
2.2974999 -0.92506146 1.0687571 4294967295
2.2940001 -0.93641794 1.0814929 4294967295
2.2967501 0.48403713 1.0406116 4294967295
2.309 0.47925672 1.0433884 4294967295
2.2926667 -0.92548078 1.0467857 4294967295
2.309 -0.93506372 1.0326738 4294967295
2.2937143 0.48670837 1.0159737 4294967295
2.2950003 -0.93604147 1.0149118 4294967295
2.2936668 0.49114153 0.98756385 4294967295
2.2880001 -0.9292044 0.97757995 4294967295
2.295857 -0.93353045 0.99016368 4294967295
2.28 -0.92860967 0.96539998 4294967295
2.2964287 -0.93300742 0.95605642 4294967295
2.2981818 0.49154148 0.92555416 4294967295
2.2943332 -0.9282217 0.91762424 4294967295
2.29725 -0.93429601 0.93278778 4294967295
2.286 0.49039456 0.89231503 4294967295
2.2972 -0.92814404 0.90320039 4294967295
2.2952499 -0.9334814 0.88716817 4294967295
2.2979999 0.49509409 0.86495692 4294967295
2.2990003 -0.93527859 0.865107 4294967295
2.2908001 0.49991328 0.83732778 4294967295
2.2958889 -0.9214533 0.83384132 4294967295
2.2974 0.50028634 0.80508435 4294967295
2.291091 -0.91378236 0.80398154 4294967295
2.3013999 0.4990378 0.77468777 4294967295
2.2924998 -0.9158293 0.77635318 4294967295
2.3035002 0.49949321 0.74552989 4294967295
2.2952726 -0.91689974 0.74737167 4294967295
2.2880001 0.49613217 0.71482152 4294967295
2.2950001 -0.91021097 0.71966946 4294967295
2.2897501 0.49517232 0.68439406 4294967295
2.2932498 -0.91138512 0.68332607 4294967295
2.2962499 0.50191694 0.65555763 4294967295
2.2879999 -0.89735305 0.64579546 4294967295
2.293 -0.90303552 0.66096127 4294967295
2.2943332 -0.90515292 0.62664229 4294967295
2.29 0.50187892 0.60606349 4294967295
2.2920001 -0.91222584 0.60879064 4294967295
2.309 0.50068575 0.56391233 4294967295
2.302 -0.94290096 0.55756038 4294967295
2.2952859 0.50302905 0.53435189 4294967295
2.2880001 -0.95045716 0.53960592 4294967295
2.3070002 -0.96101695 0.5264082 4294967295
2.2939999 0.5080781 0.50507754 4294967295
2.2946 -0.95051599 0.5045259 4294967295
2.2951999 0.50834382 0.47577947 4294967295
2.2976665 -0.94468439 0.47219431 4294967295
2.2927501 0.54969883 0.43792024 4294967295
2.2927275 0.51213109 0.444406 4294967295
2.296 0.50852102 0.44646865 4294967295
2.289 -0.95138377 0.44406015 4294967295
2.2839999 0.55090708 0.42830551 4294967295
2.296375 0.49794236 0.41982067 4294967295
2.2936666 0.47073618 0.40663064 4294967295
2.2936668 0.44412768 0.40130895 4294967295
2.299 0.37051281 0.40103295 4294967295
2.2990003 0.34487429 0.40530902 4294967295
2.3004999 0.31468141 0.40629289 4294967295
2.2980001 0.28685486 0.40465313 4294967295
2.2928333 0.25510287 0.40135208 4294967295
2.299 0.2238196 0.40103295 4294967295
2.3015001 0.19734274 0.40090358 4294967295
2.30375 0.042553216 0.40078714 4294967295
2.2998335 0.015790898 0.40098983 4294967295
2.3006668 -0.01621226 0.40094671 4294967295
2.2951999 -0.045486417 0.40122962 4294967295
2.3048 -0.072420336 0.40073282 4294967295
2.3070002 -0.31601757 0.40061897 4294967295
2.309 -0.34040624 0.4005155 4294967295
2.2998002 -0.88862318 0.40099156 4294967295
2.2948 -0.91865849 0.4087078 4294967295
2.2939999 -0.94601887 0.42152777 4294967295
2.286 0.42408872 0.39640176 4294967295
