# .PCD v0.7 - Point Cloud Data file format
VERSION 0.7
FIELDS x y z rgb
SIZE 4 4 4 4
TYPE F F F U
COUNT 1 1 1 1
WIDTH 1155
HEIGHT 1
VIEWPOINT 0 0 0 1 0 0 0
POINTS 1155
DATA ascii
2.5170002 2.2218313 1.7504416 4294967295
2.5026877 2.203732 1.761951 4294967295
2.4975388 2.1805685 1.7756883 4294967295
2.5145004 2.1087801 1.7754728 4294967295
2.5082726 2.0831804 1.769436 4294967295
2.5062726 2.0564039 1.7726638 4294967295
2.5023336 2.0317855 1.7780908 4294967295
2.5170002 1.83056 1.7738011 4294967295
2.5053337 1.8131642 1.7660249 4294967295
2.4940002 1.7941594 1.7588711 4294967295
2.5021253 1.7457069 1.7562269 4294967295
2.5024288 1.7258039 1.7723439 4294967295
2.5022004 1.6943731 1.7791799 4294967295
2.5065911 1.6627725 1.7749313 4294967295
2.5068524 1.6346749 1.7730285 4294967295
2.5104005 1.6137334 1.7786609 4294967295
2.5157504 1.5115404 1.7790153 4294967295
2.5110004 1.4882885 1.77809 4294967295
2.517 1.3263844 1.7523882 4294967295
2.517 0.9662593 1.7796409 4294967295
2.5153334 0.81972325 1.7788068 4294967295
2.517 0.79982299 1.7796409 4294967295
2.506875 -0.9213931 1.7651119 4294967295
2.4930003 2.2527034 1.7213566 4294967295
2.5016537 2.2290092 1.7286425 4294967295
2.4980001 2.2166412 1.7440494 4294967295
2.5143332 1.9044617 1.7309881 4294967295
2.5108337 1.8066552 1.7406174 4294967295
2.5032504 1.7848283 1.7285925 4294967295
2.5006433 1.7581453 1.7370522 4294967295
2.5011668 -0.90842062 1.7339877 4294967295
2.4955003 2.2839124 1.6965034 4294967295
2.4950376 2.2637587 1.704541 4294967295
2.4990363 2.2345357 1.7066689 4294967295
2.5072942 2.2105043 1.7015582 4294967295
2.5120003 1.8968629 1.7188561 4294967295
2.517 0.87476802 1.707616 4294967295
2.517 0.86406153 1.7037226 4294967295
2.50475 -0.89324051 1.7027949 4294967295
2.5120001 -0.90070617 1.7188561 4294967295
2.4936252 2.2641172 1.6804368 4294967295
2.493417 2.2342772 1.676241 4294967295
2.5041254 2.2122545 1.6776844 4294967295
2.5029521 -0.88831818 1.6752573 4294967295
2.5050004 2.2228069 1.6456873 4294967295
2.5006957 2.2149844 1.6461 4294967295
2.4992499 -0.89902657 1.6547755 4294967295
2.5047145 -0.90472686 1.6414871 4294967295
2.5031741 2.233093 1.6143845 4294967295
2.5005002 2.2188518 1.629236 4294967295
2.5047777 -0.91166759 1.6146677 4294967295
2.4980001 2.2514181 1.5817693 4294967295
2.5060627 2.2466819 1.5877112 4294967295
2.5015383 -0.90988684 1.5839292 4294967295
2.503963 2.2584968 1.5553519 4294967295
2.517 0.5633083 1.5460461 4294967295
2.5017998 -0.9057467 1.5543575 4294967295
2.5046506 2.2658217 1.5250186 4294967295
2.5073335 0.53398573 1.5265666 4294967295
2.5011427 -0.90592152 1.5263232 4294967295
2.501389 2.257025 1.4984025 4294967295
2.5063753 2.2422197 1.4850076 4294967295
2.5120001 0.51556313 1.4915535 4294967295
2.4961667 -0.9056406 1.4940988 4294967295
2.4930003 2.2527034 1.4784209 4294967295
2.4987223 2.2311192 1.4699929 4294967295
2.5071669 2.2140961 1.4586568 4294967295
2.5076251 -0.90276563 1.4622164 4294967295
2.5020373 2.2094572 1.4347941 4294967295
2.5043333 -0.90763509 1.4324119 4294967295
2.5066252 2.2231853 1.3993245 4294967295
2.5018003 2.2170961 1.4127259 4294967295
2.5085001 -0.91399169 1.405792 4294967295
2.497524 2.2250473 1.3725388 4294967295
2.5123336 2.2177048 1.3751016 4294967295
2.5033002 -0.91906917 1.3749247 4294967295
2.5022411 2.2330008 1.3458304 4294967295
2.5145004 2.2167046 1.3583369 4294967295
2.493 0.51166356 1.3453846 4294967295
2.5012219 -0.92004102 1.3455149 4294967295
2.5035331 2.2403052 1.3147793 4294967295
2.517 0.51074946 1.3124514 4294967295
2.5120001 0.50973487 1.3225337 4294967295
2.5026667 -0.8963809 1.3079333 4294967295
2.5026 -0.90544927 1.3241692 4294967295
2.5016286 2.2312741 1.2853794 4294967295
2.5025001 0.50780714 1.2759631 4294967295
2.5026667 -0.89734298 1.2914922 4294967295
2.5046 -0.90617985 1.2771671 4294967295
2.5023184 2.227849 1.2542477 4294967295
2.4955001 0.67139262 1.2564704 4294967295
2.503 0.50210118 1.2673919 4294967295
2.5044999 -0.913261 1.2532983 4294967295
2.499125 2.2252336 1.2289126 4294967295
2.5045002 2.2153327 1.218441 4294967295
2.5076249 -0.89330131 1.2164099 4294967295
2.4980001 -0.90727007 1.2282225 4294967295
2.4930003 2.2237825 1.2036719 4294967295
2.5024519 2.2068954 1.1951103 4294967295
2.5039372 -0.89307857 1.1965011 4294967295
2.5008574 2.200099 1.1656166 4294967295
2.4979999 0.51268977 1.155779 4294967295
2.5022726 -0.90459639 1.1663606 4294967295
2.5041902 2.2019243 1.1363175 4294967295
2.5003335 0.51219541 1.1360532 4294967295
2.5013001 -0.90556496 1.1363001 4294967295
2.503036 2.2096825 1.1041622 4294967295
2.5059998 0.5065707 1.1074002 4294967295
2.5083334 -0.9061752 1.1040946 4294967295
2.4930003 2.2237825 1.0793121 4294967295
2.5022905 2.2110596 1.074086 4294967295
2.4990001 0.50129879 1.0748763 4294967295
2.5044999 -0.91108471 1.0717114 4294967295
2.5006173 2.204092 1.0444975 4294967295
2.5026665 -0.91219008 1.0453558 4294967295
2.493 2.2237825 1.0041176 4294967295
2.4999735 2.2035608 1.0149285 4294967295
2.5046666 -0.90823179 1.0170262 4294967295
2.5018635 2.2295513 0.97890782 4294967295
2.5046148 2.2108672 0.98936772 4294967295
2.5031664 -0.91011006 0.98479736 4294967295
2.5059445 2.2401326 0.95495129 4294967295
2.517 2.2159915 0.96789908 4294967295
2.5054998 0.50841588 0.94550359 4294967295
2.5010002 -0.89674723 0.94184095 4294967295
2.5038886 -0.90746874 0.95717347 4294967295
2.50368 2.2300148 0.92881167 4294967295
2.4980001 2.2180882 0.91380203 4294967295
2.493 0.51166356 0.91735488 4294967295
2.5120001 0.50973487 0.93786806 4294967295
2.5007498 -0.88505757 0.92584836 4294967295
2.5016363 2.2108848 0.89472413 4294967295
2.4946668 0.51200563 0.90026021 4294967295
2.5018001 -0.8860113 0.89553344 4294967295
2.4999032 2.1986642 0.86569041 4294967295
2.4998002 0.50725931 0.8662613 4294967295
2.5027502 -0.89447761 0.86664641 4294967295
2.5000587 2.2015586 0.83555853 4294967295
2.497 0.50571775 0.83785719 4294967295
2.4979999 -0.89954239 0.84667432 4294967295
2.5054286 -0.90332401 0.83214349 4294967295
2.4992776 2.2261372 0.79785955 4294967295
2.503125 2.2112489 0.8098166 4294967295
2.493 0.5058794 0.80456322 4294967295
2.5010908 -0.90997285 0.8041687 4294967295
2.5043793 2.2304938 0.77430278 4294967295
2.4990001 0.50709695 0.77333999 4294967295
2.5043335 -0.89503336 0.76518351 4294967295
2.5022001 -0.90704465 0.77833164 4294967295
2.5036666 2.2252486 0.74617058 4294967295
2.503 2.2191362 0.73505205 4294967295
2.4980001 0.51268977 0.73557878 4294967295
2.5120001 0.50973487 0.75719172 4294967295
2.501364 -0.88738263 0.74563986 4294967295
2.5017498 2.2252712 0.71438402 4294967295
2.5079999 2.2197056 0.72771907 4294967295
2.5025001 0.51650542 0.7156952 4294967295
2.5079999 -0.89927185 0.72771907 4294967295
2.5056002 -0.9077087 0.71356213 4294967295
2.4991109 2.2304981 0.68703789 4294967295
2.503 0.51952338 0.69826806 4294967295
2.5008001 -0.91757458 0.68650866 4294967295
2.503588 2.2250009 0.65865904 4294967295
2.4979999 2.2185674 0.64573824 4294967295
2.5076666 0.52631021 0.66367644 4294967295
2.5041428 -0.91364419 0.65434206 4294967295
2.5022726 2.2138247 0.62432426 4294967295
2.5027001 -0.89619565 0.62043345 4294967295
2.5025001 -0.90308398 0.63725603 4294967295
2.5024118 2.2103031 0.59473914 4294967295
2.5046666 0.53149176 0.58798063 4294967295
2.504889 -0.91621298 0.6041165 4294967295
2.5062504 -0.94369429 0.59964025 4294967295
2.5037999 -0.97328383 0.58910853 4294967295
2.504889 2.2140248 0.56473458 4294967295
2.5036001 0.51847756 0.56006575 4294967295
2.5036666 -0.99452883 0.56277114 4294967295
2.5058889 2.2223165 0.53440368 4294967295
2.5018663 2.2181253 0.53448474 4294967295
2.5034287 0.49387765 0.54396409 4294967295
2.5020001 0.46457079 0.5340023 4294967295
2.5011666 0.43497902 0.53081989 4294967295
2.5034289 0.40759182 0.53401124 4294967295
2.5009999 0.37403265 0.5356487 4294967295
2.5050001 0.34557533 0.53567368 4294967295
2.4979999 0.31563303 0.53562993 4294967295
2.497 0.2836194 0.53659695 4294967295
2.5050001 0.25551906 0.53859365 4294967295
2.4996667 0.22592776 0.53564036 4294967295
2.5095999 0.1948165 0.53570247 4294967295
2.5040002 0.16535039 0.53566742 4294967295
2.5040002 0.13628562 0.53566742 4294967295
2.5102859 0.10334655 0.53488046 4294967295
2.5010002 0.074224807 0.53179258 4294967295
2.5081668 0.046315767 0.53376544 4294967295
2.5012858 0.011771428 0.52819443 4294967295
2.5059998 -0.0089704059 0.52405125 4294967295
2.5120001 -0.084748529 0.52406096 4294967295
2.5076668 -0.10497613 0.52405393 4294967295
2.5149999 -0.13737375 0.52406579 4294967295
2.516 -0.16660452 0.52406746 4294967295
2.5077999 -0.19515042 0.52405417 4294967295
2.5086 -0.22433314 0.52405548 4294967295
2.517 -0.24259368 0.52406907 4294967295
2.5056 -0.46818951 0.52405059 4294967295
2.5068333 -0.49558973 0.52890486 4294967295
2.5020001 -0.5255962 0.52984989 4294967295
2.503 -0.55774111 0.52888978 4294967295
2.5041113 -0.58542728 0.52728742 4294967295
2.5057998 -0.61361808 0.52405095 4294967295
2.5150001 -0.64503169 0.52406579 4294967295
2.5005 -0.67319739 0.52404237 4294967295
2.503875 -0.70170945 0.52623779 4294967295
2.5139999 -0.73227584 0.52406418 4294967295
2.5106668 -0.80118924 0.52405882 4294967295
2.5016251 -0.82443517 0.52695197 4294967295
2.5020001 -0.8573094 0.53151673 4294967295
2.5052502 -0.88375145 0.53858709 4294967295
2.5035999 -0.91569221 0.54438925 4294967295
2.5046666 -0.94359881 0.54633009 4294967295
2.5013335 -0.97521937 0.54725778 4294967295
2.493 2.2237825 0.51535398 4294967295
2.5031106 2.2116938 0.50619763 4294967295
2.5005 -0.023446782 0.51824081 4294967295
2.5040002 -0.04381299 0.51823831 4294967295
2.4963334 -0.066840343 0.51824373 4294967295
2.4950001 -0.25205791 0.51824468 4294967295
2.503 -0.28479975 0.51823902 4294967295
2.5009999 -0.31648961 0.51824045 4294967295
2.5020001 -0.34758195 0.51727569 4294967295
2.5011666 -0.3764863 0.51147318 4294967295
2.5026002 -0.40378359 0.50954074 4294967295
2.5034287 -0.4337965 0.51492852 4294967295
2.4979999 -0.45519876 0.51824254 4294967295
2.493 -0.62782097 0.51824605 4294967295
2.493 -0.64228141 0.51824605 4294967295
2.4992499 -0.73668653 0.51824164 4294967295
2.5021667 -0.76654112 0.51823962 4294967295
2.4946668 -0.79030228 0.51824486 4294967295
2.5004139 2.2017665 0.47523329 4294967295
2.5023334 2.2003932 0.44373554 4294967295
2.5005 2.194586 0.41433859 4294967295
2.493 2.1890774 0.40834653 4294967295
2.5019133 2.1978891 0.38548186 4294967295
2.5030556 2.2017579 0.35659954 4294967295
2.5043998 2.2060409 0.32610577 4294967295
2.5005293 2.2079613 0.29402742 4294967295
2.5018752 2.2291322 0.25810939 4294967295
2.5044546 2.2144332 0.27101645 4294967295
2.505652 2.2350421 0.23439321 4294967295
2.5027778 2.2247322 0.21370104 4294967295
2.5027859 2.2096715 0.19968757 4294967295
2.5015001 2.1936214 0.18741739 4294967295
2.5041175 2.1789925 0.17203319 4294967295
2.4967501 2.1966968 0.13518992 4294967295
2.50475 2.1804798 0.14775187 4294967295
2.5049226 2.2015274 0.11722821 4294967295
2.5047855 2.2064681 0.084867626 4294967295
2.5115716 2.2220232 0.047064304 4294967295
2.5009997 2.2166522 0.058257937 4294967295
2.4994116 2.2233453 0.02532509 4294967295
2.513 2.2124581 0.020408839 4294967295
2.503 2.2384813 -0.0038046241 4294967295
2.5079999 2.2531543 -0.035054207 4294967295
2.493 2.2469194 -0.038963795 4294967295
2.5106668 2.2511809 -0.054580152 4294967295
2.5025454 2.2401874 -0.0684641 4294967295
2.503269 2.2262094 -0.092257977 4294967295
2.5055714 2.2175355 -0.10544419 4294967295
2.493 2.2237825 -0.11223018 4294967295
2.5044346 2.2147572 -0.12396342 4294967295
2.5029089 2.2056763 -0.15486163 4294967295
2.4995651 2.1953223 -0.18297976 4294967295
2.4942501 2.1887259 -0.19356638 4294967295
2.493 2.2237825 -0.22502178 4294967295
2.5018001 2.2031512 -0.21623176 4294967295
2.4979999 2.1876719 -0.20043492 4294967295
2.5029564 2.2298563 -0.24528575 4294967295
2.5114 2.2133801 -0.23460191 4294967295
2.5025237 2.2375042 -0.27444428 4294967295
2.5031817 2.2418177 -0.29643285 4294967295
2.53825 0.74179614 1.9330785 4294967295
2.5469999 -0.88370842 1.9394367 4294967295
2.540333 0.75124454 1.9091905 4294967295
2.5353334 0.74681699 1.9221318 4294967295
2.5357499 -0.88568848 1.9154952 4294967295
2.5344999 0.75392252 1.8853905 4294967295
2.5369999 -0.89201134 1.8955728 4294967295
2.5365837 1.184165 1.8497555 4294967295
2.5327692 1.1581011 1.847636 4294967295
2.5355716 0.75150818 1.8536162 4294967295
2.5295 -0.89524323 1.8475111 4294967295
2.5386667 1.9032415 1.8150179 4294967295
2.5320005 1.8799679 1.8158479 4294967295
2.5385003 1.3579251 1.8127686 4294967295
2.5332499 1.3354384 1.8151895 4294967295
2.5244999 1.3103288 1.8112121 4294967295
2.5355 1.1865931 1.822431 4294967295
2.5327692 1.1572016 1.8236997 4294967295
2.5220001 1.1378714 1.8318808 4294967295
2.5312855 1.0338322 1.81111 4294967295
2.5328333 0.75587451 1.8208662 4294967295
2.5220001 -0.8984403 1.8348066 4294967295
2.5349998 -0.91482776 1.8239459 4294967295
2.5436668 2.2099605 1.7851149 4294967295
2.5358889 2.1789882 1.7903942 4294967295
2.5310004 2.1460779 1.7866265 4294967295
2.5270002 2.1280491 1.7817082 4294967295
2.5410001 2.0484564 1.7833924 4294967295
2.5375001 2.0238278 1.7916673 4294967295
2.5299168 1.9945098 1.7983276 4294967295
2.533154 1.9616301 1.8003666 4294967295
2.5358236 1.9328187 1.8011571 4294967295
2.5345004 1.9153073 1.8060257 4294967295
2.5420001 1.8698007 1.799722 4294967295
2.528429 1.8522764 1.7928904 4294967295
2.5362859 1.7235054 1.7833997 4294967295
2.5290003 1.7019753 1.7821193 4294967295
2.5470002 1.6219088 1.7828356 4294967295
2.5347276 1.6039255 1.7858266 4294967295
2.5340002 1.5759825 1.7924435 4294967295
2.5346925 1.5480086 1.7871171 4294967295
2.5336671 1.5192921 1.782084 4294967295
2.5325558 1.4821227 1.784153 4294967295
2.5327144 1.4533149 1.7891772 4294967295
2.5345001 1.4286901 1.7913294 4294967295
2.5336666 1.3934394 1.7963053 4294967295
2.5417373 1.3649439 1.7991358 4294967295
2.5397778 1.3315202 1.7956259 4294967295
2.5307035 1.3020641 1.7925667 4294967295
2.5317059 1.276648 1.7911236 4294967295
2.5329092 1.2453542 1.788121 4294967295
2.5350001 1.2143031 1.7862824 4294967295
2.5324001 1.1843828 1.7950839 4294967295
2.533875 1.1557071 1.7957798 4294967295
2.5335002 1.1230593 1.7902403 4294967295
2.5359473 1.0961524 1.7869381 4294967295
2.5349166 1.0660036 1.798143 4294967295
2.5389998 1.0365433 1.806545 4294967295
2.5336668 1.004784 1.7977544 4294967295
2.5355 0.97392321 1.782999 4294967295
2.534174 0.9436909 1.7902651 4294967295
2.5315454 0.91630512 1.8023975 4294967295
2.5353334 0.88798118 1.8005711 4294967295
2.5355713 0.85570639 1.7931247 4294967295
2.5353334 0.82426929 1.7829278 4294967295
2.5370002 0.79312789 1.7888141 4294967295
2.5320001 0.77227592 1.8018315 4294967295
2.5270002 -0.92757475 1.7963833 4294967295
2.5469999 -0.9309842 1.8064735 4294967295
2.5370002 2.2306566 1.7611823 4294967295
2.5257504 2.2090402 1.7722995 4294967295
2.5470002 2.1330783 1.7739713 4294967295
2.5370004 2.1137168 1.7644712 4294967295
2.5348952 2.0843768 1.7597982 4294967295
2.5310004 2.0609412 1.7713732 4294967295
2.5470002 1.9528394 1.7591977 4294967295
2.5415459 1.9331094 1.7672746 4294967295
2.5374551 1.9085711 1.7609761 4294967295
2.538667 1.8456624 1.7662489 4294967295
2.5220003 1.8283449 1.7587374 4294967295
2.5470002 1.7755551 1.7532881 4294967295
2.5350003 1.7565944 1.7674725 4294967295
2.5220003 1.7347214 1.7762918 4294967295
2.5364449 1.688418 1.7710463 4294967295
2.5327697 1.6639051 1.7622024 4294967295
2.5323334 1.6344805 1.7692927 4294967295
2.5220003 1.6147664 1.7762918 4294967295
2.5420001 1.5331998 1.7774018 4294967295
2.5347276 1.5141176 1.7767348 4294967295
2.5220003 1.4948112 1.7762918 4294967295
2.5385628 1.3632796 1.7650292 4294967295
2.5308237 1.3356123 1.764454 4294967295
2.5355418 1.3113797 1.7663682 4294967295
2.540333 0.97128487 1.7775604 4294967295
2.5444999 0.94729793 1.777164 4294967295
2.5369999 -0.92144275 1.7661049 4294967295
2.5331113 2.2308197 1.7367591 4294967295
2.5470002 1.9557941 1.7414693 4294967295
2.5327146 1.9330643 1.732492 4294967295
2.532357 1.90298 1.7360991 4294967295
2.5436668 1.8361808 1.739863 4294967295
2.534143 1.8169773 1.7298193 4294967295
2.5351253 1.7871227 1.7313567 4294967295
2.5220003 1.7669046 1.7382572 4294967295
2.5409999 1.3598657 1.7468419 4294967295
2.5329092 1.3367229 1.7464516 4294967295
2.5469999 0.90095294 1.7296503 4294967295
2.5398571 0.88158351 1.7279463 4294967295
2.5469999 0.8595866 1.7237408 4294967295
2.5320001 -0.89612806 1.7225264 4294967295
2.5320001 -0.90669084 1.7366185 4294967295
2.535929 2.2116206 1.7063013 4294967295
2.5270004 1.9101402 1.7181896 4294967295
2.543 1.809345 1.7183048 4294967295
2.5403333 0.90448868 1.7146884 4294967295
2.5327694 0.88687843 1.7066038 4294967295
2.5315454 0.86290109 1.7078846 4294967295
2.536375 -0.88515937 1.7047307 4294967295
2.5407503 2.2251024 1.6736287 4294967295
2.5253336 2.211606 1.6812754 4294967295
2.5328333 -0.89054829 1.6749165 4294967295
2.5335002 2.2287478 1.6438727 4294967295
2.5220001 -0.8984403 1.6592624 4294967295
2.534857 -0.90973943 1.6457413 4294967295
2.5370002 2.2522316 1.6101245 4294967295
2.5288751 2.2418313 1.6191018 4294967295
2.5357499 -0.91510534 1.6154693 4294967295
2.5379093 2.2558088 1.5850713 4294967295
2.5220003 2.249651 1.5846561 4294967295
2.5339999 -0.90976471 1.5882497 4294967295
2.5470002 2.2837701 1.5464566 4294967295
2.5323849 2.2674911 1.5577351 4294967295
2.5345001 0.54659969 1.5561057 4294967295
2.5320001 0.53729194 1.5462862 4294967295
2.5353334 -0.90907264 1.5564436 4294967295
2.5353336 2.2693677 1.5211586 4294967295
2.5220001 0.53224421 1.5246786 4294967295
2.527 -0.91194767 1.5178642 4294967295
2.5345001 2.2558744 1.5041664 4294967295
2.5345001 2.2362664 1.4894652 4294967295
2.5332499 -0.91125709 1.4938803 4294967295
2.5320003 2.2232926 1.4734194 4294967295
2.5348573 2.2157278 1.4583623 4294967295
2.5420001 -0.90673536 1.467746 4294967295
2.5428336 2.225945 1.4297322 4294967295
2.5313752 2.2146833 1.4410478 4294967295
2.5344999 -0.91171503 1.4384964 4294967295
2.5337858 2.2240336 1.4046496 4294967295
2.5361667 -0.91623098 1.4047927 4294967295
2.5420001 2.2232511 1.3763232 4294967295
2.5358002 2.2125039 1.3734331 4294967295
2.5310001 -0.92278373 1.3755851 4294967295
2.5357101 2.2347162 1.3454704 4294967295
2.5295 0.51328593 1.3428056 4294967295
2.5328333 -0.9189465 1.3478005 4294967295
2.5332503 2.2349732 1.314621 4294967295
2.527 0.5127787 1.3067994 4294967295
2.5307498 -0.89714849 1.3138316 4294967295
2.5420001 -0.90162545 1.3202991 4294967295
2.534143 2.2319148 1.2859147 4294967295
2.527 0.5127787 1.295085 4294967295
2.5344999 -0.91024244 1.2856127 4294967295
2.5336668 2.2350557 1.2549785 4294967295
2.533 -0.91527629 1.2528211 4294967295
2.5353336 2.2252398 1.234879 4294967295
2.5320003 2.2128558 1.2192512 4294967295
2.5344999 -0.88917029 1.2228963 4294967295
2.5270002 -0.90607297 1.2354673 4294967295
2.5348127 2.2081273 1.1967392 4294967295
2.5320001 -0.89170903 1.1967461 4294967295
2.5320001 -0.90200275 1.1820565 4294967295
2.531167 2.207408 1.1661651 4294967295
2.533 -0.90823597 1.1646708 4294967295
2.5360913 2.2129946 1.1349806 4294967295
2.5469999 0.51683706 1.1387029 4294967295
2.5369999 -0.90967011 1.1362739 4294967295
2.5341432 2.2138464 1.1036497 4294967295
2.5295 0.50741708 1.1080506 4294967295
2.5353334 -0.91102302 1.1084499 4294967295
2.534308 2.2135713 1.0768116 4294967295
2.5345001 0.50253963 1.0680555 4294967295
2.54 -0.91663909 1.0780516 4294967295
2.5365458 2.2085733 1.0462607 4294967295
2.5320001 0.5020439 1.0449809 4294967295
2.5348573 -0.9130947 1.0433276 4294967295
2.5364447 2.210217 1.0151613 4294967295
2.5469999 -0.91325575 1.014604 4294967295
2.536737 2.2141438 0.98225379 4294967295
2.5362856 -0.91192186 0.982256 4294967295
2.5313478 2.2291088 0.95230132 4294967295
2.5370004 2.2114136 0.96036649 4294967295
2.5320001 -0.89319068 0.94413233 4294967295
2.5345001 -0.90581518 0.96021986 4294967295
2.5336668 2.2291818 0.925313 4294967295
2.5370002 0.51480788 0.9243378 4294967295
2.5257499 -0.88219571 0.91965783 4294967295
2.54075 2.2251024 0.90285444 4294967295
2.5305715 2.2119877 0.88894939 4294967295
2.54075 0.51556879 0.89845419 4294967295
2.5320001 -0.89024645 0.89419997 4294967295
2.5364444 2.2069442 0.86674023 4294967295
2.5469999 0.51092756 0.87573123 4294967295
2.5253334 0.50658131 0.85806489 4294967295
2.5300002 -0.89776075 0.86456811 4294967295
2.5469999 -0.90143681 0.86095762 4294967295
2.534857 2.2107022 0.83496761 4294967295
2.5220001 0.5059126 0.83127928 4294967295
2.5339999 -0.90623766 0.83570242 4294967295
2.5362856 2.2237077 0.79731685 4294967295
2.5320001 2.214505 0.81195509 4294967295
2.5300002 0.5075174 0.80584693 4294967295
2.5336666 -0.91238368 0.80431926 4294967295
2.5344999 2.231014 0.7758438 4294967295
2.5469999 0.51092756 0.77822495 4294967295
2.5345001 0.50842005 0.78577542 4294967295
2.5303333 -0.89552653 0.77065277 4294967295
2.5370002 -0.90523809 0.78308868 4294967295
2.5354614 2.2317772 0.74672711 4294967295
2.5295 0.51328593 0.75003213 4294967295
2.5345001 -0.89407545 0.74166906 4294967295
2.5369999 -0.90378392 0.73012096 4294967295
2.5362856 2.2371702 0.71491575 4294967295
2.5320001 0.51966792 0.72383213 4294967295
2.5369999 -0.91555643 0.71246213 4294967295
2.5360906 2.2418818 0.68456817 4294967295
2.5332499 -0.92595834 0.67983794 4294967295
2.5344999 2.2358017 0.65420789 4294967295
2.5336666 0.53176713 0.64754146 4294967295
2.52825 -0.91532743 0.65313572 4294967295
2.5353332 2.2232933 0.6260404 4294967295
2.5244999 2.2152686 0.61632884 4294967295
2.5469999 0.53456545 0.6304881 4294967295
2.5353334 -0.89730775 0.61821717 4294967295
2.5419998 -0.90261036 0.63321435 4294967295
2.5386665 2.2223017 0.59675556 4294967295
2.5220001 2.2145422 0.59429479 4294967295
2.5307498 -0.91035497 0.60189295 4294967295
2.5384288 -0.94548178 0.59477872 4294967295
2.5303333 -0.97184712 0.58866948 4294967295
2.5320001 -0.9901228 0.58284003 4294967295
2.5374548 2.2259605 0.5642432 4294967295
2.5303333 0.52521598 0.56717539 4294967295
2.5369999 0.50892156 0.55353272 4294967295
2.5469999 -0.92507476 0.55366492 4294967295
2.540333 -0.94326693 0.55357683 4294967295
2.5330002 -0.97287822 0.55347985 4294967295
2.5341432 -0.99852055 0.56273818 4294967295
2.5356665 2.2253485 0.53586251 4294967295
2.5353334 0.49092072 0.54762828 4294967295
2.53075 0.46803415 0.54024374 4294967295
2.5244999 0.43905261 0.53579569 4294967295
2.5395 0.40042844 0.54178166 4294967295
2.5409999 0.37412158 0.54179448 4294967295
2.5444999 0.34218007 0.54182452 4294967295
2.5344999 0.31731054 0.54173875 4294967295
2.5220001 0.2855072 0.54163152 4294967295
2.5220001 0.24844794 0.54163152 4294967295
2.5420001 0.22680812 0.54180306 4294967295
2.54 0.16773444 0.54178596 4294967295
2.5419998 0.13538642 0.54180306 4294967295
2.5469999 0.1149928 0.54184598 4294967295
2.5220001 0.072903804 0.53578007 4294967295
2.5220001 0.031943507 0.53578007 4294967295
2.5336666 0.020314869 0.53585309 4294967295
2.5339999 -0.014932036 0.52763063 4294967295
2.5359998 -0.044375192 0.52409977 4294967295
2.5253334 -0.067613013 0.52408254 4294967295
2.5444999 -0.20095792 0.5300172 4294967295
2.5436666 -0.22156462 0.53001392 4294967295
2.5245001 -0.25796843 0.52408117 4294967295
2.5369999 -0.28572527 0.52410138 4294967295
2.5350001 -0.31490353 0.52409816 4294967295
2.5369999 -0.34165931 0.52410138 4294967295
2.5469999 -0.44345257 0.52411753 4294967295
2.5320001 -0.46434543 0.52703351 4294967295
2.5345001 -0.49424395 0.53293252 4294967295
2.540333 -0.52479243 0.53589475 4294967295
2.5369999 -0.55649382 0.53587395 4294967295
2.5469999 -0.58527994 0.53593647 4294967295
2.539 -0.61466205 0.5311774 4294967295
2.5469999 -0.63551044 0.53002703 4294967295
2.5370002 -0.68007535 0.52998763 4294967295
2.5220001 -0.71411902 0.52992862 4294967295
2.5353334 -0.73651296 0.52802289 4294967295
2.5419998 -0.76695341 0.52410948 4294967295
2.53075 -0.78704476 0.5240913 4294967295
2.5320001 -0.82416332 0.53143954 4294967295
2.5245001 -0.84953547 0.53579569 4294967295
2.5386665 -0.88080549 0.54177451 4294967295
2.5336668 -0.90257716 0.54761016 4294967295
2.5386667 2.2232749 0.51821393 4294967295
2.5319998 2.2126257 0.50433302 4294967295
2.5345001 -0.37661424 0.51821685 4294967295
2.5469999 -0.41390517 0.51820809 4294967295
2.5336666 -0.42641544 0.51821744 4294967295
2.5304999 2.2073176 0.4771167 4294967295
2.5355 2.2116783 0.44762963 4294967295
2.5338182 2.2046008 0.41401321 4294967295
2.5358889 2.2090762 0.38289091 4294967295
2.5469999 2.2246752 0.34092385 4294967295
2.5334284 2.213649 0.35449314 4294967295
2.5469999 2.2246752 0.33501437 4294967295
2.5303333 2.2169638 0.32253274 4294967295
2.5369999 2.221827 0.29453674 4294967295
2.5220001 2.2145422 0.29586977 4294967295
2.5370002 2.2291689 0.2636483 4294967295
2.5220001 2.2145422 0.27831537 4294967295
2.5324166 2.2398345 0.2356981 4294967295
2.535125 2.23193 0.20793739 4294967295
2.5320001 2.2174482 0.19511166 4294967295
2.5376248 2.2024894 0.18113998 4294967295
2.5303333 2.1846724 0.16792971 4294967295
2.5469999 2.195128 0.13409221 4294967295
2.5353334 2.185545 0.14519042 4294967295
2.5334709 2.201427 0.11401618 4294967295
2.5436666 2.2237258 0.075587571 4294967295
2.5344999 2.2149088 0.088371128 4294967295
2.5353334 2.2242708 0.053911 4294967295
2.5220001 2.2145422 0.067662418 4294967295
2.529 2.223006 0.03707996 4294967295
2.5333159 2.2065117 0.024180859 4294967295
2.540333 2.2542086 -0.014209926 4294967295
2.5323844 2.2340205 -0.0051596761 4294967295
2.5350001 2.2082925 0.0035678744 4294967295
2.5364444 2.2657967 -0.034326732 4294967295
2.536375 2.2595203 -0.061438799 4294967295
2.532625 2.2414756 -0.073064268 4294967295
2.5351579 2.2257664 -0.094127476 4294967295
2.5220001 2.2145422 -0.10788167 4294967295
2.5383637 2.2230117 -0.12319094 4294967295
2.5220001 2.2145422 -0.12836182 4294967295
2.5419998 2.2232511 -0.14825392 4294967295
2.5297778 2.2135322 -0.15743083 4294967295
2.5328333 2.2044559 -0.18451625 4294967295
2.5332499 2.2038417 -0.21575028 4294967295
2.5344999 2.229898 -0.2535879 4294967295
2.532625 2.2120962 -0.23832279 4294967295
2.5343077 2.2438765 -0.27376735 4294967295
2.5429997 2.253037 -0.29719311 4294967295
2.531091 2.2438617 -0.30874825 4294967295
2.5469999 2.2424037 -0.32093734 4294967295
2.5619998 0.74278545 1.9418606 4294967295
2.5682499 -0.88809758 1.9453278 4294967295
2.5653334 0.7536726 1.9109561 4294967295
2.5644999 0.74649113 1.9253862 4294967295
2.5680001 -0.89576155 1.9135935 4294967295
2.563875 0.75447828 1.887096 4294967295
2.552 -0.89728534 1.880052 4294967295
2.5553334 1.1858493 1.8502054 4294967295
2.5680001 0.7534681 1.8528252 4294967295
2.552 -0.8972854 1.8652492 4294967295
2.562 -0.90674275 1.8526877 4294967295
2.5595002 1.9082326 1.8135186 4294967295
2.552 1.1869333 1.8386043 4294967295
2.562 0.76434362 1.8229504 4294967295
2.5610001 -0.92301947 1.8301841 4294967295
2.5670002 -0.93233877 1.8165677 4294967295
2.5670004 2.2349951 1.7879848 4294967295
2.5640001 2.2038167 1.7972133 4294967295
2.5655715 2.172859 1.7920336 4294967295
2.5520003 2.1520686 1.7853147 4294967295
2.5695002 2.0744171 1.782068 4294967295
2.5657501 2.0557613 1.7906417 4294967295
2.5647275 2.025377 1.7997352 4294967295
2.5637648 1.9933193 1.8009251 4294967295
2.562 1.9650396 1.7937545 4294967295
2.5586672 1.9295405 1.7959695 4294967295
2.5670004 1.9058596 1.7959429 4294967295
2.5585003 1.8803234 1.7926707 4294967295
2.5651822 1.7541382 1.7858893 4294967295
2.5638752 1.7293189 1.7859896 4294967295
2.5670002 1.6286888 1.7838151 4294967295
2.5641429 1.604342 1.7904754 4294967295
2.5620003 1.5770459 1.7870595 4294967295
2.5520003 1.559961 1.7853147 4294967295
2.5657501 1.5095778 1.7846829 4294967295
2.5636671 1.4831386 1.792415 4294967295
2.5629091 1.4525441 1.7939576 4294967295
2.5658464 1.4214175 1.7949127 4294967295
2.5588751 1.3960757 1.7924203 4294967295
2.552 1.36871 1.798341 4294967295
2.5603335 1.295755 1.7834944 4294967295
2.5634706 1.2762235 1.7871412 4294967295
2.5612857 1.2460051 1.7848128 4294967295
2.5616429 1.2143327 1.7845669 4294967295
2.5628333 1.1840403 1.791667 4294967295
2.5624545 1.1528645 1.791024 4294967295
2.5620003 1.1265584 1.7861687 4294967295
2.5634286 1.0924083 1.7841736 4294967295
2.5633891 1.0640194 1.7959074 4294967295
2.564187 1.0345623 1.802125 4294967295
2.5629091 1.0055064 1.7917958 4294967295
2.5597272 0.93352151 1.7907556 4294967295
2.5632503 0.91561753 1.7973148 4294967295
2.5620003 0.88503104 1.8038564 4294967295
2.5658889 0.85471404 1.7961613 4294967295
2.5632501 0.8249194 1.7871659 4294967295
2.5605714 0.79626036 1.7955071 4294967295
2.552 0.77245796 1.8089991 4294967295
2.572 -0.92818731 1.783296 4294967295
2.5603335 -0.93287808 1.7983513 4294967295
2.5720003 2.2524791 1.7653936 4294967295
2.5605717 2.2458639 1.7640891 4294967295
2.5655003 2.142606 1.7681789 4294967295
2.5632501 2.1124823 1.7537138 4294967295
2.5643079 2.0896606 1.7648714 4294967295
2.5520003 2.0662129 1.7764331 4294967295
2.5698574 1.9874011 1.7635068 4294967295
2.5591433 1.9680905 1.7651057 4294967295
2.5520003 1.9448309 1.7793937 4294967295
2.5630002 1.9087944 1.7677617 4294967295
2.5648575 1.8696164 1.7661709 4294967295
2.5520003 1.8560148 1.7616304 4294967295
2.5664446 1.7798443 1.7626959 4294967295
2.5586669 1.7658632 1.7727841 4294967295
2.5686669 1.7181498 1.7727133 4294967295
2.5629094 1.6979808 1.7669222 4294967295
2.5613751 1.6659548 1.7647027 4294967295
2.5613754 1.6422024 1.774352 4294967295
2.5697782 1.5701687 1.7742505 4294967295
2.5643535 1.5447484 1.7763753 4294967295
2.5570004 1.5185281 1.7788889 4294967295
2.572 1.4110644 1.771361 4294967295
2.5632505 1.3943818 1.7644867 4294967295
2.5648572 1.3314855 1.7559757 4294967295
2.562 1.303328 1.7716343 4294967295
2.572 1.2857474 1.7773285 4294967295
2.552 1.2224597 1.7793937 4294967295
2.572 1.1126904 1.7773285 4294967295
2.572 1.1037393 1.7773285 4294967295
2.5623846 0.97453004 1.7781008 4294967295
2.5646923 0.94519436 1.7760334 4294967295
2.5704377 0.91632837 1.7646406 4294967295
2.5695 0.89102393 1.7552406 4294967295
2.5644999 -0.91951329 1.7657036 4294967295
2.5608892 2.2328243 1.7369007 4294967295
2.5640001 2.2169008 1.7246351 4294967295
2.5686669 1.9853456 1.7419258 4294967295
2.5611668 1.9641888 1.7348789 4294967295
2.5650003 1.935086 1.7256907 4294967295
2.5614448 1.9110775 1.7391394 4294967295
2.5703335 1.8653737 1.7407321 4294967295
2.5620003 1.8492726 1.7325085 4294967295
2.560889 1.8050206 1.7270051 4294967295
2.5651252 1.7907802 1.7341435 4294967295
2.5685 1.3906729 1.7446238 4294967295
2.5610909 1.3667159 1.744972 4294967295
2.5553334 1.3426327 1.7474395 4294967295
2.572 0.93366611 1.7236212 4294967295
2.562 0.91586757 1.7358608 4294967295
2.559 0.8838076 1.7424756 4294967295
2.5632501 0.85836613 1.7314193 4294967295
2.5628335 -0.89216053 1.7302234 4294967295
2.562 -0.90376192 1.7427187 4294967295
2.5640001 2.2252321 1.6948906 4294967295
2.5607502 2.2138951 1.7089485 4294967295
2.5695002 1.8399303 1.7125151 4294967295
2.5628335 1.8138345 1.7084129 4294967295
2.5677145 1.7862962 1.7077117 4294967295
2.5720003 1.7691132 1.7116863 4294967295
2.5626252 0.91243297 1.7117978 4294967295
2.562 0.88248032 1.7040721 4294967295
2.562 0.85988539 1.7106113 4294967295
2.5611668 -0.88564956 1.7036811 4294967295
2.5635388 2.2359085 1.6739032 4294967295
2.5595 -0.8939839 1.6851013 4294967295
2.5639999 -0.90626234 1.6699014 4294967295
2.5670002 2.2555392 1.6379019 4294967295
2.5638754 2.2438629 1.6514075 4294967295
2.5639999 -0.91815782 1.6472946 4294967295
2.5603335 2.2596767 1.6132078 4294967295
2.5612857 -0.91582561 1.6141826 4294967295
2.562 2.2648876 1.5840698 4294967295
2.5580001 -0.91126508 1.5805693 4294967295
2.566231 2.2877216 1.5555785 4294967295
2.5520003 2.2704902 1.5662349 4294967295
2.572 0.58158487 1.5684668 4294967295
2.5632501 -0.91610163 1.5530229 4294967295
2.5632503 2.2834537 1.5366442 4294967295
2.5645003 2.2648633 1.5226473 4294967295
2.5670002 2.2480924 1.5128256 4294967295
2.562 0.53771371 1.5346689 4294967295
2.5709999 -0.92186135 1.5263076 4294967295
2.5520003 2.2527268 1.5070242 4294967295
2.5643079 2.2388628 1.4943874 4294967295
2.552 0.51785165 1.5011032 4294967295
2.562 -0.91168958 1.4920585 4294967295
2.5632503 2.2269588 1.4657657 4294967295
2.566 -0.9105413 1.4648128 4294967295
2.5643337 2.2314727 1.4344451 4294967295
2.562 -0.91763961 1.4355977 4294967295
2.5641429 2.2302852 1.406762 4294967295
2.5690002 2.2081168 1.3943888 4294967295
2.5639999 -0.92173141 1.4045801 4294967295
2.5614643 2.2048097 1.3748357 4294967295
2.5695002 2.1876891 1.3826356 4294967295
2.5595 0.51937354 1.3733051 4294967295
2.562 -0.92753905 1.3786143 4294967295
2.562 -0.9305228 1.3712013 4294967295
2.5633047 2.2334688 1.3458977 4294967295
2.5636668 2.2173984 1.3588583 4294967295
2.5611668 -0.91138685 1.3441722 4294967295
2.5645006 2.2399454 1.318048 4294967295
2.5695 0.51544106 1.314085 4294967295
2.552 -0.8972854 1.3175497 4294967295
2.5632501 -0.90272701 1.3136294 4294967295
2.5720003 2.2524791 1.2760603 4294967295
2.5600002 2.2437425 1.2867875 4294967295
2.562 0.69226491 1.279065 4294967295
2.5569999 -0.91802096 1.2835256 4294967295
2.5720003 2.2524791 1.2641253 4294967295
2.5638752 2.2446086 1.2535882 4294967295
2.563875 -0.91335207 1.2535939 4294967295
2.562 2.2270703 1.2338908 4294967295
2.5651822 2.2172751 1.2199465 4294967295
2.5631113 -0.88797092 1.2271999 4294967295
2.5720003 2.2226417 1.1865481 4294967295
2.5620003 2.2156086 1.1974663 4294967295
2.5644999 -0.89275235 1.2054327 4294967295
2.5620003 -0.9055475 1.188712 4294967295
2.5660002 2.2245991 1.1635613 4294967295
2.5545003 2.2178864 1.165724 4294967295
2.5657499 0.5206418 1.164103 4294967295
2.5680001 -0.91482741 1.16763 4294967295
2.5638185 2.2252982 1.1357611 4294967295
2.562 0.51591802 1.1344286 4294967295
2.5695 -0.91536176 1.1411819 4294967295
2.5645003 2.2255743 1.1067464 4294967295
2.5669999 0.50898367 1.0959141 4294967295
2.5639999 -0.91935134 1.1011691 4294967295
2.5670004 2.2269187 1.076056 4294967295
2.5520003 2.2172005 1.0629435 4294967295
2.5644999 0.508488 1.086431 4294967295
2.5700002 -0.92150277 1.0727428 4294967295
2.5670002 2.2242765 1.0423112 4294967295
2.5520003 2.2172005 1.0570223 4294967295
2.5570002 -0.91684145 1.0491813 4294967295
2.5677142 2.2265937 1.0118197 4294967295
2.552 2.2172005 1.0185354 4294967295
2.572 -0.91625237 1.0075238 4294967295
2.5695 2.223459 0.9921428 4294967295
2.5615454 2.2146668 0.98121297 4294967295
2.5669999 -0.91565537 0.9875102 4294967295
2.565125 2.2308211 0.94447184 4294967295
2.5597272 2.2098606 0.95822269 4294967295
2.572 0.51594257 0.95381647 4294967295
2.5595 -0.89694446 0.94873011 4294967295
2.5669999 -0.90850759 0.96487713 4294967295
2.5628333 2.2399812 0.92501414 4294967295
2.5628335 -0.89018893 0.92550367 4294967295
2.5653334 2.2317472 0.8981216 4294967295
2.5570002 2.2185724 0.88305485 4294967295
2.5669999 0.51493955 0.88745844 4294967295
2.5595002 -0.89546412 0.89528966 4294967295
2.562 -0.90080142 0.88079846 4294967295
2.572 2.2286091 0.8613205 4294967295
2.5586667 2.2190297 0.86648995 4294967295
2.5632501 0.50824016 0.86016369 4294967295
2.5639999 -0.90387768 0.86324489 4294967295
2.5612855 2.2269595 0.83061427 4294967295
2.552 2.2172005 0.84978479 4294967295
2.5639999 0.50838888 0.83348179 4294967295
2.5653334 -0.91189027 0.83463669 4294967295
2.5629091 2.2326143 0.80362451 4294967295
2.572 0.50997508 0.81656444 4294967295
2.5595 -0.91476381 0.80324811 4294967295
2.5627694 2.2393508 0.77524936 4294967295
2.5595 0.51343507 0.77057582 4294967295
2.562 -0.89633733 0.76934326 4294967295
2.5644999 -0.90465254 0.78297126 4294967295
2.5655003 2.2449915 0.74439311 4294967295
2.5669999 0.52089542 0.74451733 4294967295
2.5669999 -0.89660347 0.75642908 4294967295
2.562 -0.90080142 0.74408007 4294967295
2.5689998 2.2558076 0.71012497 4294967295
2.5569999 2.2464526 0.71873474 4294967295
2.562 0.52582514 0.72030294 4294967295
2.5669999 2.2600119 0.68495858 4294967295
2.5669999 0.53280717 0.6790027 4294967295
2.552 -0.92689079 0.69583684 4294967295
2.5695 -0.93324679 0.68212968 4294967295
2.5670002 2.2552404 0.65874577 4294967295
2.5603335 2.2462168 0.64492875 4294967295
2.55825 -0.91877282 0.65175498 4294967295
2.562 -0.9305228 0.66680443 4294967295
2.5625 2.2370179 0.62700528 4294967295
2.5569999 0.53666425 0.62101865 4294967295
2.5669999 -0.90454853 0.62342614 4294967295
2.5610001 2.2327332 0.59545064 4294967295
2.572 0.53981251 0.60770267 4294967295
2.5614445 -0.91512233 0.59875524 4294967295
2.5680001 -0.94460672 0.5896917 4294967295
2.5598571 -0.97386223 0.58607233 4294967295
2.552 -0.99202263 0.58333635 4294967295
2.5634999 2.2361071 0.56576806 4294967295
2.5682502 0.52412707 0.56437439 4294967295
2.5636666 0.50235915 0.55388522 4294967295
2.5595 -0.91474831 0.55383015 4294967295
2.572 -0.94907355 0.55996287 4294967295
2.5662856 -0.97800815 0.56072652 4294967295
2.5657501 -1.0018271 0.56955129 4294967295
2.5639231 2.2334955 0.5360415 4294967295
2.5669999 0.48217648 0.54797339 4294967295
2.5586669 0.45983133 0.54194605 4294967295
2.5650001 0.43717927 0.54200035 4294967295
2.552 0.41719341 0.54188883 4294967295
2.572 0.30409709 0.54802787 4294967295
2.5669999 0.28266034 0.54797339 4294967295
2.5703332 0.25519076 0.54800969 4294967295
2.5540001 0.19826424 0.541906 4294967295
2.572 0.15789387 0.54802787 4294967295
2.5657499 0.10095254 0.54200679 4294967295
2.5669999 0.074204624 0.54201752 4294967295
2.5680001 0.044433262 0.5420261 4294967295
2.5644999 0.0057035638 0.53604597 4294967295
2.5669999 -0.017107237 0.5320949 4294967295
2.572 -0.036049198 0.53012544 4294967295
2.5669999 -0.080640472 0.53010577 4294967295
2.5619998 -0.10427982 0.5300861 4294967295
2.5680001 -0.13430806 0.5301097 4294967295
2.566 -0.16395499 0.53010184 4294967295
2.552 -0.18379575 0.5300467 4294967295
2.552 -0.23412491 0.5300467 4294967295
2.5650001 -0.25317821 0.5300979 4294967295
2.572 -0.2836996 0.53012544 4294967295
2.572 -0.31353697 0.53012544 4294967295
2.562 -0.34495345 0.52712554 4294967295
2.5669999 -0.36951411 0.52414989 4294967295
2.5669999 -0.43203729 0.52414989 4294967295
2.562 -0.46387962 0.5300861 4294967295
2.5632501 -0.4938404 0.53603816 4294967295
2.572 -0.57013857 0.54206038 4294967295
2.5669999 -0.61668497 0.53606164 4294967295
2.5570002 -0.64988261 0.53006637 4294967295
2.5570002 -0.66469687 0.53006637 4294967295
2.5682499 -0.70933419 0.53606945 4294967295
2.5644999 -0.73357183 0.53456575 4294967295
2.5669999 -0.75664622 0.53010577 4294967295
2.5695 -0.80506778 0.5301156 4294967295
2.5611668 -0.82622433 0.5340476 4294967295
2.5599999 -0.85849756 0.5419575 4294967295
2.5610001 -0.88856119 0.54672378 4294967295
2.5655 2.22773 0.50807238 4294967295
2.552 2.2172005 0.49452025 4294967295
2.552 -0.39991504 0.51820457 4294967295
2.5680001 2.2263319 0.47648823 4294967295
2.552 2.2172005 0.47971755 4294967295
2.566 2.2293637 0.44675666 4294967295
2.5703332 2.2251756 0.41879556 4294967295
2.5595002 2.2192583 0.41574752 4294967295
2.5680001 2.2251384 0.38354406 4294967295
2.5586669 2.2190297 0.39156651 4294967295
2.5638752 2.2297409 0.35534978 4294967295
2.5597775 2.2325287 0.32419723 4294967295
2.5634999 2.2361071 0.29515147 4294967295
2.5626249 2.2420309 0.26030314 4294967295
2.5669999 2.2555392 0.23008421 4294967295
2.5553334 2.2477593 0.24350327 4294967295
2.5695 2.2532675 0.21116289 4294967295
2.5591431 2.2420568 0.20265001 4294967295
2.5670002 2.2282472 0.186654 4294967295
2.5648572 2.2071149 0.1704987 4294967295
2.5658891 2.1981695 0.14182237 4294967295
2.5628333 2.2077699 0.11237144 4294967295
2.5641427 2.2277417 0.079654932 4294967295
2.5603335 2.2184885 0.094455868 4294967295
2.5625 2.2328513 0.052676737 4294967295
2.5648572 2.2266574 0.032773703 4294967295
2.562 2.2095301 0.019624174 4294967295
2.5601251 2.2353659 -0.015654445 4294967295
2.5606363 2.2106483 -0.0013782382 4294967295
2.5686667 2.283329 -0.044008493 4294967295
2.5627141 2.2676845 -0.028826475 4294967295
2.572 2.2465115 -0.02485007 4294967295
2.572 2.2823164 -0.0546875 4294967295
2.5646667 2.266669 -0.06494832 4294967295
2.5651252 2.2419622 -0.077697635 4294967295
2.5629523 2.2298162 -0.092294991 4294967295
2.569 2.2164638 -0.10229456 4294967295
2.5628822 2.2266381 -0.12750345 4294967295
2.5698571 2.2109869 -0.12107754 4294967295
2.5650001 2.2296727 -0.15429294 4294967295
2.552 2.2172005 -0.1686402 4294967295
2.5689998 2.2236226 -0.18515557 4294967295
2.5570002 2.217092 -0.18927354 4294967295
2.572 2.2226417 -0.21183109 4294967295
2.5595002 2.217778 -0.21519971 4294967295
2.562 2.225872 -0.25200272 4294967295
2.5586667 2.2190297 -0.23573339 4294967295
2.5570002 2.2541683 -0.28122419 4294967295
2.5667498 2.2416136 -0.27356327 4294967295
2.5629373 2.2541888 -0.30129033 4294967295
2.5676665 2.2442994 -0.31186229 4294967295
2.5644999 2.2347233 -0.32298851 4294967295
2.6040001 0.74590564 1.9681771 4294967295
2.6040001 -0.89140177 1.9681771 4294967295
2.605 0.75223607 1.9354923 4294967295
2.5915 0.74632072 1.9461952 4294967295
2.5899999 -0.89381653 1.9435593 4294967295
2.5949998 0.7545048 1.9184351 4294967295
2.5869999 -0.89758682 1.9287159 4294967295
2.6010001 -0.90330005 1.9147769 4294967295
2.599 0.7545166 1.8839794 4294967295
2.5922856 -0.90457082 1.8868877 4294967295
2.5939999 0.7565816 1.8535087 4294967295
2.5950003 -0.9184292 1.8567833 4294967295
2.602 -0.93297666 1.8402908 4294967295
2.5985 0.78802705 1.8189187 4294967295
2.5895 0.76878941 1.8289326 4294967295
2.5869999 -0.92759824 1.8386818 4294967295
2.5929999 -0.93475729 1.8246846 4294967295
2.5978751 2.2623255 1.7899665 4294967295
2.5969002 2.2338855 1.8039534 4294967295
2.5963001 2.2026551 1.7976165 4294967295
2.5857501 2.1790233 1.7870369 4294967295
2.5998757 2.0819614 1.7883013 4294967295
2.6003048 2.0555882 1.7966485 4294967295
2.5969999 2.0295799 1.7963119 4294967295
2.5845003 2.0025797 1.7936302 4294967295
2.5861669 1.90286 1.7852466 4294967295
2.5820003 1.7700008 1.782217 4294967295
2.5879092 1.7560405 1.7850964 4294967295
2.5889235 1.6328888 1.7846665 4294967295
2.5853336 1.6076663 1.7858397 4294967295
2.5994003 1.5334363 1.7834697 4294967295
2.5965717 1.5140333 1.7910501 4294967295
2.5986254 1.4851904 1.7952229 4294967295
2.5964003 1.4563786 1.7910416 4294967295
2.5836668 1.4274585 1.7890251 4294967295
2.5827141 1.2739822 1.7842779 4294967295
2.582 1.2428209 1.782217 4294967295
2.5940623 1.2106074 1.7854609 4294967295
2.5978756 1.1849003 1.7902029 4294967295
2.5915835 1.1562377 1.7873905 4294967295
2.582 1.1289979 1.782217 4294967295
2.5942502 1.0891947 1.7846771 4294967295
2.5964501 1.0645236 1.7952849 4294967295
2.5964119 1.0346475 1.7956173 4294967295
2.5921001 1.0089197 1.7865305 4294967295
2.5943501 0.90865326 1.796371 4294967295
2.5983751 0.88784617 1.8041337 4294967295
2.5989997 0.85502034 1.7955381 4294967295
2.5956922 0.82366079 1.7930686 4294967295
2.59075 0.79921597 1.8045158 4294967295
2.602 -0.92693961 1.785957 4294967295
2.5947499 -0.93337822 1.7974656 4294967295
2.5995557 2.2618527 1.7673417 4294967295
2.6000001 2.2407458 1.7548066 4294967295
2.602 2.1747196 1.7664323 4294967295
2.5870001 2.1515679 1.75914 4294967295
2.5973485 2.1124539 1.7585311 4294967295
2.5945456 2.0932362 1.7741113 4294967295
2.6061542 2.0507572 1.7651855 4294967295
2.5952146 2.0263729 1.7654473 4294967295
2.58325 2.0046074 1.7663507 4294967295
2.5937696 1.9095227 1.7648091 4294967295
2.5830002 1.8857515 1.7647223 4294967295
2.596097 1.7823635 1.7659791 4294967295
2.6020842 1.7560917 1.768875 4294967295
2.5972145 1.7266103 1.7681118 4294967295
2.5937004 1.6943493 1.7674656 4294967295
2.5961428 1.6635023 1.7749223 4294967295
2.6043692 1.6323537 1.7702435 4294967295
2.5911667 1.6029507 1.7669803 4294967295
2.5919681 1.572917 1.7620398 4294967295
2.5953078 1.5479765 1.7752738 4294967295
2.6080003 1.4731719 1.7767742 4294967295
2.6025884 1.4559162 1.766701 4294967295
2.5853336 1.425583 1.7642545 4294967295
2.5988572 1.3603287 1.7568531 4294967295
2.596 1.331612 1.7672206 4294967295
2.5923572 1.3032148 1.7743801 4294967295
2.5964994 1.2757727 1.7764887 4294967295
2.5953333 1.2452178 1.7766801 4294967295
2.6008999 1.2217284 1.7769585 4294967295
2.608 1.1726387 1.7747571 4294967295
2.6045005 1.1528435 1.7693099 4294967295
2.5986958 1.125017 1.7735817 4294967295
2.6006668 1.1016108 1.7779204 4294967295
2.608 1.0349064 1.7542992 4294967295
2.6055627 1.0036616 1.7642453 4294967295
2.6010337 0.97497505 1.7681494 4294967295
2.5903339 0.94491225 1.7659543 4294967295
2.5836666 0.90792853 1.7750404 4294967295
2.592 0.88378638 1.766664 4294967295
2.601125 0.85897803 1.7583704 4294967295
2.608 -0.89579648 1.7555957 4294967295
2.596 -0.91187739 1.7666831 4294967295
2.5940003 2.2272716 1.7389878 4294967295
2.6010003 2.2162063 1.7350378 4294967295
2.6014001 2.1412039 1.7482311 4294967295
2.5920002 2.1256497 1.7490098 4294967295
2.6024003 2.0200653 1.7432668 4294967295
2.5969334 1.9959157 1.7356621 4294967295
2.5935836 1.9674594 1.728184 4294967295
2.597471 1.9337263 1.7337612 4294967295
2.5999551 1.9084181 1.7383293 4294967295
2.5861669 1.8788646 1.7337406 4294967295
2.5847781 1.7822288 1.7369356 4294967295
2.6002278 1.7643805 1.7368265 4294967295
2.6080003 1.6244471 1.7465192 4294967295
2.6017652 1.6035175 1.7407329 4294967295
2.5984614 1.5818448 1.7448006 4294967295
2.6038573 1.4527102 1.7389548 4294967295
2.5934079 1.4254775 1.73762 4294967295
2.594471 1.3975297 1.7397873 4294967295
2.5895 1.3725978 1.7483257 4294967295
2.608 1.0556526 1.7374427 4294967295
2.6000481 1.034053 1.7324359 4294967295
2.6002088 1.0049729 1.7317914 4294967295
2.6034589 0.97403789 1.7340583 4294967295
2.5904002 0.94716859 1.733017 4294967295
2.5943573 0.85147226 1.7349283 4294967295
2.5931113 -0.88833076 1.7354974 4294967295
2.5972507 2.2328844 1.7032866 4294967295
2.5836668 2.2187338 1.7150948 4294967295
2.6010001 1.8750503 1.71606 4294967295
2.5916924 1.8469254 1.7073717 4294967295
2.5914447 1.813197 1.6993089 4294967295
2.5921059 1.7819693 1.7057937 4294967295
2.5947502 1.7681891 1.7161945 4294967295
2.602 1.0170014 1.7195491 4294967295
2.5963333 0.93948591 1.717927 4294967295
2.5935457 0.91576695 1.7134495 4294967295
2.6001999 0.88356841 1.7126863 4294967295
2.5932 0.86193556 1.7154824 4294967295
2.5938888 -0.89061099 1.7084388 4294967295
2.602 -0.90279126 1.6954007 4294967295
2.5970001 2.2502713 1.6690401 4294967295
2.5973532 2.2376094 1.6764516 4294967295
2.6031673 2.205611 1.6711005 4294967295
2.5973749 -0.91324216 1.6782246 4294967295
2.5976803 2.2645779 1.6447384 4294967295
2.6000912 2.2348132 1.6555833 4294967295
2.6041112 2.2114501 1.65607 4294967295
2.5953 -0.92092615 1.6441851 4294967295
2.595685 2.2703426 1.6148744 4294967295
2.5926666 -0.91558015 1.6149759 4294967295
2.6003335 2.2863204 1.5774966 4294967295
2.5891004 2.2728436 1.5898528 4294967295
2.5969999 0.5812124 1.5846833 4294967295
2.6059999 0.54694843 1.5823314 4294967295
2.5944543 -0.91603547 1.5847102 4294967295
2.5910504 2.288974 1.5578972 4294967295
2.6007695 2.2688305 1.5490932 4294967295
2.6059999 0.54493141 1.5561196 4294967295
2.59725 -0.92524743 1.5576446 4294967295
2.5938334 2.2578478 1.5302044 4294967295
2.5905001 2.2476087 1.5148798 4294967295
2.5994 -0.92238545 1.521741 4294967295
2.5947223 2.2425811 1.4947639 4294967295
2.5969 -0.91185117 1.4948428 4294967295
2.5962002 2.237515 1.4638635 4294967295
2.595 -0.91574931 1.4640883 4294967295
2.5975559 2.2406843 1.4348979 4294967295
2.5927777 -0.920968 1.4345465 4294967295
2.5895002 2.2302296 1.4141326 4294967295
2.595938 2.2056506 1.4050579 4294967295
2.5820003 2.1893485 1.3928227 4294967295
2.5928571 -0.92453134 1.4102416 4294967295
2.5994999 -0.93208021 1.39572 4294967295
2.6010003 2.2280853 1.3645434 4294967295
2.5946882 2.2068465 1.3749151 4294967295
2.5845001 2.1884673 1.3876715 4294967295
2.5909998 0.52425277 1.3777881 4294967295
2.592 -0.92336547 1.3641253 4294967295
2.5931666 -0.9328047 1.3815475 4294967295
2.5943165 2.2400036 1.3450205 4294967295
2.5895 0.51945305 1.3443068 4294967295
2.5939999 -0.90827155 1.3449545 4294967295
2.6003752 2.2539458 1.3123006 4294967295
2.5895002 2.2467608 1.3195082 4294967295
2.5969999 0.64146721 1.3255876 4294967295
2.582 0.51794857 1.3179393 4294967295
