# .PCD v0.7 - Point Cloud Data file format
VERSION 0.7
FIELDS x y z rgb
SIZE 4 4 4 4
TYPE F F F U
COUNT 1 1 1 1
WIDTH 1152
HEIGHT 1
VIEWPOINT 0 0 0 1 0 0 0
POINTS 1152
DATA ascii
2.46 1.3781565 1.842437 4294967295
2.4649999 1.2061079 1.8434842 4294967295
2.4660771 1.1821699 1.8500911 4294967295
2.4731183 1.1551473 1.8542354 4294967295
2.472882 1.1248066 1.8513426 4294967295
2.4688282 1.0945638 1.85075 4294967295
2.4717185 1.0648174 1.8528481 4294967295
2.4748333 1.0344769 1.8542359 4294967295
2.4756663 1.0069789 1.85533 4294967295
2.4725001 0.97738588 1.8544151 4294967295
2.4658334 0.94490683 1.8524281 4294967295
2.4641666 0.91579539 1.8481585 4294967295
2.4654543 0.88510805 1.8432832 4294967295
2.4749 0.85534543 1.8435342 4294967295
2.4748528 0.82306343 1.8515718 4294967295
2.4839997 0.80373693 1.8560462 4294967295
2.4856665 -0.89703119 1.8504715 4294967295
2.4769258 -0.91386992 1.8557981 4294967295
2.4679377 -0.93929613 1.8567289 4294967295
2.4773335 2.280695 1.8211025 4294967295
2.4817784 2.2642968 1.8248698 4294967295
2.4882417 2.2351086 1.8247261 4294967295
2.4848335 2.2032301 1.8250191 4294967295
2.4842174 2.1805987 1.8311323 4294967295
2.4890003 2.0469675 1.8349272 4294967295
2.4890003 2.0354176 1.8349272 4294967295
2.4865003 1.9526056 1.836488 4294967295
2.483412 1.9328934 1.831283 4294967295
2.4808748 1.9048278 1.8264693 4294967295
2.4771254 1.8748394 1.8248694 4294967295
2.4748621 1.8444635 1.8248789 4294967295
2.4783423 1.8148397 1.8247455 4294967295
2.4824483 1.7861584 1.8274757 4294967295
2.4810936 1.7544254 1.8255036 4294967295
2.4741671 1.7247677 1.8248216 4294967295
2.4724138 1.6942737 1.8229718 4294967295
2.471688 1.664798 1.8230685 4294967295
2.4705172 1.6342746 1.8255422 4294967295
2.4703028 1.6039729 1.8267661 4294967295
2.4684446 1.5759116 1.8251086 4294967295
2.4645834 1.5470312 1.8167795 4294967295
2.4645002 1.5156174 1.8128309 4294967295
2.4690001 1.4835594 1.818868 4294967295
2.4739504 1.4544023 1.8235 4294967295
2.47785 1.4253621 1.8255523 4294967295
2.4791934 1.3946531 1.8282328 4294967295
2.4755182 1.3655652 1.829477 4294967295
2.4756951 1.3359855 1.8243722 4294967295
2.4752352 1.3069637 1.8161465 4294967295
2.467 1.2790439 1.8129984 4294967295
2.4649999 1.2414027 1.8142388 4294967295
2.4706175 1.2163402 1.8268917 4294967295
2.4800003 1.1848435 1.8258008 4294967295
2.4873335 1.1645509 1.8350053 4294967295
2.484 1.086147 1.8347458 4294967295
2.4842772 1.0654447 1.831139 4294967295
2.4838533 1.036075 1.8254073 4294967295
2.4803793 1.0043985 1.8246074 4294967295
2.474555 0.97399622 1.8270808 4294967295
2.4749613 0.94393301 1.8268456 4294967295
2.4804287 0.91570854 1.8256137 4294967295
2.4817498 0.88822979 1.834538 4294967295
2.474 0.86939043 1.8384829 4294967295
2.4865 -0.89733195 1.836488 4294967295
2.4721942 -0.91380996 1.8249123 4294967295
2.46 -0.93342954 1.8367294 4294967295
2.4827499 2.2892742 1.7970363 4294967295
2.4870641 2.2668791 1.7962947 4294967295
2.4889998 2.2392719 1.7968125 4294967295
2.4890003 1.8939323 1.8060527 4294967295
2.4862731 1.8716692 1.8041131 4294967295
2.4828892 1.8435135 1.8006446 4294967295
2.4847693 1.8204157 1.8038621 4294967295
2.4890003 1.7408974 1.8031652 4294967295
2.4886158 1.7215304 1.8022993 4294967295
2.487684 1.6956228 1.8023303 4294967295
2.4849524 1.6647618 1.7995582 4294967295
2.4816794 1.6350114 1.7989606 4294967295
2.4819691 1.6053221 1.7995229 4294967295
2.4828 1.5729563 1.8005271 4294967295
2.4811723 1.5448446 1.7988055 4294967295
2.481194 1.5153646 1.8012538 4294967295
2.4835653 1.4863038 1.8029791 4294967295
2.4873338 1.4601551 1.8064709 4294967295
2.4868572 1.296762 1.8057655 4294967295
2.4809091 1.2726427 1.8008006 4294967295
2.475647 1.2448416 1.7967677 4294967295
2.4748328 1.214202 1.7958596 4294967295
2.4841514 1.1873246 1.7944597 4294967295
2.4890001 1.1691818 1.8002777 4294967295
2.4890001 1.035534 1.8044027 4294967295
2.486059 1.0022265 1.8007936 4294967295
2.480129 0.97289383 1.7962494 4294967295
2.4795711 0.94514185 1.7945843 4294967295
2.4837368 0.92072392 1.798475 4294967295
2.4761667 -0.92454928 1.7971714 4294967295
2.47 -0.93149316 1.7905046 4294967295
2.4853332 2.2915227 1.7684156 4294967295
2.4860833 2.264472 1.7653754 4294967295
2.4890001 2.2419555 1.7646093 4294967295
2.4890003 1.7158728 1.7624201 4294967295
2.4890003 1.7062479 1.7714032 4294967295
2.4862223 1.2415875 1.7751282 4294967295
2.4823337 1.2143573 1.7718819 4294967295
2.487077 1.188687 1.7735397 4294967295
2.4890001 1.1691818 1.7742907 4294967295
2.4802499 -0.92479736 1.7631589 4294967295
2.4675002 -0.93197733 1.7677368 4294967295
2.4770002 2.2842221 1.7446847 4294967295
2.4794111 2.2638602 1.7341298 4294967295
2.4887497 2.239912 1.737499 4294967295
2.4890003 1.8506206 1.725204 4294967295
2.4890003 1.7177978 1.7483037 4294967295
2.4798498 -0.92368054 1.7339983 4294967295
2.47 -0.93149316 1.7417927 4294967295
2.4790001 2.2582617 1.7093415 4294967295
2.484484 2.233834 1.7047993 4294967295
2.4890003 1.8506206 1.719429 4294967295
2.4790366 -0.92336649 1.7054521 4294967295
2.4600003 2.2514224 1.6769161 4294967295
2.4753635 2.2309744 1.6748631 4294967295
2.4890003 2.2144396 1.6818922 4294967295
2.4805417 -0.92249978 1.6750487 4294967295
2.4696667 -0.93327385 1.6671339 4294967295
2.4750497 2.2371628 1.644932 4294967295
2.4867778 -0.92210752 1.6459091 4294967295
2.4756131 -0.94285035 1.6434811 4294967295
2.4748056 2.2397261 1.6140058 4294967295
2.4791906 -0.91603893 1.6136342 4294967295
2.4725385 -0.94302875 1.6214751 4294967295
2.4712 2.2352631 1.5861458 4294967295
2.4828238 2.2109621 1.5802329 4294967295
2.4890001 -0.89823419 1.5981561 4294967295
2.47225 -0.90615612 1.5858719 4294967295
2.4700003 2.2834978 1.5498101 4294967295
2.4650006 2.2643321 1.5517689 4294967295
2.4710574 2.2351515 1.5558127 4294967295
2.4817779 2.2114096 1.5566322 4294967295
2.4748333 -0.91368085 1.5551687 4294967295
2.467046 2.2620285 1.5249113 4294967295
2.47153 2.2343037 1.5266684 4294967295
2.4825418 2.2127571 1.5238382 4294967295
2.477 0.54862541 1.5268749 4294967295
2.4815001 0.53809083 1.517184 4294967295
2.4806669 -0.89714015 1.5178066 4294967295
2.4749093 -0.9103573 1.5294034 4294967295
2.46 2.2588422 1.5005507 4294967295
2.4724898 2.2343581 1.493346 4294967295
2.4822145 2.2141485 1.501416 4294967295
2.4755385 -0.89292538 1.494235 4294967295
2.4660001 2.2610254 1.4666576 4294967295
2.4785914 2.2359931 1.4642479 4294967295
2.47 0.51840466 1.4753094 4294967295
2.4776843 -0.90986931 1.4634492 4294967295
2.4719999 2.2549467 1.4382298 4294967295
2.4796669 2.2329559 1.4349399 4294967295
2.488167 2.2127337 1.4284559 4294967295
2.4758697 -0.91169697 1.4361036 4294967295
2.4670002 2.2566803 1.4146205 4294967295
2.4770851 2.2349744 1.4052827 4294967295
2.4890003 2.2144396 1.419134 4294967295
2.4890001 -0.89823419 1.3902595 4294967295
2.4769998 -0.90673029 1.4066758 4294967295
2.4616671 2.2519927 1.3673751 4294967295
2.4757755 2.2399704 1.3752809 4294967295
2.4786365 -0.89343899 1.3699113 4294967295
2.469727 -0.90429318 1.3772788 4294967295
2.4624074 2.2612343 1.3464713 4294967295
2.4775002 2.2381616 1.3454921 4294967295
2.4890001 0.51084262 1.3440602 4294967295
2.4730799 -0.8906281 1.3445153 4294967295
2.4649999 -0.90329683 1.3383996 4294967295
2.4749632 2.2274315 1.3164296 4294967295
2.4790003 2.2170463 1.3004875 4294967295
2.4734001 0.50764078 1.3101954 4294967295
2.4830003 -0.89606196 1.3259342 4294967295
2.4744346 -0.90993083 1.3140128 4294967295
2.4758849 2.2093658 1.2840334 4294967295
2.4783335 0.51344109 1.2849432 4294967295
2.4770498 -0.91401476 1.285502 4294967295
2.4600003 2.254276 1.243137 4294967295
2.4721906 2.2316773 1.2450724 4294967295
2.4786251 2.210382 1.2564976 4294967295
2.4720001 0.513089 1.2610054 4294967295
2.4823334 0.50851184 1.2525798 4294967295
2.474786 -0.90991026 1.255686 4294967295
2.4656367 2.2586515 1.2258015 4294967295
2.4789076 2.2341857 1.2255516 4294967295
2.4889996 2.2028897 1.2227873 4294967295
2.4890003 2.1823568 1.221504 4294967295
2.4740002 -0.90716541 1.2242942 4294967295
2.4685717 2.2584484 1.2014756 4294967295
2.4749734 2.2317266 1.1955497 4294967295
2.4865003 2.2114849 1.1986469 4294967295
2.474 -0.90716541 1.1955903 4294967295
2.4762759 2.2252789 1.1664877 4294967295
2.4790003 2.2170463 1.1797018 4294967295
2.4745219 -0.91321266 1.1632736 4294967295
2.4746001 2.2241015 1.1360357 4294967295
2.4740002 2.2183144 1.1209701 4294967295
2.4890001 -0.89823419 1.1275012 4294967295
2.4746773 -0.91507787 1.1359527 4294967295
2.47 -0.93149316 1.1429217 4294967295
2.4700003 2.2204587 1.1171331 4294967295
2.4753461 2.207999 1.1047254 4294967295
2.477 0.50837976 1.1073394 4294967295
2.4795334 -0.89480436 1.1050553 4294967295
2.4653332 -0.90799242 1.1081905 4294967295
2.4754999 2.1955225 1.0741062 4294967295
2.4890001 0.49929282 1.0668648 4294967295
2.4890001 -0.89823419 1.0899644 4294967295
2.4747059 -0.90927529 1.0751934 4294967295
2.4671113 2.2286625 1.0404277 4294967295
2.4774449 2.2023323 1.045151 4294967295
2.4698 0.49544129 1.0454446 4294967295
2.4760001 -0.91650146 1.0448508 4294967295
2.4625003 2.2527552 1.0077152 4294967295
2.4710002 2.2360613 1.0156438 4294967295
2.4801762 2.2082603 1.0161775 4294967295
2.4757142 -0.91229606 1.0142896 4294967295
2.4643753 2.2561376 0.98712635 4294967295
2.4739766 2.2338445 0.98360735 4294967295
2.484 2.2136493 0.99136627 4294967295
2.4779091 -0.90937525 0.98550189 4294967295
2.473372 2.233849 0.95479429 4294967295
2.4760711 -0.91037232 0.95405233 4294967295
2.4633334 2.2506604 0.92024809 4294967295
2.4779289 2.2356207 0.92493635 4294967295
2.4790001 0.50879019 0.923751 4294967295
2.4754999 -0.91345841 0.92605156 4294967295
2.4625001 2.2508509 0.90678012 4294967295
2.4767432 2.2357583 0.89574897 4294967295
2.46 0.51059824 0.90638745 4294967295
2.4790001 0.50879019 0.89786834 4294967295
2.4775 -0.91467083 0.8952412 4294967295
2.4754541 2.2277598 0.86634773 4294967295
2.4847145 2.2147286 0.85509455 4294967295
2.4748333 0.50793499 0.86565489 4294967295
2.476263 -0.91811013 0.86448801 4294967295
2.4666667 2.2212672 0.84447289 4294967295
2.4761429 2.2107668 0.8344447 4294967295
2.4771428 0.50675905 0.83189285 4294967295
2.4762101 -0.9153682 0.83424383 4294967295
2.4751072 2.2098389 0.80436778 4294967295
2.4784999 0.50580013 0.80577993 4294967295
2.4754999 -0.91605103 0.80465257 4294967295
2.4637499 2.2584188 0.7662102 4294967295
2.4740303 2.2311809 0.77184755 4294967295
2.4830475 2.2137918 0.77914071 4294967295
2.4744546 0.50471371 0.77504563 4294967295
2.4837499 -0.92312562 0.77583975 4294967295
2.4695385 -0.93616074 0.77477509 4294967295
2.47 2.2834978 0.75322592 4294967295
2.4758291 2.2628047 0.74577415 4294967295
2.4857142 2.2342403 0.74547553 4294967295
2.4890001 2.2144396 0.7405827 4294967295
2.4720001 0.50639105 0.7486217 4294967295
2.4781666 -0.91898137 0.7429837 4294967295
2.4682858 -0.93493009 0.75388408 4294967295
2.4773333 2.280695 0.72326195 4294967295
2.4771302 2.2613473 0.71517628 4294967295
2.4839995 2.2326865 0.71336436 4294967295
2.4890001 2.210397 0.71113074 4294967295
2.4767501 0.51407492 0.71648884 4294967295
2.4762497 -0.91300321 0.71609735 4294967295
2.466125 2.2541587 0.69135374 4294967295
2.4765 2.2337048 0.68476766 4294967295
2.4873335 2.2135918 0.68497622 4294967295
2.47 0.51840466 0.67872524 4294967295
2.4749 -0.91954696 0.68650687 4294967295
2.4681113 2.2304087 0.65718794 4294967295
2.4809048 2.2140746 0.65558261 4294967295
2.4767501 0.52412415 0.65475547 4294967295
2.4744616 -0.92211884 0.65383649 4294967295
2.4748461 2.226326 0.6260199 4294967295
2.4798334 2.2168193 0.63716638 4294967295
2.4766667 0.5217157 0.62456352 4294967295
2.4817781 -0.89497977 0.61806357 4294967295
2.4715939 -0.91308248 0.62363482 4294967295
2.467 -0.93321556 0.61269993 4294967295
2.4782143 2.2233059 0.59586984 4294967295
2.4695001 2.2171252 0.58556962 4294967295
2.47 0.51840466 0.60422456 4294967295
2.4890001 -0.89823419 0.60487247 4294967295
2.4840002 -0.91738617 0.60155201 4294967295
2.4796996 -0.94587296 0.59456056 4294967295
2.4717145 -0.96490675 0.58625066 4294967295
2.4760416 2.2124577 0.56325424 4294967295
2.4793336 0.51461112 0.57004267 4294967295
2.4815001 0.50353712 0.55567795 4294967295
2.4770715 -0.91894937 0.55685395 4294967295
2.4774544 -0.94578612 0.56687313 4294967295
2.4721334 -0.97014475 0.5675987 4294967295
2.4669998 2.2217619 0.53200555 4294967295
2.479846 2.2129097 0.53573334 4294967295
2.4746001 0.4895077 0.54467648 4294967295
2.4766366 0.46389601 0.53550321 4294967295
2.4769998 0.4352136 0.52662408 4294967295
2.4801002 0.40544939 0.52689338 4294967295
2.4776363 0.37471688 0.52714902 4294967295
2.479625 0.34638646 0.52617419 4294967295
2.4743636 0.31422418 0.52661663 4294967295
2.4727271 0.28427073 0.53079259 4294967295
2.4790001 0.25571296 0.53264558 4294967295
2.4766364 0.22516291 0.52819425 4294967295
2.4821818 0.1942559 0.52663773 4294967295
2.4810002 0.1638259 0.526896 4294967295
2.4745002 0.13468461 0.52687621 4294967295
2.4758 0.10602885 0.52687943 4294967295
2.4782724 0.075819448 0.52714902 4294967295
2.4754543 0.044398598 0.52661943 4294967295
2.484 0.016081793 0.52497816 4294967295
2.4827502 -0.080871359 0.5240137 4294967295
2.4806666 -0.10799702 0.52657694 4294967295
2.4795001 -0.13542783 0.52689588 4294967295
2.4720001 -0.16368736 0.52687329 4294967295
2.4709091 -0.19385614 0.52660787 4294967295
2.4785557 -0.22355716 0.5265671 4294967295
2.485667 -0.2511158 0.52401841 4294967295
2.4890001 -0.38138017 0.52402377 4294967295
2.4856668 -0.40392455 0.52401841 4294967295
2.4754443 -0.43768135 0.52592427 4294967295
2.4750001 -0.4653613 0.52974355 4294967295
2.4749999 -0.4969593 0.52974355 4294967295
2.4738891 -0.52416366 0.52655953 4294967295
2.4806669 -0.55276847 0.5249728 4294967295
2.4810002 -0.58451146 0.52401084 4294967295
2.4890001 -0.60660142 0.52402377 4294967295
2.484 -0.68317974 0.52401572 4294967295
2.474 -0.70339751 0.52399951 4294967295
2.4830003 -0.73477525 0.52401406 4294967295
2.4890001 -0.76541132 0.52402377 4294967295
2.4803751 -0.79583794 0.52545357 4294967295
2.477833 -0.82520342 0.52688932 4294967295
2.474 -0.85646117 0.52879572 4294967295
2.4755385 -0.88585317 0.53947598 4294967295
2.4720001 -0.90642446 0.54693812 4294967295
2.4686666 2.2266054 0.50625312 4294967295
2.4813683 2.2164221 0.50734651 4294967295
2.4650002 0.42812848 0.51712424 4294967295
2.4639285 0.40463081 0.50642699 4294967295
2.4626086 0.37500826 0.50758505 4294967295
2.4641669 0.34756431 0.51731509 4294967295
2.46 0.32510063 0.5182693 4294967295
2.46 0.21665588 0.5182693 4294967295
2.4666667 0.19433713 0.51826459 4294967295
2.467 0.16290265 0.51826435 4294967295
2.46 0.14245681 0.5182693 4294967295
2.4612501 0.098270498 0.51684147 4294967295
2.4615386 0.081698537 0.50904822 4294967295
2.46 0.051134892 0.5182693 4294967295
2.4690001 0.011620039 0.51662886 4294967295
2.4799497 -0.01377778 0.50531369 4294967295
2.4855788 -0.044999536 0.50368524 4294967295
2.4705238 -0.070505299 0.50898904 4294967295
2.4620001 -0.10590372 0.51826787 4294967295
2.4641669 -0.22798106 0.51731509 4294967295
2.4679999 -0.25674051 0.51086515 4294967295
2.4715497 -0.28408438 0.50624198 4294967295
2.4718945 -0.31491026 0.50529826 4294967295
2.4721577 -0.34634122 0.5089252 4294967295
2.4716876 -0.37334424 0.51254356 4294967295
2.469111 -0.40283415 0.51572102 4294967295
2.4649999 -0.42630839 0.51826578 4294967295
2.4625001 -0.53158492 0.51826751 4294967295
2.47 -0.5532589 0.51826227 4294967295
2.4683335 -0.58437419 0.51731217 4294967295
2.4739089 -0.61570865 0.51461619 4294967295
2.4749997 -0.64433032 0.51253718 4294967295
2.4728889 -0.67245042 0.51698798 4294967295
2.46 -0.70227093 0.5182693 4294967295
2.4661429 -0.73795331 0.51663423 4294967295
2.471 -0.76751333 0.51731026 4294967295
2.4675 -0.78455943 0.518264 4294967295
2.4682105 2.2601285 0.46701753 4294967295
2.4771774 2.2324893 0.47596395 4294967295
2.4823334 2.2161775 0.48753914 4294967295
2.4661539 0.40271246 0.47865874 4294967295
2.4633331 0.37793666 0.47717783 4294967295
2.4614284 0.094811976 0.47665933 4294967295
2.4665 0.077024095 0.47533923 4294967295
2.4625001 0.059756987 0.48112738 4294967295
2.4784286 -0.013815561 0.48704571 4294967295
2.4818799 -0.044332605 0.47635457 4294967295
2.4679999 -0.065742821 0.47616771 4294967295
2.472297 2.2592306 0.44447017 4294967295
2.4879282 2.2359519 0.44217986 4294967295
2.4890001 2.2101085 0.43306902 4294967295
2.46 0.093942046 0.45548546 4294967295
2.4635713 0.074484587 0.45376107 4294967295
2.4649999 0.059817653 0.45535433 4294967295
2.47 -0.026023334 0.4552232 4294967295
2.4657142 -0.042320468 0.45370486 4294967295
2.46 -0.060163695 0.45548546 4294967295
2.4684 2.2541342 0.41785365 4294967295
2.4822195 2.2350681 0.41389203 4294967295
2.4889994 2.2038939 0.41430056 4294967295
2.4890001 2.1855652 0.41430059 4294967295
2.4675 2.2869115 0.37800097 4294967295
2.4690335 2.2625332 0.38439977 4294967295
2.4835129 2.2350922 0.38616145 4294967295
2.4890001 2.2086647 0.39367592 4294967295
2.4636841 2.2927005 0.35370737 4294967295
2.4658244 2.2654655 0.35479712 4294967295
2.4803617 2.2357361 0.35528976 4294967295
2.46 2.299937 0.33562547 4294967295
2.4614701 2.2544432 0.32543617 4294967295
2.4794884 2.2369828 0.32453454 4294967295
2.4645455 2.2602499 0.2934379 4294967295
2.4795132 2.2381232 0.29359657 4294967295
2.4675 2.2840462 0.26636019 4294967295
2.4699678 2.264781 0.26776519 4294967295
2.4792702 2.2332778 0.26531306 4294967295
2.4865 2.2150972 0.25575641 4294967295
2.4718401 2.2627125 0.23655972 4294967295
2.4751513 2.235347 0.2354748 4294967295
2.4838078 2.208919 0.23476464 4294967295
2.4636366 2.2547462 0.20856297 4294967295
2.4743719 2.2345123 0.20397681 4294967295
2.484714 2.2103388 0.20996228 4294967295
2.4753861 2.2328205 0.17496929 4294967295
2.46 2.2514224 0.13015112 4294967295
2.473829 2.2328193 0.14546487 4294967295
2.484 2.2140996 0.134581 4294967295
2.4685831 2.2917271 0.11017114 4294967295
2.4711373 2.2641525 0.11433119 4294967295
2.4775004 2.2352314 0.1170142 4294967295
2.4827502 2.208147 0.11478153 4294967295
2.474 2.3101561 0.096361905 4294967295
2.4769695 2.2914915 0.085659385 4294967295
2.4855385 2.2712379 0.091054887 4294967295
2.4890001 2.2317643 0.095237076 4294967295
2.4890001 2.2098196 0.094370842 4294967295
2.4748888 2.2854581 0.065271497 4294967295
2.4751072 2.265219 0.058045864 4294967295
2.4808333 2.237359 0.04771781 4294967295
2.4767001 2.2295947 0.025800794 4294967295
2.4890001 2.2129958 0.034600586 4294967295
2.4755456 2.2400379 -0.005718112 4294967295
2.4636364 2.2547452 -0.04087013 4294967295
2.4774582 2.2450998 -0.034286678 4294967295
2.4673684 2.2551394 -0.062943399 4294967295
2.4830487 2.2380619 -0.06586194 4294967295
2.4890001 2.2121296 -0.071946383 4294967295
2.462647 2.2578697 -0.09680295 4294967295
2.480757 2.2406762 -0.09511447 4294967295
2.4638889 2.2892814 -0.12579995 4294967295
2.4629545 2.2691903 -0.11941159 4294967295
2.4715557 2.233608 -0.11569917 4294967295
2.4741499 2.2095261 -0.12810522 4294967295
2.4625001 2.2965639 -0.14448923 4294967295
2.4762692 2.1962352 -0.15570766 4294967295
2.4669166 2.2267382 -0.19099355 4294967295
2.4782591 2.20911 -0.1828196 4294967295
2.4749999 2.2338889 -0.21551204 4294967295
2.4762435 2.2297611 -0.2450794 4294967295
2.4732609 2.2241039 -0.27037716 4294967295
2.4810834 2.216017 -0.28045946 4294967295
2.487 2.2115006 -0.29304713 4294967295
2.4930003 1.9019715 1.9064505 4294967295
2.4930003 1.8832387 1.9064505 4294967295
2.506875 0.79513788 1.9134328 4294967295
2.5079999 -0.89927185 1.9118831 4294967295
2.4979999 -0.90148199 1.9092311 4294967295
2.4930003 1.8987113 1.8925686 4294967295
2.4930003 1.8863717 1.8929541 4294967295
2.5048888 0.79563951 1.8833361 4294967295
2.5035832 -0.8976723 1.8842596 4294967295
2.4946668 -0.90413529 1.8938733 4294967295
2.4930003 2.1601565 1.8428245 4294967295
2.5044348 2.1409771 1.8486217 4294967295
2.5067601 2.1171575 1.8526542 4294967295
2.4963334 2.0877483 1.8471601 4294967295
2.4930003 1.9953072 1.8428243 4294967295
2.493 1.1450319 1.8428245 4294967295
2.493 1.1363556 1.8428245 4294967295
2.5026252 0.85114294 1.8421086 4294967295
2.4955001 0.82918566 1.8426992 4294967295
2.5005291 0.79030383 1.8539867 4294967295
2.5115716 0.77437043 1.8510165 4294967295
2.5014544 -0.89480293 1.8573196 4294967295
2.4939528 2.1695218 1.8210067 4294967295
2.5054672 2.1463809 1.8246254 4294967295
2.5161998 2.1162763 1.8250098 4294967295
2.5083597 2.0840726 1.8246424 4294967295
2.5024695 2.0540335 1.8222361 4294967295
2.5064106 2.0262208 1.8276907 4294967295
2.5071306 1.9945774 1.8343642 4294967295
2.5031667 1.9635035 1.8249551 4294967295
2.4968464 1.9353304 1.816335 4294967295
2.4930003 1.9172207 1.8139036 4294967295
2.4930003 1.8015369 1.8139036 4294967295
2.4938335 1.7857467 1.8133701 4294967295
2.4930003 1.7639399 1.8139036 4294967295
2.493 1.4168886 1.8139036 4294967295
2.493 1.3947159 1.8148676 4294967295
2.4947646 1.3649451 1.8151562 4294967295
2.493 1.3349459 1.8148676 4294967295
2.493 1.1710607 1.8196877 4294967295
2.5011935 1.1535493 1.8263884 4294967295
2.5064247 1.1259085 1.8268462 4294967295
2.5000367 1.097031 1.8220493 4294967295
2.4934168 1.0680887 1.8179749 4294967295
2.493 0.90498823 1.8139036 4294967295
2.5035357 0.88639092 1.8247473 4294967295
2.5052497 0.85638028 1.8384113 4294967295
2.5058401 0.82430655 1.8270487 4294967295
2.501308 0.79519564 1.8244375 4294967295
2.5123332 0.77599382 1.8326744 4294967295
2.4980001 -0.89761436 1.8358179 4294967295
2.5051999 -0.90813738 1.8213935 4294967295
2.4930003 2.2289884 1.7919236 4294967295
2.5020218 2.2054193 1.7944554 4294967295
2.5078783 2.1774273 1.7999071 4294967295
2.5138338 2.1504912 1.8047838 4294967295
2.5170002 2.1225533 1.8088403 4294967295
2.5170002 2.0787544 1.8088403 4294967295
2.5160005 2.0504928 1.8036565 4294967295
2.5153337 2.0236039 1.7988188 4294967295
2.5118504 1.9943651 1.7916412 4294967295
2.5125225 1.966197 1.7941327 4294967295
2.5102146 1.9358673 1.7943255 4294967295
2.5047188 1.9055089 1.7950704 4294967295
2.5047083 1.8755925 1.7911336 4294967295
2.5035717 1.8451064 1.790879 4294967295
2.5020478 1.8124738 1.8000619 4294967295
2.5033848 1.784686 1.7978177 4294967295
2.4947393 1.7559872 1.7951696 4294967295
2.4930003 1.7276773 1.7898769 4294967295
2.4930003 1.6943071 1.789432 4294967295
2.4986923 1.6629326 1.7842869 4294967295
2.5015883 1.6353115 1.7831815 4294967295
2.4988751 1.6050256 1.783964 4294967295
2.4940002 1.5789007 1.7860663 4294967295
2.4930003 1.5470328 1.7849827 4294967295
2.4930003 1.5146413 1.7872964 4294967295
2.4994547 1.4816923 1.7871852 4294967295
2.5035002 1.455147 1.7957295 4294967295
2.5049117 1.4243286 1.7981731 4294967295
2.4996669 1.3950071 1.7969409 4294967295
2.4983706 1.3661575 1.7945732 4294967295
2.5015528 1.3346756 1.7946404 4294967295
2.503448 1.3059466 1.7932581 4294967295
2.4966364 1.2807221 1.7883968 4294967295
2.493 1.1710607 1.7878747 4294967295
2.4957085 1.1542269 1.7967314 4294967295
2.5002496 1.12428 1.7935982 4294967295
2.5080693 1.0960609 1.7934233 4294967295
2.5023997 1.0653918 1.7969228 4294967295
2.5005996 1.0365286 1.7939194 4294967295
2.5014443 1.0057423 1.7886028 4294967295
2.4996667 0.9866637 1.7825541 4294967295
2.5079999 0.93370926 1.7809558 4294967295
2.5018928 0.91255414 1.7894741 4294967295
2.5083637 0.89467049 1.8038719 4294967295
2.516 0.84562284 1.7954851 4294967295
2.5120451 0.82607174 1.7938435 4294967295
2.5091667 0.80557084 1.799486 4294967295
2.5017331 -0.9190703 1.7952049 4294967295
2.4930003 2.2283273 1.76763 4294967295
2.5062053 2.2115164 1.7666241 4294967295
2.5170002 2.0145159 1.776721 4294967295
2.5103574 1.9921422 1.7675716 4294967295
2.5103848 1.9657475 1.7669122 4294967295
2.5153337 1.9411994 1.7778336 4294967295
2.5160005 1.9010535 1.7592943 4294967295
2.5133336 1.8751861 1.7616144 4294967295
2.5135005 1.8469552 1.7545624 4294967295
2.5161669 1.8085488 1.7578187 4294967295
2.5099335 1.7850493 1.7660148 4294967295
2.4955003 1.7532674 1.7636714 4294967295
2.4951308 1.7277956 1.7641509 4294967295
2.5001762 1.697848 1.7696712 4294967295
2.5005717 1.671898 1.7780347 4294967295
2.5153337 1.6017476 1.7788068 4294967295
2.5050838 1.5748698 1.778025 4294967295
2.502063 1.5457509 1.7779571 4294967295
2.5046504 1.514143 1.7769238 4294967295
2.5068755 1.4930952 1.7774663 4294967295
2.517 1.4139826 1.7738011 4294967295
2.5086315 1.3931493 1.7680864 4294967295
2.5033028 1.3642113 1.7622039 4294967295
2.5112562 1.3358865 1.7646539 4294967295
2.5169997 1.3092542 1.7699078 4294967295
2.5067694 1.2723778 1.7749499 4294967295
2.503077 1.2450178 1.7690799 4294967295
2.5037856 1.214695 1.7642968 4294967295
2.5022378 1.1833981 1.763108 4294967295
2.5000355 1.1553006 1.7692579 4294967295
2.5014071 1.1251165 1.7705289 4294967295
2.5074999 1.1080359 1.7777846 4294967295
2.5052664 0.9718197 1.7768458 4294967295
2.5030003 0.94598377 1.7780632 4294967295
2.517 0.92246026 1.7796409 4294967295
2.517 0.82318252 1.7796409 4294967295
2.5024705 -0.91502696 1.7651861 4294967295
2.5005002 2.2246392 1.7320739 4294967295
2.5016253 2.2176759 1.7443717 4294967295
2.5147781 1.9002582 1.7357366 4294967295
2.5003531 1.8744233 1.7341145 4294967295
2.499464 1.8430457 1.731719 4294967295
2.5096955 1.8173797 1.7344652 4294967295
2.5045002 1.7825356 1.7332748 4294967295
2.4996667 1.7551078 1.7330506 4294967295
2.5009549 1.7276102 1.7410014 4294967295
2.517 1.3516906 1.7446017 4294967295
2.5145001 1.3445141 1.7462995 4294967295
2.5092223 -0.89582312 1.7317636 4294967295
2.497647 -0.90816122 1.7358744 4294967295
2.4967504 2.222775 1.7144729 4294967295
2.503737 2.2146788 1.7014494 4294967295
2.5087502 1.8711202 1.7158408 4294967295
2.5023003 1.8506219 1.7165371 4294967295
2.5116665 -0.8976686 1.7128675 4294967295
2.4984446 -0.90581584 1.7040002 4294967295
2.5066671 2.2243156 1.6629869 4294967295
2.5036926 2.2127368 1.6777959 4294967295
2.5136249 -0.89763886 1.6729752 4294967295
2.4991579 -0.90585184 1.6745739 4294967295
2.5022857 2.232877 1.6448172 4294967295
2.5016842 -0.90554243 1.6448804 4294967295
2.5015004 2.2287962 1.6187986 4294967295
2.505167 2.2162044 1.6041797 4294967295
2.5035 -0.89837444 1.6102387 4294967295
2.4960001 -0.90423083 1.6231937 4294967295
2.5027781 2.2060258 1.5854018 4294967295
2.493 -0.89967769 1.5912125 4294967295
2.5037999 -0.90588927 1.5848181 4294967295
2.5037308 2.2033865 1.5538088 4294967295
2.50525 0.55778068 1.545617 4294967295
2.517 0.53994882 1.5460461 4294967295
2.5040002 -0.91453391 1.5545411 4294967295
2.5011907 2.2031548 1.525224 4294967295
2.493 0.5405845 1.5304785 4294967295
2.5025001 0.53683823 1.5256529 4294967295
2.5066667 -0.8929671 1.521474 4294967295
2.5079999 -0.90509087 1.5365583 4294967295
2.5106671 2.2220552 1.4871593 4294967295
2.5009377 2.2127132 1.4985142 4294967295
2.5050001 0.52573425 1.49754 4294967295
2.5041003 -0.89263672 1.497202 4294967295
2.517 -0.90249896 1.4818077 4294967295
2.503077 2.2229137 1.4720156 4294967295
2.5060627 2.2103133 1.4583492 4294967295
2.493 0.51166356 1.4784209 4294967295
2.493 -0.89967769 1.4784209 4294967295
2.5033 -0.90396327 1.4620376 4294967295
2.5020835 2.2041121 1.435782 4294967295
2.5120003 2.1882763 1.4390992 4294967295
2.4990001 -0.89951533 1.4273808 4294967295
2.5041668 -0.90175736 1.4400803 4294967295
2.5044119 2.2257349 1.400769 4294967295
2.5006669 2.2144833 1.4143193 4294967295
2.5027273 -0.89736205 1.4034903 4294967295
2.5038183 2.229182 1.3740419 4294967295
2.5019166 -0.88595176 1.3759072 4294967295
2.50424 2.2279696 1.3456101 4294967295
2.493 0.51166356 1.3453846 4294967295
2.5120001 0.50973487 1.3341904 4294967295
2.5012221 -0.88393718 1.3442329 4294967295
2.5043335 2.2256315 1.3229821 4294967295
2.5047002 2.2161801 1.307995 4294967295
2.517 0.51074946 1.3007717 4294967295
2.5037999 0.50807089 1.3140918 4294967295
2.5 -0.89474112 1.3211772 4294967295
2.5028334 -0.90418106 1.3089514 4294967295
2.5031154 2.2019539 1.2844014 4294967295
2.4978001 0.51148075 1.2855389 4294967295
2.50875 0.50469834 1.2749244 4294967295
2.5037332 -0.90430754 1.2838614 4294967295
2.4971054 2.1978409 1.2552735 4294967295
2.5029447 2.182286 1.2480106 4294967295
2.5006666 0.503555 1.2583187 4294967295
2.5034287 -0.90425563 1.2546526 4294967295
2.5016 2.1752419 1.2249424 4294967295
2.5021 -0.90585369 1.2235749 4294967295
2.502037 2.2038643 1.1911948 4294967295
2.4979 2.183512 1.2038534 4294967295
2.4999998 -0.90509593 1.193985 4294967295
2.5045388 2.2255621 1.1628093 4294967295
2.5011671 2.2174993 1.1759243 4294967295
2.4999001 -0.90447593 1.1649485 4294967295
2.5030003 2.2246389 1.1373825 4294967295
2.4996667 2.2181182 1.1233333 4294967295
2.5079999 0.51474214 1.1292292 4294967295
2.5021248 -0.89642704 1.1336005 4294967295
2.5050001 -0.90109414 1.1488345 4294967295
2.5045717 2.2019815 1.10709 4294967295
2.4930003 2.1890774 1.0908804 4294967295
2.493 0.51166356 1.1198013 4294967295
2.517 0.50490957 1.0963762 4294967295
2.5034287 -0.8918165 1.1040542 4294967295
2.5092731 2.1943622 1.0755483 4294967295
2.4930003 2.1890774 1.0735278 4294967295
2.5043335 0.50236869 1.0818655 4294967295
2.5005 -0.8994748 1.0867963 4294967295
2.5020001 -0.90969276 1.0735887 4294967295
2.5085001 2.1939511 1.0449522 4294967295
2.493 2.1890774 1.0446069 4294967295
2.5025001 0.50200087 1.0320795 4294967295
2.5084286 -0.91521871 1.0436938 4294967295
2.5029998 2.2002831 1.014004 4294967295
2.493 2.1890774 1.0272543 4294967295
2.5059998 -0.90952337 1.0150216 4294967295
2.5066001 2.2219398 0.97419369 4294967295
2.5011332 2.2128363 0.98789918 4294967295
2.5021667 -0.90879118 0.98557377 4294967295
2.5037825 2.2250395 0.95367086 4294967295
2.5054445 -0.9086777 0.95293003 4294967295
2.4963331 2.2228868 0.92754579 4294967295
2.5058823 2.2073658 0.92249644 4294967295
2.517 2.1867921 0.9153403 4294967295
2.517 0.51074946 0.92993999 4294967295
2.5120001 0.50973487 0.91746914 4294967295
2.5008998 -0.91122317 0.92441559 4294967295
2.493 2.2247465 0.89518213 4294967295
2.5039754 2.2067511 0.89628857 4294967295
2.5049999 0.50831443 0.89602631 4294967295
2.5026002 -0.91184181 0.89565492 4294967295
2.493 2.2237825 0.87686557 4294967295
2.5017097 2.2062438 0.86650056 4294967295
2.5 0.50729984 0.86627829 4294967295
2.5065999 -0.91330165 0.86718035 4294967295
2.5031736 2.2060699 0.83639622 4294967295
2.5033333 0.5050602 0.83474952 4294967295
2.5033572 -0.90588903 0.83561158 4294967295
2.5029998 2.2084854 0.80279458 4294967295
2.5120001 0.50390661 0.80381787 4294967295
2.5016842 -0.90432155 0.80356073 4294967295
2.5038123 2.2025282 0.77275795 4294967295
2.5145001 2.1875341 0.76326185 4294967295
2.5120001 0.50390661 0.77759063 4294967295
2.5124998 -0.89796549 0.76306832 4294967295
2.5023634 -0.90831244 0.77423412 4294967295
2.4970322 2.201571 0.74569297 4294967295
2.508652 2.18104 0.74296719 4294967295
2.493 0.51166356 0.73226094 4294967295
2.4980001 0.50689399 0.74717033 4294967295
2.5106249 -0.89728624 0.75051379 4294967295
2.4982305 -0.90467232 0.74428523 4294967295
2.495842 2.1994746 0.71450853 4294967295
2.5041599 2.1832731 0.71949875 4294967295
2.4980001 0.51558191 0.71532249 4294967295
2.4997499 -0.90645462 0.71760952 4294967295
2.5022001 2.2059538 0.68752968 4294967295
2.505125 -0.92147899 0.68461639 4294967295
2.5031428 2.2104075 0.65595764 4294967295
2.5074 0.52625418 0.65201652 4294967295
2.4993999 -0.9170534 0.6545133 4294967295
2.5046155 2.2283111 0.61926579 4294967295
2.4985714 2.215486 0.63501233 4294967295
2.5075002 0.52336103 0.62585002 4294967295
2.501111 -0.89227927 0.62269443 4294967295
2.493 -0.90546185 0.63971394 4294967295
2.5046666 2.2303019 0.59426808 4294967295
2.5050001 0.51993847 0.58508408 4294967295
2.5003333 -0.89360839 0.60235906 4294967295
2.5012944 -0.91596138 0.58924305 4294967295
2.493 -0.9343828 0.58476418 4294967295
2.5122502 2.223459 0.57214403 4294967295
2.5027001 2.2138314 0.56119651 4294967295
2.5073335 0.51265872 0.56671828 4294967295
2.50775 0.49431571 0.55460089 4294967295
2.5026667 -0.89734489 0.55307895 4294967295
2.5038235 -0.91620082 0.56778693 4294967295
2.493 -0.9343828 0.57608795 4294967295
2.5056665 2.2118132 0.53567326 4294967295
2.493 0.48274267 0.547167 4294967295
2.5051668 0.46473715 0.54342449 4294967295
2.5036666 0.4354071 0.53566533 4294967295
2.5029998 0.40338954 0.53566116 4294967295
2.5020001 0.37417752 0.5356549 4294967295
2.5067143 0.34498516 0.53403181 4294967295
2.5026667 0.31332132 0.53663242 4294967295
2.5028 0.28720447 0.54031003 4294967295
2.5106666 0.25605333 0.5415343 4294967295
2.5020001 0.22323886 0.5356549 4294967295
2.5104001 0.19488046 0.53570747 4294967295
2.5020001 0.16521832 0.5356549 4294967295
2.5005717 0.13360415 0.53731453 4294967295
2.4986668 0.10798081 0.53660738 4294967295
2.5013335 0.07521008 0.53565079 4294967295
2.5020001 0.043288726 0.5356549 4294967295
2.5066001 0.014289635 0.53103364 4294967295
2.5094001 -0.014818099 0.52405673 4294967295
2.5104001 -0.043907795 0.5240584 4294967295
2.5020001 -0.074448995 0.52819556 4294967295
2.5106668 -0.10606729 0.53474516 4294967295
2.5079999 -0.13698445 0.53569245 4294967295
2.4990001 -0.16547182 0.53563619 4294967295
2.5020001 -0.19470742 0.5378449 4294967295
2.5020001 -0.22568324 0.53469092 4294967295
2.5011666 -0.25557527 0.52791661 4294967295
2.5093334 -0.28262013 0.52405667 4294967295
2.5068333 -0.34337419 0.52405262 4294967295
2.5052857 -0.37433782 0.52738219 4294967295
2.5040002 -0.40400785 0.52985775 4294967295
2.5035 -0.43298969 0.53277028 4294967295
2.4980001 -0.46387896 0.53562993 4294967295
2.493 -0.49478474 0.53559864 4294967295
2.5037999 -0.52599198 0.53566617 4294967295
2.4988 -0.55389464 0.53100526 4294967295
2.4990001 -0.58295172 0.52983809 4294967295
2.5051668 -0.61441135 0.52793235 4294967295
2.51 -0.64666122 0.52405775 4294967295
2.5029998 -0.67214084 0.52520788 4294967295
2.493 -0.70301539 0.52981442 4294967295
2.4998 -0.73395735 0.52984118 4294967295
2.5149999 -0.76756459 0.52990103 4294967295
2.5045002 -0.79439074 0.53180283 4294967295
2.503 -0.82487702 0.53566116 4294967295
2.5025716 -0.85502303 0.538158 4294967295
2.5034287 -0.87936503 0.5447951 4294967295
2.517 2.2218313 0.50946939 4294967295
2.4988182 2.2136784 0.50770104 4294967295
2.4955001 -0.021950956 0.51679826 4294967295
2.4938333 -0.03880877 0.51631743 4294967295
2.4946668 -0.29253748 0.51824486 4294967295
2.4960001 -0.31585222 0.51824397 4294967295
2.493 -0.33571962 0.51824605 4294967295
2.5074 2.2226117 0.46939263 4294967295
2.4988823 2.217083 0.47390756 4294967295
2.493 -0.023373563 0.48064888 4294967295
2.493 2.2237825 0.44883585 4294967295
2.5010998 2.2064097 0.44377348 4294967295
2.5065 2.1863749 0.43100396 4294967295
2.493 2.1948617 0.41413072 4294967295
2.4995418 2.1827197 0.41384673 4294967295
2.5001669 2.2019079 0.38289085 4294967295
2.5010002 2.1883419 0.39638275 4294967295
2.503176 2.2101033 0.35595897 4294967295
2.4952223 2.2238264 0.32140431 4294967295
2.5056 2.2168527 0.32686037 4294967295
2.5005383 2.2228909 0.29464966 4294967295
2.5045624 2.2180879 0.29671299 4294967295
2.5109999 2.2223191 0.27354357 4294967295
2.5010002 2.2147133 0.26291934 4294967295
2.5028419 2.1995332 0.23430863 4294967295
2.493 2.1890774 0.22325259 4294967295
2.5014999 2.2004774 0.20377192 4294967295
2.493 2.1890774 0.21746841 4294967295
2.5023334 2.2233794 0.16988719 4294967295
2.5027778 2.2163494 0.18466669 4294967295
2.5046999 2.2243185 0.15328425 4294967295
2.5022726 2.2140815 0.13770074 4294967295
2.501652 2.2001884 0.11624196 4294967295
2.4957273 2.2638474 0.080268413 4294967295
2.4949999 2.2359889 0.080606014 4294967295
2.5000346 2.2050226 0.083008915 4294967295
2.493 2.2594516 0.065151513 4294967295
2.4933572 2.2336063 0.061230481 4294967295
2.5000241 2.2038386 0.054776251 4294967295
2.493 2.2237825 0.01502192 4294967295
2.5015624 2.2049093 0.025253266 4294967295
2.517 2.2510307 -0.019038796 4294967295
2.5029473 2.2356853 -0.0016604066 4294967295
2.5157499 2.2513697 -0.028987944 4294967295
2.5000625 2.242759 -0.038249254 4294967295
2.5061002 2.2284665 -0.056236207 4294967295
2.4996471 2.2075214 -0.069218278 4294967295
2.4978824 2.2260664 -0.099834502 4294967295
2.5024996 2.2104561 -0.089604676 4294967295
2.5043333 2.2236931 -0.11606938 4294967295
2.4997501 2.2123957 -0.12988681 4294967295
2.5050714 2.2017434 -0.15596497 4294967295
2.503 2.2004681 -0.18655711 4294967295
2.5037777 2.2236841 -0.22274745 4294967295
2.5023334 2.214174 -0.20844722 4294967295
2.5036871 2.2256732 -0.24345839 4294967295
2.493 2.2179983 -0.25683481 4294967295
2.5114 2.2238724 -0.2672314 4294967295
2.4995 2.2150683 -0.27722466 4294967295
2.5068333 2.2099309 -0.29991806 4294967295
2.5369999 0.7855649 1.9328673 4294967295
2.544143 0.77597588 1.9365782 4294967295
2.5469999 -0.90143681 1.9335272 4294967295
2.5370004 0.79064316 1.9151156 4294967295
2.5470004 0.76503491 1.9092075 4294967295
2.5250001 -0.89833182 1.9125161 4294967295
2.5469999 -0.90143681 1.9217082 4294967295
2.5320001 0.78988606 1.8889717 4294967295
2.5384996 0.7627669 1.8822846 4294967295
2.5469999 0.74730659 1.8862513 4294967295
2.5336666 -0.89474809 1.8888943 4294967295
2.5220003 2.1326215 1.8406579 4294967295
2.5320001 0.87214828 1.8400198 4294967295
2.5298572 0.85799235 1.8414103 4294967295
2.5220001 0.78093171 1.8699154 4294967295
2.5317729 0.76498908 1.8540313 4294967295
2.5270002 -0.89435846 1.866717 4294967295
2.5386667 -0.90240777 1.8552835 4294967295
2.5270004 2.1104598 1.8110235 4294967295
2.5253336 2.0963762 1.8111492 4294967295
2.5220003 2.0179327 1.8219333 4294967295
2.5220001 1.998688 1.8188776 4294967295
2.5293529 0.87778598 1.8220662 4294967295
2.5325553 0.85830885 1.8239967 4294967295
2.5220001 0.83944643 1.8289551 4294967295
2.5313752 0.78896779 1.817661 4294967295
2.5345001 0.77892184 1.8324995 4294967295
2.5328333 -0.91307175 1.8267313 4294967295
2.528667 2.1949701 1.7815632 4294967295
2.5326252 2.1726677 1.7864617 4294967295
2.5344198 2.1472735 1.7970539 4294967295
2.5350769 2.1187596 1.8054122 4294967295
2.5348127 2.0842569 1.802501 4294967295
2.5298574 2.0570672 1.7956934 4294967295
2.5257502 2.0346978 1.7854741 4294967295
2.5270002 1.9287105 1.7817082 4294967295
2.5253339 1.9079102 1.7818533 4294967295
2.5282502 1.8695115 1.7838008 4294967295
2.5388184 1.8450681 1.7932265 4294967295
2.5299168 1.8174537 1.7934282 4294967295
2.5395002 1.6907837 1.7820544 4294967295
2.5310001 1.6645598 1.7837031 4294967295
2.5370004 1.6331766 1.7862765 4294967295
2.5401251 1.6071792 1.7823584 4294967295
2.5470002 1.5864519 1.7828356 4294967295
2.5350001 1.4801474 1.7845217 4294967295
2.536375 1.4562403 1.7882185 4294967295
2.5260003 1.4315387 1.7829655 4294967295
2.5342226 1.0976501 1.7869453 4294967295
2.5299168 1.0651218 1.7890309 4294967295
2.5365 1.035543 1.7923348 4294967295
2.5351253 1.0055512 1.7857541 4294967295
2.5395 0.93659842 1.7820544 4294967295
2.5370002 0.91185212 1.7869629 4294967295
2.5337861 0.88492233 1.7947359 4294967295
2.532526 0.85562456 1.7904799 4294967295
2.5315454 0.82337952 1.7847778 4294967295
2.5345001 0.80243504 1.8016198 4294967295
2.5342224 -0.91650057 1.7954297 4294967295
2.543 2.2282591 1.7584288 4294967295
2.5348952 2.205404 1.7709473 4294967295
2.5410001 2.1828792 1.7774969 4294967295
2.5470002 2.1596711 1.7769262 4294967295
2.538667 2.0230026 1.7708271 4294967295
2.5365834 1.9948465 1.7595052 4294967295
2.5336668 1.9608855 1.7641277 4294967295
2.5315242 1.9364929 1.7681587 4294967295
2.5228333 1.9055331 1.7684156 4294967295
2.5230002 1.8741379 1.773862 4294967295
2.5309286 1.8448664 1.7710972 4294967295
2.5257502 1.8200775 1.7657081 4294967295
2.5470002 1.7400982 1.7532881 4294967295
2.5403335 1.7217762 1.7647971 4294967295
2.528667 1.7001889 1.7727646 4294967295
2.5220003 1.5942862 1.7762918 4294967295
2.5276253 1.5736264 1.7768865 4294967295
2.5315835 1.5440239 1.7766451 4294967295
2.5370002 1.514918 1.7757235 4294967295
2.5300004 1.4913213 1.7767476 4294967295
2.536 1.425438 1.77031 4294967295
2.5353334 1.3963286 1.7574294 4294967295
2.53075 1.3752069 1.7527399 4294967295
2.5314443 1.3030871 1.7633545 4294967295
2.5306368 1.2752053 1.7715126 4294967295
2.5355716 1.2439734 1.7704337 4294967295
2.534143 1.2155544 1.764685 4294967295
2.5340831 1.1854442 1.7602481 4294967295
2.5324545 1.1570058 1.7633289 4294967295
2.5314999 1.1274627 1.7686825 4294967295
2.5220001 1.1086141 1.7762918 4294967295
2.5361669 0.97359693 1.7759793 4294967295
2.5301251 0.94927806 1.7766558 4294967295
2.5370002 -0.89434505 1.7566776 4294967295
2.5319998 -0.90534472 1.7686796 4294967295
2.5348575 2.2295918 1.7360415 4294967295
2.5392225 1.9324733 1.7390395 4294967295
2.5282502 1.9120419 1.7309783 4294967295
2.5470002 1.8819257 1.7237408 4294967295
2.5370002 1.8460768 1.7288214 4294967295
2.5335002 1.8172513 1.7302779 4294967295
2.5298576 1.7845559 1.7265341 4294967295
2.5375562 1.7552263 1.7382429 4294967295
2.5270002 1.7293718 1.7465298 4294967295
2.5397775 1.3612913 1.7471582 4294967295
2.5316429 1.3331058 1.7458405 4294967295
2.5270002 1.3160079 1.7475049 4294967295
2.5331538 -0.89200401 1.7348086 4294967295
2.5253336 2.2213702 1.7154515 4294967295
2.5377898 2.2082355 1.7026426 4294967295
2.5320001 1.8943297 1.7186023 4294967295
2.5295002 1.8865845 1.7183959 4294967295
2.5220003 1.8546766 1.7177771 4294967295
2.5320001 -0.89670396 1.7031354 4294967295
2.5365002 2.2337458 1.66992 4294967295
2.5313752 2.2124817 1.6847814 4294967295
2.5359998 -0.89518219 1.6767565 4294967295
2.5341432 2.2419846 1.646252 4294967295
2.5220001 -0.8984403 1.6475594 4294967295
2.5395 -0.90171975 1.6450679 4294967295
2.5347779 2.227705 1.6179751 4294967295
2.5320003 2.2174482 1.6050329 4294967295
2.5220001 -0.8984403 1.6212277 4294967295
2.5386667 -0.90240777 1.6157576 4294967295
2.5342731 2.2130077 1.5856788 4294967295
2.5391428 -0.9188624 1.5844975 4294967295
2.5333638 2.2100868 1.5543168 4294967295
2.5469999 0.58184129 1.5582756 4294967295
2.5220001 0.54687291 1.5539359 4294967295
2.5353334 -0.9090687 1.5476334 4294967295
2.5420003 2.2261941 1.5228316 4294967295
2.5282505 2.2141554 1.5242455 4294967295
2.5220001 0.54102141 1.5334557 4294967295
2.5220001 0.53516996 1.5188272 4294967295
2.5379999 -0.89354026 1.5251684 4294967295
2.5335002 2.2293272 1.4916224 4294967295
2.5345001 -0.89701283 1.5031931 4294967295
2.5420001 -0.90556514 1.4913492 4294967295
2.5295002 2.2240536 1.4748465 4294967295
2.5347276 2.2075214 1.4650565 4294967295
2.5320003 -0.90493232 1.4669608 4294967295
2.5370002 2.221827 1.4247011 4294967295
2.530889 2.2040756 1.4388249 4294967295
2.5344999 -0.90190846 1.4326158 4294967295
2.5345001 2.2339058 1.4040576 4294967295
2.5220003 2.2145422 1.4193521 4294967295
2.5339999 -0.89564937 1.4059794 4294967295
2.5359287 2.2351601 1.3751366 4294967295
2.5295 0.51915485 1.3721325 4294967295
2.53825 -0.88656169 1.3750989 4294967295
2.5360625 2.2320235 1.3449247 4294967295
2.5362859 -0.8900668 1.3462729 4294967295
2.5338752 2.224946 1.3221617 4294967295
2.5320003 2.2150776 1.3065879 4294967295
2.5469999 0.51092756 1.327806 4294967295
2.527 -0.89728421 1.3244002 4294967295
2.5369999 -0.90461153 1.3120228 4294967295
2.5334289 2.202306 1.282346 4294967295
2.5345001 0.5113458 1.297365 4294967295
2.527 0.50398988 1.2833588 4294967295
2.5411665 -0.90624344 1.2876179 4294967295
2.5370002 2.1953127 1.2642944 4294967295
2.5320003 2.1857157 1.2513707 4294967295
2.5220001 0.50006115 1.2613624 4294967295
2.5344999 -0.90582681 1.2532817 4294967295
2.5386667 2.1957941 1.2152125 4294967295
2.5320003 2.1836631 1.2275882 4294967295
2.5332501 -0.90832561 1.2264667 4294967295
2.538667 2.2232749 1.1857696 4294967295
2.5370002 2.2091937 1.199351 4294967295
2.5261667 -0.90480089 1.1990997 4294967295
2.5356114 2.2356267 1.1637043 4294967295
2.5286667 -0.90471625 1.1664886 4294967295
2.5341432 2.2297966 1.1380974 4294967295
2.5370004 2.2147403 1.1244942 4294967295
2.5295 0.51915485 1.1432638 4294967295
2.5303335 -0.89553815 1.1287951 4294967295
2.5395 -0.90171975 1.1457105 4294967295
2.5346925 2.2044106 1.1053958 4294967295
2.5469999 0.51092756 1.115065 4294967295
2.5320001 0.5079186 1.1056858 4294967295
2.527 -0.89435846 1.107455 4294967295
2.5395 -0.90171975 1.0985913 4294967295
2.5385001 2.2084086 1.0747836 4294967295
2.5320001 0.5020439 1.064563 4294967295
2.5310001 -0.91456145 1.0760927 4294967295
2.5355003 2.2058001 1.0447128 4294967295
2.5419998 0.50402671 1.0578612 4294967295
2.5394998 -0.91841489 1.0455413 4294967295
2.5369999 2.221827 1.0008895 4294967295
2.5331111 2.2118835 1.016476 4294967295
2.5345001 0.50842005 1.0268748 4294967295
2.5369999 -0.91162068 1.0195004 4294967295
2.535125 2.2304699 0.9828912 4294967295
2.5220001 2.2145422 0.99804628 4294967295
2.5261669 -0.910662 0.98415899 4294967295
2.5346923 2.2297347 0.95610541 4294967295
2.5386667 2.2173851 0.94230402 4294967295
2.5369999 -0.91134202 0.95546782 4294967295
2.5329998 2.1998858 0.92529231 4294967295
2.5220001 0.51176405 0.93953156 4294967295
2.5303335 -0.91315061 0.92623109 4294967295
2.5354376 2.2046285 0.89470786 4294967295
2.5320001 -0.91375202 0.89419764 4294967295
2.5375001 2.2134249 0.86556399 4294967295
2.5353334 0.50858724 0.85939968 4294967295
2.5334287 -0.91257918 0.86249614 4294967295
2.5469999 2.2246752 0.83141017 4294967295
2.5320003 2.2152321 0.83619833 4294967295
2.527 0.50691563 0.84362841 4294967295
2.5353334 -0.90514839 0.83685112 4294967295
2.5409999 2.2229664 0.81180805 4294967295
2.5314445 2.2143223 0.80076969 4294967295
2.5376248 -0.90179056 0.804497 4294967295
2.5324166 2.199188 0.77870369 4294967295
2.5395 2.186429 0.76641625 4294967295
2.5220001 0.5059126 0.76398742 4294967295
2.5339999 -0.89623803 0.77455938 4294967295
2.5320001 -0.90200275 0.78551614 4294967295
2.5316153 2.180052 0.74729538 4294967295
2.5220001 0.51176405 0.74058157 4294967295
2.5320001 0.5079186 0.75908017 4294967295
2.5332499 -0.89362735 0.75478351 4294967295
2.5395 -0.90467453 0.73915744 4294967295
2.5378332 2.1980095 0.70762205 4294967295
2.5310001 2.183672 0.72140646 4294967295
2.5220001 0.51761556 0.72302711 4294967295
2.5295 -0.90698099 0.72655666 4294967295
2.5419998 2.2232511 0.67451108 4294967295
2.5299165 2.2107148 0.68649495 4294967295
2.5395 0.52709931 0.6802367 4294967295
2.5303335 -0.92684269 0.68261009 4294967295
2.5469999 -0.9309842 0.67185438 4294967295
2.5436666 2.2237258 0.65198064 4294967295
2.5262859 2.2157874 0.65303516 4294967295
2.529 -0.91735989 0.6531781 4294967295
2.5353334 2.2332911 0.62527609 4294967295
2.5295 0.5250237 0.62680322 4294967295
2.5345001 -0.89406681 0.62112224 4294967295
2.5320001 -0.90200275 0.63571209 4294967295
2.5469999 2.2542226 0.6009407 4294967295
2.5336668 2.2443705 0.59266669 4294967295
2.5320001 -0.89494151 0.59929144 4294967295
2.5359998 -0.91164529 0.58529609 4294967295
2.5378332 2.2303987 0.56581455 4294967295
2.5469999 0.5227465 0.57730281 4294967295
2.5386667 0.49550971 0.55748284 4294967295
2.5295 -0.89230007 0.5534336 4294967295
2.5320001 -0.91139525 0.56991112 4294967295
2.5386665 2.225245 0.53490525 4294967295
2.5220001 2.2145422 0.54163152 4294967295
2.5295 0.46926072 0.54756474 4294967295
2.5420001 0.43794966 0.54180306 4294967295
2.5369999 0.40592632 0.54176021 4294967295
2.5344999 0.37608144 0.54173875 4294967295
2.5469999 0.34546229 0.54184598 4294967295
2.52825 0.31653824 0.54168516 4294967295
2.5409999 0.28570685 0.54769003 4294967295
2.5353334 0.23209487 0.5417459 4294967295
2.5369999 0.16753402 0.54176021 4294967295
2.5220001 0.14312147 0.54163152 4294967295
2.5280001 0.10356058 0.54168302 4294967295
2.5339999 0.073246047 0.54173446 4294967295
2.53825 0.046862114 0.54177094 4294967295
2.5353334 0.014445838 0.53586352 4294967295
2.5344999 -0.01202491 0.5299778 4294967295
2.5449998 -0.044518739 0.53001916 4294967295
2.5336666 -0.075707719 0.53390259 4294967295
2.5220001 -0.090937369 0.53578007 4294967295
2.5350001 -0.16784182 0.54174304 4294967295
2.5220001 -0.19626383 0.54163152 4294967295
2.5369999 -0.22393388 0.54176021 4294967295
2.5344999 -0.25455815 0.5343954 4294967295
2.5336666 -0.28336453 0.52802402 4294967295
2.5220001 -0.31329325 0.52407712 4294967295
2.54075 -0.34802887 0.53000242 4294967295
2.527 -0.36374468 0.52994829 4294967295
2.5444999 -0.40759236 0.53592086 4294967295
2.5353334 -0.42669594 0.53586352 4294967295
2.5469999 -0.46709046 0.54184598 4294967295
