# .PCD v0.7 - Point Cloud Data file format
VERSION 0.7
FIELDS x y z rgb
SIZE 4 4 4 4
TYPE F F F U
COUNT 1 1 1 1
WIDTH 1101
HEIGHT 1
VIEWPOINT 0 0 0 1 0 0 0
POINTS 1101
DATA ascii
0.26803899 0.77056938 0.20821361 4278190080
0.27232999 0.77418518 0.20950687 4278190080
0.27516559 0.77318192 0.20950687 4278190080
0.27949825 0.77676123 0.21080011 4278190080
0.2822077 0.77578092 0.21080011 4278190080
0.28491411 0.77479106 0.21080011 4278190080
0.28761709 0.77379173 0.21080011 4278190080
0.2903161 0.77278316 0.21080011 4278190080
0.29301202 0.77176499 0.21080011 4278190080
0.29570395 0.77073759 0.21080011 4278190080
0.3001385 0.7742039 0.21209337 4278190080
0.30283931 0.77315146 0.21209337 4278190080
0.30567092 0.77203631 0.21209337 4278190080
0.30836371 0.77096474 0.21209337 4278190080
0.31105316 0.76988357 0.21209337 4278190080
0.31373882 0.76879305 0.21209337 4278190080
0.31826076 0.77215874 0.21338663 4278190080
0.32095432 0.771043 0.21338663 4278190080
0.32364357 0.76991808 0.21338663 4278190080
0.32632929 0.76878363 0.21338663 4278190080
0.32901102 0.76763976 0.21338663 4278190080
0.33360648 0.77091932 0.21467987 4278190080
0.33629563 0.76975006 0.21467987 4278190080
0.33898026 0.76857162 0.21467987 4278190080
0.34166119 0.76738358 0.21467987 4278190080
0.3463178 0.77059162 0.21597312 4278190080
0.34900531 0.76937813 0.21597312 4278190080
0.35168898 0.76815516 0.21597312 4278190080
0.35436794 0.76692295 0.21597312 4278190080
0.35908419 0.77005857 0.21726637 4278190080
0.36177018 0.76880032 0.21726637 4278190080
0.36652303 0.77189595 0.21855962 4278190080
0.3693496 0.77054745 0.21855962 4278190080
0.37414008 0.77360141 0.21985288 4278190080
0.37683836 0.77229065 0.21985288 4278190080
0.37953159 0.77097064 0.21985288 4278190080
0.38436893 0.77396685 0.22114612 4278190080
0.38706797 0.77262056 0.22114612 4278190080
0.38989747 0.77119654 0.22114612 4278190080
0.39258683 0.76983094 0.22114612 4278190080
0.39527181 0.7684558 0.22114612 4278190080
0.39795199 0.76707131 0.22114612 4278190080
0.4006269 0.76567763 0.22114612 4278190080
0.40329733 0.76427442 0.22114612 4278190080
0.40823141 0.76712584 0.22243938 4278190080
0.41090685 0.76569611 0.22243938 4278190080
0.41357729 0.76425701 0.22243938 4278190080
0.4185558 0.7670486 0.22373265 4278190080
0.42136425 0.76550943 0.22373265 4278190080
0.42637774 0.7682569 0.22502589 4278190080
0.429057 0.76676381 0.22502589 4278190080
0.43173066 0.76526153 0.22502589 4278190080
0.43678731 0.76794809 0.22631915 4278190080
0.43946505 0.76641887 0.22631915 4278190080
0.44455495 0.76906157 0.22761239 4278190080
0.44723693 0.76750499 0.22761239 4278190080
0.45235932 0.77010387 0.22890565 4278190080
0.45504487 0.76852006 0.22890565 4278190080
0.46033445 0.77099407 0.2301989 4278190080
0.4630231 0.76938236 0.2301989 4278190080
0.46821055 0.77189112 0.23149215 4278190080
0.47090226 0.77025199 0.23149215 4278190080
0.47358823 0.76860344 0.23149215 4278190080
0.478816 0.77104884 0.2327854 4278190080
0.48150474 0.76937264 0.2327854 4278190080
0.48418716 0.76768738 0.2327854 4278190080
0.48958942 0.76998311 0.23407865 4278190080
0.49227396 0.7682696 0.23407865 4278190080
0.49757278 0.77060395 0.2353719 4278190080
0.5002594 0.76886255 0.2353719 4278190080
0.50294036 0.76711154 0.2353719 4278190080
0.50827742 0.76938105 0.23666516 4278190080
0.51095974 0.76760232 0.23666516 4278190080
0.51363623 0.76581395 0.23666516 4278190080
0.51630604 0.76401651 0.23666516 4278190080
0.51896995 0.76220948 0.23666516 4278190080
0.52435976 0.76437598 0.2379584 4278190080
0.52702451 0.76254112 0.2379584 4278190080
0.53257632 0.76456761 0.23925166 4278190080
0.5380165 0.76665729 0.24054492 4278190080
0.54068953 0.7647745 0.24054492 4278190080
0.54615754 0.76681668 0.24183817 4278190080
0.54883105 0.76490545 0.24183817 4278190080
0.55149746 0.76298517 0.24183817 4278190080
0.55429053 0.76095849 0.24183817 4278190080
0.55980045 0.76291323 0.24313143 4278190080
0.56232733 0.76105261 0.24313143 4278190080
0.56786436 0.76295948 0.24442467 4278190080
0.57355475 0.76473695 0.24571793 4278190080
0.57622087 0.76273012 0.24571793 4278190080
0.58180434 0.76455778 0.24701117 4278190080
0.5844698 0.76252216 0.24701117 4278190080
0.58712804 0.76047719 0.24701117 4278190080
0.58977878 0.75842327 0.24701117 4278190080
0.59540099 0.76016217 0.24830443 4278190080
0.59805053 0.75807941 0.24830443 4278190080
0.60369796 0.75976849 0.24959768 4278190080
0.60936439 0.7614274 0.25089094 4278190080
0.61201829 0.75929588 0.25089094 4278190080
0.61770928 0.76090455 0.25218418 4278190080
0.62036133 0.75874394 0.25218418 4278190080
0.6260764 0.76030213 0.25347742 4278190080
0.62885875 0.75800246 0.25347742 4278190080
0.63459784 0.75950891 0.2547707 4278190080
0.64035463 0.7609849 0.25606394 4278190080
0.64300722 0.75874484 0.25606394 4278190080
0.64878744 0.76016939 0.25735721 4278190080
0.654585 0.761563 0.25865045 4278190080
0.65723956 0.75927335 0.25865045 4278190080
0.66305941 0.76061541 0.25994369 4278190080
0.66889703 0.76192576 0.26123697 4278190080
0.67155272 0.7595861 0.26123697 4278190080
0.67741156 0.76084477 0.26253021 4278190080
0.68328768 0.76207143 0.26382345 4278190080
0.68931353 0.76314622 0.26511672 4278190080
0.69522333 0.76430815 0.26640996 4278190080
0.69788677 0.76187694 0.26640996 4278190080
0.70381689 0.76298618 0.26770321 4278190080
0.70976329 0.76406324 0.26899645 4278190080
0.71242577 0.7615813 0.26899645 4278190080
0.71839184 0.76260525 0.27028972 4278190080
0.72104919 0.76009321 0.27028972 4278190080
0.72703439 0.76106387 0.27158296 4278190080
0.72968674 0.75852126 0.27158296 4278190080
0.73569036 0.75943881 0.2728762 4278190080
0.74170959 0.76032329 0.27416947 4278190080
0.74435884 0.75772983 0.27416947 4278190080
0.75039613 0.75856042 0.27546272 4278190080
0.75644827 0.75935805 0.27675596 4278190080
0.76251465 0.76012301 0.27804923 4278190080
0.76529539 0.75732327 0.27804923 4278190080
0.77137935 0.75803238 0.27934247 4278190080
0.7774775 0.75870824 0.28063571 4278190080
0.78358948 0.75935119 0.28192899 4278190080
0.78984797 0.75982261 0.28322226 4278190080
0.78900319 0.75372452 0.28192899 4278190080
0.79513359 0.75428963 0.28322226 4278190080
1.0852635 0.78993767 0.34917811 4278190080
1.0801842 0.78048748 0.34659159 4278190080
1.0907518 0.78234202 0.34917811 4278190080
1.0423272 0.74211353 0.33236581 4278190080
1.0488557 0.74125791 0.33365908 4278190080
1.0593448 0.74313945 0.33624557 4278190080
1.0658958 0.74219739 0.33753884 4278190080
1.0764266 0.74396408 0.34012532 4278190080
1.0829996 0.74293464 0.34141856 4278190080
1.0897083 0.7416774 0.34271184 4278190080
1.1002949 0.74327666 0.34529832 4278190080
1.1068945 0.7421208 0.34659159 4278190080
1.1134992 0.74092853 0.34788486 4278190080
1.1241395 0.74236006 0.35047138 4278190080
1.1307638 0.74107873 0.35176462 4278190080
1.1414411 0.74239421 0.35435113 4278190080
1.1480837 0.74102426 0.35564438 4278190080
1.1547302 0.73961759 0.35693762 4278190080
1.1613812 0.73817289 0.35823086 4278190080
1.1721214 0.73926729 0.36081737 4278190080
1.1787888 0.73773402 0.36211061 4278190080
1.18546 0.73616248 0.36340389 4278190080
1.1962461 0.73708767 0.36599037 4278190080
1.2029326 0.73542649 0.36728364 4278190080
1.2137517 0.73623252 0.36987013 4278190080
1.2247192 0.73675853 0.37245664 4278190080
1.2355784 0.73742926 0.37504312 4278190080
1.2464566 0.73803371 0.37762964 4278190080
1.2573545 0.73857051 0.38021615 4278190080
1.2682709 0.73904091 0.38280267 4278190080
1.2750245 0.73702615 0.38409594 4278190080
1.2859695 0.73737574 0.38668242 4278190080
1.2969319 0.7376585 0.38926893 4278190080
1.3079122 0.73787296 0.39185542 4278190080
1.3146945 0.73566192 0.39314869 4278190080
1.3257008 0.73575556 0.39573517 4278190080
1.3367236 0.73578125 0.39832169 4278190080
1.3478906 0.73550415 0.4009082 4278190080
1.3546973 0.7330938 0.40220144 4278190080
1.3657597 0.73292792 0.40478793 4278190080
1.3725737 0.73042476 0.4060812 4278190080
1.3793864 0.72788364 0.40737444 4278190080
1.3861984 0.72530305 0.40866768 4278190080
1.3930087 0.72268456 0.40996096 4278190080
1.4041129 0.7222358 0.41254744 4278190080
1.4109282 0.71952403 0.41384071 4278190080
1.4220518 0.71895343 0.41642722 4278190080
1.4375066 0.72047722 0.42030698 4278190080
1.4486632 0.7197535 0.42289349 4278190080
1.4598328 0.71895987 0.42547998 4278190080
1.4753546 0.72021574 0.42935973 4278190080
1.4865547 0.71926916 0.43194625 4278190080
1.5021214 0.72034067 0.435826 4278190080
1.5134767 0.71897542 0.43841249 4278190080
1.524717 0.71780211 0.440999 4278190080
1.540344 0.71860182 0.44487876 4278190080
1.5516114 0.71727365 0.4474653 4278190080
1.562888 0.71587551 0.45005178 4278190080
1.5785716 0.71640414 0.45393154 4278190080
1.594278 0.71683115 0.4578113 4278190080
1.6055942 0.71519268 0.46039781 4278190080
1.6213373 0.71543294 0.46427754 4278190080
1.6371017 0.71557188 0.46815729 4278190080
1.652886 0.71561033 0.47203705 4278190080
1.6686909 0.71554631 0.4759168 4278190080
1.6846399 0.71508723 0.47979656 4278190080
1.7004834 0.71481699 0.48367634 4278190080
1.716345 0.71444565 0.4875561 4278190080
1.7322247 0.71397132 0.49143586 4278190080
1.7481216 0.71339566 0.49531561 4278190080
1.7640358 0.71271676 0.49919537 4278190080
1.7799665 0.71193534 0.50307512 4278190080
1.7959125 0.7110523 0.50695485 4278190080
1.8118744 0.7100656 0.51083463 4278190080
1.8278507 0.70897704 0.51471442 4278190080
1.8483508 0.70951539 0.51988739 4278190080
1.8688766 0.70991915 0.52506042 4278190080
1.8849061 0.70848984 0.52894014 4278190080
1.9054757 0.70863986 0.53411317 4278190080
1.9215357 0.70698798 0.53799289 4278190080
1.9421463 0.70688349 0.54316592 4278190080
1.9629024 0.70630175 0.54833895 4278190080
1.979007 0.70430338 0.55221874 4278190080
1.9996768 0.70380569 0.5573917 4278190080
2.0203674 0.70317113 0.56256473 4278190080
2.0410779 0.70240062 0.5677377 4278190080
2.0663793 0.70305079 0.57420403 4278190080
2.0871325 0.70199198 0.579377 4278190080
2.1079025 0.70079786 0.58455002 4278190080
2.12869 0.69946611 0.58972305 4278190080
2.1494937 0.69799769 0.59489602 4278190080
2.1703124 0.69639367 0.60006905 4278190080
2.1911464 0.69465154 0.60524201 4278190080
2.2119939 0.69277352 0.61041504 4278190080
2.2374694 0.69218469 0.61688131 4278190080
2.2583485 0.69001502 0.62205434 4278190080
2.2838626 0.68910426 0.62852055 4278190080
2.3093984 0.68802255 0.63498682 4278190080
2.3395872 0.68813497 0.64274633 4278190080
2.3652868 0.68628377 0.64921266 4278190080
2.3955269 0.68600196 0.65697211 4278190080
2.4257941 0.685516 0.66473162 4278190080
2.4560866 0.68482703 0.67249113 4278190080
2.4864032 0.68393612 0.68025064 4278190080
2.5167437 0.68284053 0.68801016 4278190080
2.5517716 0.68279111 0.69706297 4278190080
2.58216 0.68127185 0.70482248 4278190080
2.6125684 0.67954868 0.71258193 4278190080
2.6476741 0.67882234 0.72163475 4278190080
2.6781237 0.67667454 0.72939426 4278190080
2.7132769 0.67549056 0.73844707 4278190080
2.7531452 0.67521834 0.74879307 4278190080
2.7883492 0.67354178 0.75784576 4278190080
2.8235743 0.67162907 0.76689857 4278190080
2.8588202 0.66947711 0.77595133 4278190080
2.8940845 0.66708863 0.78500408 4278190080
2.9482079 0.66873419 0.79922986 4278190080
2.9693799 0.66264611 0.80440289 4278190080
2.9622397 0.65020698 0.8018164 4278190080
2.9646027 0.63934588 0.8018164 4278190080
2.9620919 0.62799132 0.80052316 4278190080
2.9642661 0.61764723 0.80052316 4278190080
2.9664037 0.60729718 0.80052316 4278190080
2.9590356 0.59503382 0.79793668 4278190080
2.8805423 0.56879622 0.77595133 4278190080
2.7971613 0.54219341 0.75267279 4278190080
2.7658238 0.52610785 0.74362004 4278190080
2.7676432 0.516451 0.74362004 4278190080
2.7646782 0.50591695 0.74232674 4278190080
2.7711811 0.49711704 0.74362004 4278190080
2.7728996 0.4874402 0.74362004 4278190080
2.7745843 0.47775742 0.74362004 4278190080
2.7762351 0.46807027 0.74362004 4278190080
2.7778521 0.45837596 0.74362004 4278190080
2.7794349 0.44867754 0.74362004 4278190080
2.7809844 0.43897218 0.74362004 4278190080
2.7920465 0.43073428 0.74620652 4278190080
2.7983088 0.4217062 0.74749976 4278190080
2.8093207 0.41334122 0.75008625 4278190080
2.8107462 0.40353325 0.75008625 4278190080
2.7977884 0.39170983 0.74620652 4278190080
2.8422081 0.38781753 0.75784576 4278190080
2.8770587 0.38234884 0.76689857 4278190080
2.9071157 0.37602043 0.77465808 4278190080
2.9323709 0.36888552 0.78112435 4278190080
2.9576116 0.36157724 0.78759056 4278190080
2.9684479 0.35238916 0.79017711 4278190080
2.9697196 0.34150732 0.79017711 4278190080
2.9708936 0.33113834 0.79017711 4278190080
2.9720314 0.32076693 0.79017711 4278190080
2.9683294 0.30988851 0.78888386 4278190080
2.969393 0.29952618 0.78888386 4278190080
2.9704204 0.28915861 0.78888386 4278190080
2.9714117 0.27878749 0.78888386 4278190080
2.9675562 0.26798019 0.78759056 4278190080
2.9684737 0.25761923 0.78759056 4278190080
2.9693549 0.2472567 0.78759056 4278190080
2.9653854 0.2365056 0.78629738 4278190080
2.966193 0.22615241 0.78629738 4278190080
2.9669642 0.21579804 0.78629738 4278190080
2.9676995 0.20543945 0.78629738 4278190080
2.9635789 0.1947632 0.78500408 4278190080
2.9642408 0.18441656 0.78500408 4278190080
2.9648664 0.17406768 0.78500408 4278190080
2.965456 0.16371825 0.78500408 4278190080
2.9660094 0.15336524 0.78500408 4278190080
2.9665265 0.14301196 0.78500408 4278190080
2.9670076 0.13265534 0.78500408 4278190080
2.9674528 0.12229711 0.78500408 4278190080
2.9630353 0.11175694 0.78371084 4278190080
2.9634073 0.1014127 0.78371084 4278190080
2.9589314 0.090403527 0.7824176 4278190080
2.959229 0.080073752 0.7824176 4278190080
2.9594903 0.069744572 0.7824176 4278190080
2.9597158 0.059412967 0.7824176 4278190080
2.9599051 0.049082216 0.7824176 4278190080
2.9600585 0.038749289 0.7824176 4278190080
2.9601758 0.028415889 0.7824176 4278190080
2.9602568 0.01808372 0.7824176 4278190080
2.9603019 0.0077497549 0.7824176 4278190080
2.9603109 -0.0025833594 0.7824176 4278190080
2.960284 -0.012916757 0.7824176 4278190080
2.9602208 -0.023249997 0.7824176 4278190080
2.9552922 -0.033528164 0.78112435 4278190080
2.955157 -0.043843858 0.78112435 4278190080
2.9549861 -0.054159008 0.78112435 4278190080
2.9547791 -0.06447351 0.78112435 4278190080
2.954536 -0.074787222 0.78112435 4278190080
2.9590847 -0.085239083 0.7824176 4278190080
2.9587691 -0.095567703 0.7824176 4278190080
2.9584174 -0.10589515 0.7824176 4278190080
2.9580297 -0.11622131 0.7824176 4278190080
2.9576061 -0.12654606 0.7824176 4278190080
2.9523218 -0.13664596 0.78112435 4278190080
2.9518268 -0.14695063 0.78112435 4278190080
2.9512959 -0.15725355 0.78112435 4278190080
2.9507289 -0.16755453 0.78112435 4278190080
2.9501262 -0.17785348 0.78112435 4278190080
2.9494872 -0.18815026 0.78112435 4278190080
2.9488125 -0.19844474 0.78112435 4278190080
2.943284 -0.20839569 0.77983105 4278190080
2.9425387 -0.21866839 0.77983105 4278190080
2.9417574 -0.22893843 0.77983105 4278190080
2.9409404 -0.2392057 0.77983105 4278190080
2.9400876 -0.24947003 0.77983105 4278190080
2.9391534 -0.26024431 0.77983105 4278190080
2.9382269 -0.2705023 0.77983105 4278190080
2.9373138 -0.28024432 0.77983105 4278190080
2.9363177 -0.29049575 0.77983105 4278190080
2.9352858 -0.30074364 0.77983105 4278190080
2.9390211 -0.31149694 0.78112435 4278190080
2.9378598 -0.32226691 0.78112435 4278190080
2.9415159 -0.33306336 0.7824176 4278190080
2.9403355 -0.34332913 0.7824176 4278190080
2.9391191 -0.35359073 0.7824176 4278190080
2.9330738 -0.3632544 0.78112435 4278190080
2.931788 -0.37349054 0.78112435 4278190080
2.9304664 -0.3837221 0.78112435 4278190080
2.9291091 -0.393949 0.78112435 4278190080
2.927716 -0.40417111 0.78112435 4278190080
2.9262874 -0.4143883 0.78112435 4278190080
2.924823 -0.42460042 0.78112435 4278190080
2.9233232 -0.43480736 0.78112435 4278190080
2.9217877 -0.44500899 0.78112435 4278190080
2.9202166 -0.4552052 0.78112435 4278190080
3.0344255 -0.48875257 0.70019275 4278190080
3.032701 -0.49934176 0.70019275 4278190080
3.0309396 -0.50992477 0.70019275 4278190080
3.0339427 -0.52132666 0.70131665 4278190080
3.0321043 -0.53191394 0.70131665 4278190080
3.0303237 -0.54196584 0.70131665 4278190080
3.0332065 -0.55341488 0.70244056 4278190080
3.0311577 -0.56452841 0.70244056 4278190080
3.0339551 -0.5760144 0.70356447 4278190080
3.0319262 -0.58660138 0.70356447 4278190080
3.02986 -0.59718114 0.70356447 4278190080
3.0277569 -0.60775375 0.70356447 4278190080
3.0256171 -0.61831886 0.70356447 4278190080
3.0234404 -0.62887651 0.70356447 4278190080
3.0212266 -0.63942641 0.70356447 4278190080
3.0189762 -0.64996856 0.70356447 4278190080
3.0166891 -0.66050285 0.70356447 4278190080
3.0191209 -0.67208767 0.70468837 4278190080
3.0167563 -0.68262225 0.70468837 4278190080
3.0143552 -0.69314855 0.70468837 4278190080
3.0119174 -0.70366639 0.70468837 4278190080
3.0094428 -0.7141757 0.70468837 4278190080
3.0116677 -0.72581774 0.70581228 4278190080
3.0091159 -0.73632598 0.70581228 4278190080
3.0112557 -0.74799979 0.70693618 4278190080
3.0086265 -0.75850648 0.70693618 4278190080
3.0059605 -0.76900399 0.70693618 4278190080
3.0032578 -0.77949202 0.70693618 4278190080
3.0052299 -0.79121101 0.70806009 4278190080
3.0024498 -0.80169636 0.70806009 4278190080
2.9996331 -0.812172 0.70806009 4278190080
3.001478 -0.82392746 0.70918399 4278190080
2.9985838 -0.83439958 0.70918399 4278190080
3.0003419 -0.8461839 0.7103079 4278190080
2.9973698 -0.8566519 0.7103079 4278190080
2.9990413 -0.86846465 0.7114318 4278190080
2.9959915 -0.87892801 0.7114318 4278190080
2.9975753 -0.89076835 0.71255571 4278190080
2.9944477 -0.90122646 0.71255571 4278190080
2.9912834 -0.91167355 0.71255571 4278190080
2.9927385 -0.92354614 0.71367961 4278190080
2.9894965 -0.93398714 0.71367961 4278190080
2.986218 -0.9444167 0.71367961 4278190080
2.9875431 -0.95632011 0.71480352 4278190080
2.9841869 -0.96674281 0.71480352 4278190080
2.9854238 -0.97867131 0.71592742 4278190080
2.9819894 -0.98908645 0.71592742 4278190080
2.9785187 -0.99948949 0.71592742 4278190080
2.979625 -1.0114464 0.71705133 4278190080
2.9760764 -1.0218412 0.71705133 4278190080
2.9724913 -1.0322232 0.71705133 4278190080
2.968688 -1.0431111 0.71705133 4278190080
2.9696198 -1.0550985 0.71817523 4278190080
2.9661045 -1.0649403 0.71817523 4278190080
2.9669487 -1.0769498 0.71929914 4278190080
2.9631715 -1.0872998 0.71929914 4278190080
2.9639261 -1.0993309 0.72042304 4278190080
2.9600706 -1.1096703 0.72042304 4278190080
2.9561791 -1.1199961 0.72042304 4278190080
2.9568017 -1.1320504 0.72154701 4278190080
2.952832 -1.1423645 0.72154701 4278190080
2.9533641 -1.1544386 0.72267085 4278190080
2.9493163 -1.1647407 0.72267085 4278190080
2.9497581 -1.1768341 0.72379476 4278190080
2.945632 -1.1871235 0.72379476 4278190080
2.9459827 -1.1992353 0.72491866 4278190080
2.9417787 -1.2095114 0.72491866 4278190080
2.9420383 -1.2216412 0.72604257 4278190080
2.9377561 -1.2319034 0.72604257 4278190080
2.9379244 -1.2440503 0.72716647 4278190080
2.9335639 -1.254298 0.72716647 4278190080
2.9291677 -1.2645304 0.72716647 4278190080
2.9292023 -1.2766939 0.72829038 4278190080
2.9247279 -1.286911 0.72829038 4278190080
2.9246705 -1.2990901 0.72941428 4278190080
2.9201179 -1.3092912 0.72941428 4278190080
2.9199686 -1.3214853 0.73053819 4278190080
2.9197695 -1.333694 0.73166209 4278190080
2.9150963 -1.3438778 0.73166209 4278190080
2.9148049 -1.3561004 0.732786 4278190080
2.9144635 -1.3683372 0.7339099 4278190080
2.9143133 -1.3800796 0.73503381 4278190080
2.9094782 -1.3902441 0.73503381 4278190080
2.9087512 -1.403015 0.73615772 4278190080
2.903836 -1.41316 0.73615772 4278190080
2.9035077 -1.4249281 0.73728162 4278190080
2.8985162 -1.4350547 0.73728162 4278190080
2.8978477 -1.4473405 0.73840553 4278190080
2.8927779 -1.4574471 0.73840553 4278190080
2.8917596 -1.470248 0.73952943 4278190080
2.88661 -1.4803331 0.73952943 4278190080
2.8860128 -1.4921348 0.74065334 4278190080
2.8851068 -1.5044526 0.74177724 4278190080
2.8798378 -1.5145142 0.74177724 4278190080
2.8788376 -1.5268403 0.74290115 4278190080
2.8777866 -1.5391778 0.74402505 4278190080
2.8721259 -1.5497152 0.74402505 4278190080
2.8709786 -1.5620596 0.74514896 4278190080
2.8655083 -1.5720717 0.74514896 4278190080
2.8642666 -1.5844231 0.74627286 4278190080
2.8587186 -1.5944115 0.74627286 4278190080
2.8576627 -1.6062698 0.74739677 4278190080
2.856277 -1.6186372 0.74852067 4278190080
2.8587852 -1.6339303 0.75076848 4278190080
2.8572857 -1.6463318 0.75189239 4278190080
2.8560238 -1.658244 0.75301629 4278190080
2.854423 -1.6706644 0.7541402 4278190080
2.8485739 -1.680618 0.7541402 4278190080
2.8468776 -1.6930414 0.7552641 4278190080
2.8409503 -1.7029686 0.7552641 4278190080
2.8391588 -1.7153945 0.75638801 4278190080
2.8331535 -1.7252946 0.75638801 4278190080
2.8312659 -1.7377222 0.75751191 4278190080
2.8293266 -1.7501575 0.75863582 4278190080
2.8273344 -1.7626005 0.75975972 4278190080
2.8252902 -1.7750509 0.76088363 4278190080
2.8231931 -1.7875084 0.76200753 4278190080
2.8210435 -1.799973 0.76313144 4278190080
2.8188412 -1.8124442 0.76425534 4278190080
2.8124974 -1.8222727 0.76425534 4278190080
2.810199 -1.8347425 0.76537925 4278190080
2.8078475 -1.8472185 0.76650316 4278190080
2.8013825 -1.8570085 0.76650316 4278190080
2.7989347 -1.869482 0.76762706 4278190080
2.7964339 -1.8819606 0.76875097 4278190080
2.7938802 -1.8944449 0.76987487 4278190080
2.7912731 -1.9069341 0.77099878 4278190080
2.7845995 -1.9166659 0.77099878 4278190080
2.7818959 -1.9291508 0.77212268 4278190080
2.7794776 -1.9411547 0.77324653 4278190080
2.7766693 -1.9536488 0.77437049 4278190080
2.7734644 -1.9666307 0.77549434 4278190080
2.7705472 -1.9791319 0.7766183 4278190080
2.7679241 -1.9911536 0.77774221 4278190080
2.7649019 -2.0036623 0.77886611 4278190080
2.761826 -2.0161741 0.77999002 4278190080
2.7586963 -2.0286887 0.78111392 4278190080
2.7555132 -2.0412059 0.78223783 4278190080
2.7522759 -2.0537257 0.78336173 4278190080
2.7489848 -2.0662479 0.78448564 4278190080
2.7456398 -2.0787718 0.78560954 4278190080
2.7461147 -2.0942521 0.78785735 4278190080
2.7426517 -2.1067929 0.78898126 4278190080
2.7352808 -2.116354 0.78898126 4278190080
2.7317195 -2.1288836 0.79010516 4278190080
2.7242715 -2.1384063 0.79010516 4278190080
2.7129688 -2.1448812 0.78898126 4278190080
2.713465 -2.1599343 0.79122907 4278190080
2.7097099 -2.1724405 0.79235297 4278190080
2.7438066 -2.2155545 0.80471593 4278190080
2.7700748 -2.2527847 0.81483108 4278190080
2.7772708 -2.2747891 0.8193267 4278190080
2.7505217 -2.2689681 0.81370717 4278190080
2.7425847 -2.2785554 0.81370717 4278190080
2.7308781 -2.2849884 0.81258327 4278190080
2.7154341 -2.288228 0.81033546 4278190080
2.7260032 -2.3134551 0.81595498 4278190080
2.7253184 -2.3292875 0.81820279 4278190080
2.724556 -2.3451431 0.82045054 4278190080
2.7200351 -2.3578305 0.82157451 4278190080
2.7154582 -2.3705149 0.82269835 4278190080
2.7108262 -2.3831961 0.82382232 4278190080
2.7024908 -2.3926442 0.82382232 4278190080
2.6977587 -2.4053054 0.82494617 4278190080
2.6893463 -2.4147074 0.82494617 4278190080
2.6772873 -2.4208128 0.82382232 4278190080
2.6688209 -2.4301436 0.82382232 4278190080
2.6531398 -2.4328592 0.82157451 4278190080
2.6517901 -2.4487162 0.82382232 4278190080
2.6436555 -2.4574962 0.82382232 4278190080
2.6330917 -2.4830358 0.82607013 4278190080
2.6279409 -2.4955668 0.82719398 4278190080
2.6086504 -2.4946232 0.82382232 4278190080
2.5718517 -2.4766779 0.81483108 4278190080
2.489742 -2.4144137 0.79122907 4278190080
2.4778132 -2.4196858 0.79010516 4278190080
2.483247 -2.4419844 0.79460078 4278190080
2.4143906 -2.4076576 0.77774221 4278190080
0.85094357 -0.89077282 0.27535671 4278190080
0.89141899 -0.93968803 0.28996748 4278190080
0.84804487 -0.90023804 0.27648062 4278190080
0.8517127 -0.91016012 0.27872843 4278190080
2.1108372 -2.3858674 0.72604257 4278190080
2.0928493 -2.3822405 0.72267085 4278190080
2.0909264 -2.3968742 0.72491866 4278190080
2.0825472 -2.4041581 0.72491866 4278190080
2.0646114 -2.400332 0.72154701 4278190080
2.0498915 -2.4001148 0.71929914 4278190080
2.0351987 -2.3998241 0.71705133 4278190080
2.0205328 -2.3994601 0.71480352 4278190080
2.0058947 -2.3990231 0.71255571 4278190080
1.9912841 -2.3985133 0.7103079 4278190080
1.9740205 -2.393827 0.70693618 4278190080
1.9625659 -2.3969333 0.70581228 4278190080
1.9449672 -2.3924282 0.70244056 4278190080
1.9304839 -2.3916206 0.70019275 4278190080
0.71218622 -0.90795833 0.25737423 4278190080
0.73595393 -0.94503415 0.26748937 4278190080
0.70881021 -0.91676253 0.25849813 4278190080
0.6701591 -0.87273735 0.24501128 4278190080
1.7594205 -2.3942847 0.67659074 4278190080
1.739567 -2.3846674 0.67209518 4278190080
1.7255174 -2.382833 0.66984737 4278190080
1.697283 -2.3611495 0.66197997 4278190080
1.6975205 -2.3789577 0.66535175 4278190080
1.6560626 -2.3545914 0.65523654 4278190080
0.31953335 -0.69953346 0.16858575 4278190080
0.3131927 -0.69171268 0.16633794 4278190080
0.30080599 -0.6705752 0.1607184 4278190080
0.30835602 -0.69388229 0.16633794 4278190080
0.30593207 -0.6949544 0.16633794 4278190080
0.30350432 -0.6960181 0.16633794 4278190080
0.29141393 -0.6747098 0.1607184 4278190080
0.29097319 -0.68020231 0.1618423 4278190080
0.27867797 -0.66424638 0.1573467 4278190080
0.2110007 -0.62733817 0.14385983 4278190080
0.20419848 -0.61420119 0.14048812 4278190080
0.1974906 -0.60102451 0.1371164 4278190080
0.2094655 -0.6688143 0.15285107 4278190080
0.20621486 -0.67491978 0.15397498 4278190080
0.19822825 -0.65697801 0.14947934 4278190080
0.19454265 -0.65299678 0.14835544 4278190080
0.19417116 -0.66834164 0.15172717 4278190080
-0.011749816 -0.73973137 0.1618423 4278190080
-0.014520611 -0.74942809 0.16409011 4278190080
-0.017136475 -0.74937284 0.16409011 4278190080
-0.018853532 -0.71521604 0.15622279 4278190080
-0.021786105 -0.72975546 0.15959449 4278190080
-0.024333352 -0.72967499 0.15959449 4278190080
-0.026880205 -0.72958559 0.15959449 4278190080
-0.029426731 -0.7294873 0.15959449 4278190080
-0.031972997 -0.72938013 0.15959449 4278190080
-0.03462097 -0.73413676 0.1607184 4278190080
-0.037183434 -0.73401141 0.1607184 4278190080
-0.040008821 -0.73874205 0.1618423 4278190080
-0.04286778 -0.74346185 0.16296621 4278190080
-0.045462646 -0.74330771 0.16296621 4278190080
-0.04805696 -0.74314451 0.16296621 4278190080
-0.050521083 -0.74298102 0.16296621 4278190080
-0.05311422 -0.74280018 0.16296621 4278190080
-0.054977912 -0.73289347 0.1607184 4278190080
-0.057535812 -0.73269707 0.1607184 4278190080
-0.060093112 -0.73249179 0.1607184 4278190080
-0.13144584 -0.69832915 0.15509889 4278190080
-0.1265391 -0.65958774 0.14610764 4278190080
-0.12977532 -0.66392356 0.14723153 4278190080
-0.12353019 -0.62046212 0.1371164 4278190080
-0.12182324 -0.60092747 0.13262078 4278190080
-0.13081278 -0.63389915 0.14048812 4278190080
-0.15055168 -0.64952421 0.14498374 4278190080
-0.16175139 -0.68693358 0.15397498 4278190080
-0.1561017 -0.65322304 0.14610764 4278190080
-0.79416162 -1.5081754 0.38437548 4278190080
-0.79942143 -1.505394 0.38437548 4278190080
-0.79777116 -1.4897095 0.38100377 4278190080
-0.81222653 -1.5040632 0.38549939 4278190080
-0.56641155 -0.64928961 0.18993993 4278190080
-0.57510561 -0.65462893 0.19218774 4278190080
-0.56770223 -0.64167064 0.18881603 4278190080
-0.58290273 -0.65423572 0.19331163 4278190080
-0.5624069 -0.62681288 0.18544431 4278190080
-0.58092332 -0.64292043 0.19106384 4278190080
-3.0792553 -2.2835231 0.87552196 4278190080
-3.0950546 -2.2785375 0.87776977 4278190080
-3.0833213 -2.2533464 0.87215018 4278190080
-3.1108859 -2.256875 0.87776977 4278190080
-3.063396 -2.206141 0.86203504 4278190080
-3.0908952 -2.2096012 0.86765456 4278190080
-3.1065359 -2.2044377 0.86990237 4278190080
-3.1341274 -2.2076087 0.87552196 4278190080
-3.1577859 -2.2078221 0.88001758 4278190080
-3.1854868 -2.210674 0.88563704 4278190080
-3.209233 -2.2105963 0.89013267 4278190080
-3.2289956 -2.2076299 0.89350438 4278190080
-3.2528079 -2.207288 0.898 4278190080
-3.2762718 -2.2073784 0.90249562 4278190080
-3.3001571 -2.2067614 0.90699124 4278190080
-3.3240776 -2.2060046 0.91148686 4278190080
-3.3480334 -2.2051065 0.91598248 4278190080
-3.3720226 -2.2040689 0.92047811 4278190080
-3.3960454 -2.2028906 0.92497373 4278190080
-3.4201007 -2.2015712 0.92946935 4278190080
-3.4441881 -2.2001107 0.93396497 4278190080
-3.4683073 -2.1985078 0.93846053 4278190080
-3.4965806 -2.1993582 0.94408011 4278190080
-3.5249019 -2.2000377 0.94969964 4278190080
-3.5532701 -2.2005463 0.95531923 4278190080
-3.5775337 -2.1983328 0.95981479 4278190080
-3.6059854 -2.1985116 0.96543437 4278190080
-3.6303122 -2.195998 0.96992999 4278190080
-3.6588426 -2.195848 0.9755494 4278190080
-3.6874161 -2.1955256 0.98116899 4278190080
-3.7160318 -2.1950305 0.98678851 4278190080
-3.7446895 -2.194361 0.99240804 4278190080
-3.7733865 -2.1935191 0.99802762 4278190080
-3.8017404 -2.1931665 1.0036471 4278190080
-3.8305161 -2.1919818 1.0092666 4278190080
-3.8593295 -2.1906228 1.0148861 4278190080
-3.8924253 -2.1914794 1.0216296 4278190080
-3.92132 -2.189755 1.0272491 4278190080
-3.9545119 -2.1902173 1.0339925 4278190080
-3.9834843 -2.1881285 1.0396121 4278190080
-4.0124898 -2.185864 1.0452316 4278190080
-4.045814 -2.1857393 1.051975 4278190080
-4.0748925 -2.1831064 1.0575945 4278190080
-4.1083031 -2.182584 1.0643378 4278190080
-4.1417599 -2.181855 1.0710814 4278190080
-4.1752615 -2.1809187 1.0778248 4278190080
-4.2084255 -2.1805089 1.0845683 4278190080
-4.2420135 -2.1791632 1.0913117 4278190080
-4.279984 -2.1798203 1.099179 4278190080
-4.3136621 -2.1780419 1.1059225 4278190080
-4.3517356 -2.1782365 1.1137898 4278190080
-4.3898625 -2.1781917 1.1216571 4278190080
-4.4280424 -2.1779072 1.1295245 4278190080
-4.4662728 -2.1773825 1.1373918 4278190080
-4.5045538 -2.176616 1.1452591 4278190080
-4.5428834 -2.1756098 1.1531265 4278190080
-4.5812597 -2.1743622 1.1609938 4278190080
-4.6196828 -2.172873 1.1688612 4278190080
-4.6581507 -2.1711421 1.1767284 4278190080
-4.700707 -2.1720319 1.1857197 4278190080
-4.7392688 -2.1698072 1.1935871 4278190080
-4.7823095 -2.1693511 1.2025783 4278190080
-4.8254037 -2.1686223 1.2115695 4278190080
-4.8685508 -2.1676185 1.2205607 4278190080
-4.9117494 -2.1663399 1.2295519 4278190080
-4.9549975 -2.1647859 1.2385432 4278190080
-4.9982953 -2.1629548 1.2475344 4278190080
-5.0412617 -2.1617298 1.2565256 4278190080
-5.0891371 -2.1612582 1.2666408 4278190080
-5.1322012 -2.1594877 1.275632 4278190080
-5.1809363 -2.1566164 1.2857472 4278190080
-5.2289734 -2.1552267 1.2958623 4278190080
-5.2770624 -2.1535289 1.3059776 4278190080
-5.3248277 -2.1524506 1.3160927 4278190080
-5.3730183 -2.1501417 1.3262079 4278190080
-5.425787 -2.1493165 1.3374468 4278190080
-5.4740787 -2.1463706 1.347562 4278190080
-5.526958 -2.1448762 1.3588011 4278190080
-5.5798926 -2.1430371 1.3700401 4278190080
-5.6374359 -2.1425867 1.3824031 4278190080
-5.6904826 -2.1400454 1.3936421 4278190080
-5.7481456 -2.1388588 1.406005 4278190080
-5.8058701 -2.1372955 1.418368 4278190080
-5.8590746 -2.1336863 1.429607 4278190080
-5.9214916 -2.1330354 1.443094 4278190080
-5.919354 -2.1101151 1.4408461 4278190080
-5.9220886 -2.0878203 1.4397222 4278190080
-5.9247398 -2.065532 1.4385983 4278190080
-5.9273081 -2.0432508 1.4374744 4278190080
-5.9297924 -2.0209768 1.4363505 4278190080
-5.9321938 -1.9987088 1.4352266 4278190080
-5.9345121 -1.9764502 1.4341027 4278190080
-5.9321194 -1.9526767 1.4318548 4278190080
-5.9481654 -1.9349723 1.4341027 4278190080
-6.0337343 -1.9395446 1.453209 4278190080
-6.1101208 -1.9405916 1.4700676 4278190080
-6.1493974 -1.9294617 1.477935 4278190080
-6.156095 -1.9079849 1.477935 4278190080
-6.1580586 -1.8850586 1.4768111 4278190080
-6.1552739 -1.8607323 1.4745632 4278190080
-6.1570635 -1.8378402 1.4734393 4278190080
-6.1540947 -1.8135829 1.4711915 4278190080
-6.151031 -1.7893685 1.4689437 4278190080
-6.1478739 -1.7651976 1.4666959 4278190080
-6.1493106 -1.742399 1.465572 4278190080
-6.1459713 -1.7182983 1.4633242 4278190080
-6.1472349 -1.6955392 1.4622003 4278190080
-6.143714 -1.6715133 1.4599525 4278190080
-6.1400995 -1.6475326 1.4577047 4278190080
-6.1361103 -1.624668 1.4554569 4278190080
-6.1323156 -1.6007782 1.453209 4278190080
-6.1237111 -1.5757191 1.4498373 4278190080
-6.119729 -1.551939 1.4475895 4278190080
-6.1201153 -1.5304544 1.4464656 4278190080
-6.1159592 -1.5067513 1.4442178 4278190080
-6.116447 -1.4842449 1.443094 4278190080
-6.1168518 -1.4617534 1.44197 4278190080
-6.1219168 -1.4403931 1.44197 4278190080
-6.1221614 -1.4179142 1.4408461 4278190080
-6.122323 -1.3954527 1.4397222 4278190080
-6.1176491 -1.3719416 1.4374744 4278190080
-6.1176429 -1.3495294 1.4363505 4278190080
-6.1175547 -1.327134 1.4352266 4278190080
-6.1126208 -1.3037379 1.4329787 4278190080
-6.1171346 -1.2823932 1.4329787 4278190080
-5.968874 -1.2295771 1.3970138 4278190080
-5.9492536 -1.2039031 1.3913944 4278190080
-5.982091 -1.1888272 1.3981377 4278190080
-5.9957685 -1.1698033 1.4003855 4278190080
-5.9950304 -1.147951 1.3992616 4278190080
-5.999001 -1.1270177 1.3992616 4278190080
-5.998107 -1.1051879 1.3981377 4278190080
-6.0019279 -1.0842443 1.3981377 4278190080
-6.0006928 -1.0634847 1.3970138 4278190080
-5.9995689 -1.0416988 1.39589 4278190080
-5.9983654 -1.019932 1.394766 4278190080
-6.0018892 -0.99898791 1.394766 4278190080
-6.0005307 -0.97724849 1.3936421 4278190080
-5.999094 -0.9555307 1.3925182 4278190080
-5.9975791 -0.93383497 1.3913944 4278190080
-6.0008025 -0.91289258 1.3913944 4278190080
-5.9991331 -0.89122468 1.3902704 4278190080
-5.997386 -0.86957955 1.3891464 4278190080
-5.9955606 -0.84795749 1.3880225 4278190080
-5.9936576 -0.82635885 1.3868988 4278190080
-5.9916773 -0.80478221 1.3857747 4278190080
-5.9944496 -0.78386277 1.3857747 4278190080
-5.9923162 -0.76231891 1.3846508 4278190080
-5.9901052 -0.74079949 1.3835269 4278190080
-5.9926548 -0.71988595 1.3835269 4278190080
-5.9902921 -0.69839787 1.3824031 4278190080
-5.9926934 -0.67748392 1.3824031 4278190080
-5.9901786 -0.65603125 1.3812791 4278190080
-5.9924321 -0.63511795 1.3812791 4278190080
-5.9946127 -0.6141969 1.3812791 4278190080
-5.9917679 -0.59383392 1.3801552 4278190080
-5.9938045 -0.57291543 1.3801552 4278190080
-5.9909163 -0.55154175 1.3790313 4278190080
-5.9879518 -0.53019679 1.3779074 4278190080
-5.9898548 -0.5082472 1.3779074 4278190080
-5.9867368 -0.48693937 1.3767835 4278190080
-5.9884 -0.46603909 1.3767835 4278190080
-5.9899902 -0.44513318 1.3767835 4278190080
-5.9865737 -0.42492199 1.3756596 4278190080
-5.9880204 -0.40402266 1.3756596 4278190080
-5.989327 -0.3841632 1.3756596 4278190080
-5.9858317 -0.3619155 1.3745357 4278190080
-5.9871178 -0.33997318 1.3745357 4278190080
-5.9882684 -0.31907251 1.3745357 4278190080
-5.9892936 -0.29921266 1.3745357 4278190080
-5.9854345 -0.27807853 1.3734118 4278190080
-5.9863687 -0.25718409 1.3734118 4278190080
-5.9872298 -0.23628491 1.3734118 4278190080
-5.9831495 -0.21520935 1.372288 4278190080
-5.9838643 -0.19432327 1.372288 4278190080
-5.9845061 -0.17343481 1.372288 4278190080
-5.9802046 -0.15242012 1.371164 4278190080
-5.9807005 -0.1315431 1.371164 4278190080
-5.981123 -0.11066608 1.371164 4278190080
-5.981473 -0.089787707 1.371164 4278190080
-5.98175 -0.068908244 1.371164 4278190080
-5.9819541 -0.048027936 1.371164 4278190080
-5.9772129 -0.027123345 1.3700401 4278190080
-5.9772711 -0.0062591312 1.3700401 4278190080
-5.9772568 0.014605159 1.3700401 4278190080
-5.9771695 0.035469271 1.3700401 4278190080
-5.9770093 0.05633295 1.3700401 4278190080
-5.9767761 0.077197537 1.3700401 4278190080
-5.97647 0.098059587 1.3700401 4278190080
-5.9760914 0.11892045 1.3700401 4278190080
-5.9756398 0.13977985 1.3700401 4278190080
-5.9751158 0.16063756 1.3700401 4278190080
-5.9745183 0.18149491 1.3700401 4278190080
-5.9738483 0.20234844 1.3700401 4278190080
-5.9731059 0.22319952 1.3700401 4278190080
-5.9771585 0.2442468 1.371164 4278190080
-5.9762692 0.26510915 1.371164 4278190080
-5.9899068 0.2866686 1.3745357 4278190080
-5.9742727 0.30682555 1.371164 4278190080
-5.9683576 0.32636949 1.3700401 4278190080
-5.9671822 0.34720063 1.3700401 4278190080
-6.1318316 0.44276294 1.4093767 4278190080
-6.1253905 0.46379614 1.4082528 4278190080
-6.0994501 0.48325059 1.4026333 4278190080
-6.0831599 0.50333315 1.3992616 4278190080
-6.0862203 0.52498263 1.4003855 4278190080
-6.0892024 0.5466612 1.4015094 4278190080
-6.1260657 0.5715335 1.4105008 4278190080
-6.1240335 0.59291363 1.4105008 4278190080
-6.0734491 0.60942227 1.3992616 4278190080
-5.9355979 0.61652482 1.3677924 4278190080
-5.8898115 0.63255906 1.3576771 4278190080
-5.8924103 0.65365136 1.3588011 4278190080
-5.904614 0.67587763 1.3621727 4278190080
-5.8973799 0.69591314 1.3610488 4278190080
-5.8949151 0.71649426 1.3610488 4278190080
-5.8923779 0.7370683 1.3610488 4278190080
-5.8946013 0.75825334 1.3621727 4278190080
-5.896749 0.77946287 1.3632967 4278190080
-5.8939924 0.80004126 1.3632967 4278190080
-5.8959889 0.82128209 1.3644205 4278190080
-5.88344 0.84048122 1.3621727 4278190080
-5.8997531 0.86383617 1.3666683 4278190080
-5.9063377 0.8858698 1.3689162 4278190080
-5.8600264 0.89880371 1.3588011 4278190080
-5.7557778 0.9033891 1.3351991 4278190080
-5.7141056 0.91729683 1.3262079 4278190080
-5.7060609 0.93644935 1.325084 4278190080
-5.7075624 0.95716703 1.3262079 4278190080
-5.7089882 0.97790653 1.3273317 4278190080
-5.7007413 0.99698907 1.3262079 4278190080
-5.6588559 1.0100334 1.3172165 4278190080
-5.5928063 1.0194107 1.3026059 4278190080
-4.9343762 0.93592888 1.1497546 4278190080
-4.9503803 0.95598078 1.1542503 4278190080
-4.971086 0.97709 1.1598699 4278190080
-4.9628677 0.9934811 1.1587459 4278190080
-4.8686657 0.99231154 1.1373918 4278190080
-4.1465707 0.87533122 0.96880603 4278190080
-4.0815654 0.87650174 0.95419526 4278190080
-4.0023232 0.87411171 0.93621278 4278190080
-3.9326608 0.87329054 0.92047811 4278190080
-3.8583016 0.87092119 0.90361959 4278190080
-3.793505 0.87022221 0.88900876 4278190080
-3.7287607 0.86908168 0.87439799 4278190080
-3.6640713 0.86750084 0.85978723 4278190080
-3.6040254 0.86724591 0.84630036 4278190080
-3.5394495 0.86478812 0.8316896 4278190080
-3.4796641 0.8630631 0.81820279 4278190080
-3.4199345 0.86093235 0.80471593 4278190080
-3.3649833 0.85960025 0.79235297 4278190080
-3.3148003 0.85911751 0.78111392 4278190080
-3.2599499 0.8570562 0.76875097 4278190080
-3.2098627 0.85587794 0.75751191 4278190080
-3.1598239 0.85436136 0.74627286 4278190080
-3.1098354 0.85250521 0.73503381 4278190080
-3.0645931 0.85161507 0.72491866 4278190080
-3.0193954 0.85041964 0.71480352 4278190080
-2.9743922 0.84840041 0.70468837 4278190080
-2.9339688 0.84795588 0.69569719 4278190080
-2.8889091 0.84587133 0.68558198 4278190080
-2.8485715 0.84486723 0.67659074 4278190080
-2.8082767 0.84359205 0.66759956 4278190080
-2.7726867 0.84346384 0.65973216 4278190080
-2.7324762 0.84166342 0.65074098 4278190080
-2.6969635 0.84104383 0.64287359 4278190080
-2.6614892 0.84018606 0.63500631 4278190080
-2.6260538 0.83909088 0.62713897 4278190080
-2.5906591 0.83775878 0.61927158 4278190080
-2.5599365 0.83770514 0.61252815 4278190080
-2.524621 0.83591664 0.60466087 4278190080
-2.493969 0.83543873 0.59791738 4278190080
-2.463352 0.83475715 0.59117395 4278190080
-2.4327703 0.83387214 0.58443058 4278190080
-2.402225 0.83278394 0.57768714 4278190080
-2.3717172 0.83149344 0.57094371 4278190080
-2.3412483 0.82999951 0.56420028 4278190080
-2.3108189 0.82830316 0.55745685 4278190080
-2.2804303 0.82640457 0.55071342 4278190080
-2.254658 0.82597995 0.54509389 4278190080
-2.2289166 0.82538623 0.53947431 4278190080
-2.2032075 0.82462239 0.53385484 4278190080
-2.1775308 0.82368916 0.52823532 4278190080
-2.1564388 0.82432652 0.5237397 4278190080
-2.1353693 0.82482672 0.51924407 4278190080
-2.1143224 0.82519054 0.51474845 4278190080
-2.0932996 0.82541698 0.51025283 4278190080
-2.0677748 0.82370377 0.50463331 4278190080
-2.0468075 0.82364136 0.50013769 4278190080
-2.0258663 0.8234427 0.49564207 4278190080
-2.0049515 0.82310849 0.49114645 4278190080
-1.984064 0.82263792 0.48665082 4278190080
-1.9632044 0.82203156 0.4821552 4278190080
-1.9423735 0.82128972 0.47765961 4278190080
-1.921572 0.82041258 0.47316399 4278190080
-1.9008001 0.81940085 0.46866837 4278190080
-1.8845264 0.82019788 0.46529663 4278190080
-1.8638101 0.81893158 0.46080101 4278190080
-1.8431258 0.81753069 0.45630538 4278190080
-1.8269207 0.81798643 0.45293367 4278190080
-1.8062955 0.81633317 0.44843808 4278190080
-1.7901369 0.8165673 0.44506633 4278190080
-1.7738565 0.8170082 0.44169462 4278190080
-1.7533215 0.81498057 0.437199 4278190080
-1.7370909 0.81519216 0.43382728 4278190080
-1.7211672 0.81469494 0.4304556 4278190080
-1.7051239 0.81439853 0.42708388 4278190080
-1.6891038 0.81400019 0.42371216 4278190080
-1.6731075 0.81349999 0.42034045 4278190080
-1.6571351 0.81289846 0.4169687 4278190080
-1.6411878 0.81219506 0.41359699 4278190080
-1.6252657 0.81139034 0.41022527 4278190080
-1.6093693 0.81048441 0.40685359 4278190080
-1.5934993 0.80947745 0.40348187 4278190080
-1.5819918 0.81059182 0.40123406 4278190080
-1.5661681 0.80939847 0.39786234 4278190080
-1.5546925 0.81035656 0.39561453 4278190080
-1.5389169 0.80897748 0.39224282 4278190080
-1.5274746 0.80978024 0.38999501 4278190080
-1.5117488 0.80821633 0.38662326 4278190080
-1.5003414 0.8088643 0.38437548 4278190080
-1.4846675 0.8071155 0.38100377 4278190080
-1.4732966 0.80760914 0.37875596 4278190080
-1.4576764 0.80567652 0.37538424 4278190080
-1.4463434 0.8060168 0.37313643 4278190080
-1.4350262 0.80628747 0.37088862 4278190080
-1.4194854 0.80408764 0.36751691 4278190080
-1.4082086 0.80420542 0.36526909 4278190080
-1.3969483 0.80425423 0.36302128 4278190080
-1.3857048 0.80423474 0.3607735 4278190080
-1.3744785 0.80414617 0.35852566 4278190080
-1.3632699 0.80398911 0.35627785 4278190080
-1.3520794 0.80376369 0.35403004 4278190080
-1.3409071 0.80346996 0.35178223 4278190080
-1.3297532 0.80310851 0.34953442 4278190080
-1.3227801 0.80521196 0.34841052 4278190080
-1.3116559 0.80472869 0.34616271 4278190080
-1.3005512 0.8041777 0.3439149 4278190080
-1.2894665 0.80355901 0.34166709 4278190080
-1.2784019 0.80287313 0.33941928 4278190080
-1.2673579 0.80211955 0.33717149 4278190080
-1.256335 0.80129874 0.33492368 4278190080
-1.2453333 0.80041075 0.33267587 4278190080
-1.2343532 0.79945576 0.33042803 4278190080
-1.2233949 0.79843432 0.32818022 4278190080
-1.2165297 0.80002284 0.32705632 4278190080
-1.2056071 0.79888201 0.32480851 4278190080
-1.1987593 0.80038011 0.3236846 4278190080
-1.1919158 0.80184013 0.3225607 4278190080
-1.1810435 0.80052894 0.32031289 4278190080
-1.1742187 0.80189896 0.31918898 4278190080
-1.1633849 0.80046946 0.31694117 4278190080
-1.1525756 0.79897422 0.31469339 4278190080
-1.1457853 0.80020291 0.31356949 4278190080
-1.1350157 0.79859072 0.31132168 4278190080
-1.1242718 0.79691291 0.30907387 4278190080
-1.1175183 0.79800117 0.30794996 4278190080
-1.1068159 0.79620689 0.30570215 4278190080
-1.0999455 0.79739875 0.30457824 4278190080
-1.0932209 0.79836005 0.30345434 4278190080
-1.0866424 0.79909456 0.30233043 4278190080
-1.0799315 0.79998261 0.3012065 4278190080
-1.0730878 0.80102116 0.30008259 4278190080
-1.0663911 0.80183399 0.29895869 4278190080
-1.0558182 0.79966831 0.29671088 4278190080
-1.0452734 0.79743868 0.29446307 4278190080
-1.0386202 0.79811382 0.29333916 4278190080
-1.0281223 0.79577047 0.29109138 4278190080
-1.0214959 0.79635888 0.28996748 4278190080
-1.014878 0.79691076 0.28884357 4278190080
-1.0044475 0.79440391 0.28659576 4278190080
-0.99785763 0.79486966 0.28547186 4278190080
-0.99127662 0.79529929 0.28434795 4278190080
-0.98470497 0.7956925 0.28322405 4278190080
-0.97436398 0.79297423 0.28097624 4278190080
-0.96782207 0.79328203 0.27985233 4278190080
-0.96128988 0.79355383 0.27872843 4278190080
-0.95476747 0.79379004 0.27760452 4278190080
-0.94825542 0.79399014 0.27648062 4278190080
-0.94175357 0.79415447 0.27535671 4278190080
-0.9352622 0.79428315 0.2742328 4278190080
-0.93248397 0.79754293 0.2742328 4278190080
-0.91861981 0.79125428 0.27086106 4278190080
-0.9121719 0.79126352 0.26973715 4278190080
-0.90206605 0.78803205 0.26748937 4278190080
-0.87101591 0.7716943 0.25962204 4278190080
-0.79456949 0.85685641 0.26074594 4278190080
-0.7915737 0.85962474 0.26074594 4278190080
-0.78199279 0.85519159 0.25849813 4278190080
-0.77245259 0.85070211 0.25625032 4278190080
-0.75039148 0.83779448 0.2506308 4278190080
-0.74422443 0.83676839 0.24950691 4278190080
-0.68647182 0.77728111 0.2304005 4278190080
-0.68361849 0.77979183 0.2304005 4278190080
-0.67769325 0.77849877 0.2292766 4278190080
-0.67483544 0.78097731 0.2292766 4278190080
-0.67224193 0.78321087 0.2292766 4278190080
-0.66634369 0.78184456 0.22815269 4278190080
-0.66361052 0.78416574 0.22815269 4278190080
-0.65773475 0.78274751 0.2270288 4278190080
-0.65499848 0.78503865 0.2270288 4278190080
-0.65225428 0.7873202 0.2270288 4278190080
-0.64640701 0.78582954 0.2259049 4278190080
-0.64057815 0.78430766 0.22478099 4278190080
-0.63783634 0.78653908 0.22478099 4278190080
-0.63508695 0.78876072 0.22478099 4278190080
-0.6292876 0.78716725 0.22365709 4278190080
-0.62653607 0.78935903 0.22365709 4278190080
-0.62076133 0.78771454 0.22253317 4278190080
-0.61786991 0.78998452 0.22253317 4278190080
-0.61510867 0.79213649 0.22253317 4278190080
-0.60936522 0.79042023 0.22140926 4278190080
-0.60660225 0.79254264 0.22140926 4278190080
-0.60088444 0.79077601 0.22028536 4278190080
-0.59812051 0.79286861 0.22028536 4278190080
-0.59242874 0.79105192 0.21916145 4278190080
-0.586757 0.78920519 0.21803755 4278190080
-0.58399844 0.79124868 0.21803755 4278190080
-0.5783534 0.78935236 0.21691364 4278190080
-0.57272881 0.78742629 0.21578975 4278190080
-0.56997675 0.78942066 0.21578975 4278190080
-0.56437951 0.78744543 0.21466585 4278190080
-0.55880284 0.78544092 0.21354194 4278190080
-0.55324727 0.78340703 0.21241803 4278190080
-0.55050939 0.7853334 0.21241803 4278190080
-0.54498208 0.78325099 0.21129413 4278190080
-0.54224479 0.78514856 0.21129413 4278190080
-0.53660935 0.78311175 0.21017022 4278190080
-0.53387254 0.78498006 0.21017022 4278190080
-0.52840346 0.78280067 0.20904632 4278190080
-0.52566779 0.78464031 0.20904632 4278190080
-0.52306288 0.78637922 0.20904632 4278190080
-0.51763046 0.78413433 0.2079224 4278190080
-0.5147531 0.78602618 0.2079224 4278190080
-0.51200628 0.78781819 0.2079224 4278190080
-0.5092532 0.78960061 0.2079224 4278190080
-0.50386733 0.78726995 0.20679849 4278190080
-0.50111622 0.78902394 0.20679849 4278190080
-0.49576136 0.78664654 0.20567459 4278190080
-0.49042925 0.78424144 0.2045507 4278190080
-0.48512 0.78180873 0.20342679 4278190080
-0.48238787 0.78349745 0.20342679 4278190080
-0.47711021 0.78101885 0.20230289 4278190080
-0.47438109 0.7826795 0.20230289 4278190080
-0.46913543 0.78015536 0.20117898 4278190080
-0.4639132 0.77760416 0.20005508 4278190080
-0.46119586 0.77921885 0.20005508 4278190080
-0.45587075 0.77670217 0.19893117 4278190080
-0.45315683 0.77828866 0.19893117 4278190080
-0.45043716 0.77986586 0.19893117 4278190080
-0.44771221 0.7814334 0.19893117 4278190080
-0.44257456 0.77875561 0.19780727 4278190080
-0.43985355 0.78029573 0.19780727 4278190080
-0.43712717 0.78182632 0.19780727 4278190080
-0.4320325 0.77908677 0.19668336 4278190080
-0.42931041 0.78059006 0.19668336 4278190080
-0.4242501 0.7778067 0.19555946 4278190080
-0.42153251 0.77928281 0.19555946 4278190080
-0.41880977 0.7807495 0.19555946 4278190080
-0.41379371 0.77790534 0.19443555 4278190080
-0.41107583 0.77934504 0.19443555 4278190080
-0.40609497 0.77645791 0.19331163 4278190080
-0.40338218 0.77787066 0.19331163 4278190080
-0.40066448 0.77927399 0.19331163 4278190080
-0.39794171 0.7806679 0.19331163 4278190080
-0.39507785 0.78212112 0.19331163 4278190080
-0.3923454 0.78349543 0.19331163 4278190080
-0.3873055 0.78056389 0.19218774 4278190080
-0.38471487 0.78184396 0.19218774 4278190080
-0.38198343 0.78318208 0.19218774 4278190080
-0.37924734 0.78451067 0.19218774 4278190080
-0.3765066 0.78582972 0.19218774 4278190080
-0.37376109 0.78713924 0.19218774 4278190080
-0.37101123 0.7884391 0.19218774 4278190080
-0.36619782 0.78531379 0.19106384 4278190080
-0.36127415 0.78222764 0.18993993 4278190080
-0.35651413 0.77905375 0.18881603 4278190080
