# .PCD v0.7 - Point Cloud Data file format
VERSION 0.7
FIELDS x y z rgb
SIZE 4 4 4 4
TYPE F F F U
COUNT 1 1 1 1
WIDTH 1033
HEIGHT 1
VIEWPOINT 0 0 0 1 0 0 0
POINTS 1033
DATA ascii
2.6094115 -1.0231426 -0.048255902 4278190080
2.6104722 -1.0340861 -0.048343167 4278190080
2.6068466 -1.043192 -0.048343167 4278190080
2.6078241 -1.0541588 -0.048430424 4278190080
2.6087568 -1.0651451 -0.048517689 4278190080
2.6096444 -1.0761508 -0.04860495 4278190080
2.6104872 -1.0871756 -0.048692212 4278190080
2.6066763 -1.0962812 -0.048692212 4278190080
2.6074352 -1.1073277 -0.048779473 4278190080
2.6081488 -1.1183928 -0.048866738 4278190080
2.6088166 -1.1294763 -0.048953999 4278190080
2.6048579 -1.1385759 -0.048953999 4278190080
2.6054416 -1.1496799 -0.04904126 4278190080
2.6061816 -1.1603469 -0.049128521 4278190080
2.6066754 -1.1714865 -0.049215786 4278190080
2.6025703 -1.1805782 -0.049215786 4278190080
2.6029792 -1.1917369 -0.049303047 4278190080
2.6033413 -1.2029126 -0.049390309 4278190080
2.6036575 -1.2141055 -0.049477573 4278190080
2.5994036 -1.2231866 -0.049477573 4278190080
2.5996339 -1.2343969 -0.049564831 4278190080
2.599818 -1.2456241 -0.049652096 4278190080
2.5999548 -1.2568672 -0.049739357 4278190080
2.600045 -1.2681267 -0.049826622 4278190080
2.6000881 -1.279402 -0.049913879 4278190080
2.6000843 -1.290693 -0.050001144 4278190080
2.600033 -1.3019996 -0.050088406 4278190080
2.5999348 -1.3133216 -0.050175667 4278190080
2.5997889 -1.3246586 -0.050262928 4278190080
2.5995955 -1.3360107 -0.050350193 4278190080
2.5993545 -1.3473774 -0.050437454 4278190080
2.5990658 -1.3587588 -0.050524715 4278190080
2.5987291 -1.3701545 -0.050611977 4278190080
2.5983448 -1.3815645 -0.050699241 4278190080
2.5979121 -1.3929883 -0.050786499 4278190080
2.5974317 -1.404426 -0.050873764 4278190080
2.5969026 -1.4158772 -0.050961025 4278190080
2.5963254 -1.4273419 -0.051048286 4278190080
2.5956995 -1.4388198 -0.051135547 4278190080
2.5950253 -1.4503107 -0.051222812 4278190080
2.5986578 -1.4642683 -0.051397335 4278190080
2.5978775 -1.4757999 -0.0514846 4278190080
2.5970483 -1.4873435 -0.051571861 4278190080
2.5961702 -1.4988996 -0.051659122 4278190080
2.595243 -1.5104675 -0.051746383 4278190080
2.5942667 -1.5220472 -0.051833648 4278190080
2.5932407 -1.5336384 -0.051920906 4278190080
2.5921659 -1.545241 -0.052008171 4278190080
2.5910413 -1.5568546 -0.052095432 4278190080
2.5898674 -1.5684794 -0.052182697 4278190080
2.5886436 -1.5801147 -0.052269954 4278190080
2.5873702 -1.5917608 -0.052357219 4278190080
2.5860469 -1.6034169 -0.05244448 4278190080
2.5849557 -1.6146324 -0.052531742 4278190080
2.5835345 -1.6263088 -0.052619003 4278190080
1.0825781 -0.69794148 -0.021815509 4278190080
1.044456 -0.68321252 -0.02111741 4278190080
1.0629354 -0.70061058 -0.021553721 4278190080
1.0604832 -0.70431662 -0.021553721 4278190080
1.0413991 -0.69689274 -0.021204673 4278190080
1.0348151 -0.69772887 -0.02111741 4278190080
1.0406439 -0.70695531 -0.021291936 4278190080
1.0340443 -0.7077598 -0.021204673 4278190080
1.0274519 -0.70852697 -0.02111741 4278190080
0.96141642 -0.69799727 -0.020070268 4278190080
0.94686848 -0.69249552 -0.019808481 4278190080
0.13058716 -0.72650027 -0.012216684 4278190080
0.1323866 -0.75156885 -0.012652994 4278190080
0.11604391 -0.67322367 -0.011256802 4278190080
0.12118122 -0.71799034 -0.01204216 4278190080
0.21728979 -2.3830054 -0.041100416 4278190080
0.20940693 -2.3887293 -0.041187678 4278190080
0.20148644 -2.3944273 -0.041274942 4278190080
0.19153197 -2.3701673 -0.040838629 4278190080
0.18441303 -2.3857746 -0.041100416 4278190080
0.17681988 -2.3963752 -0.041274942 4278190080
0.16810322 -2.3919909 -0.041187678 4278190080
0.15975271 -2.3925631 -0.041187678 4278190080
0.031813845 -0.89755535 -0.015009069 4278190080
0.028680645 -0.89766091 -0.015009069 4278190080
0.025404774 -0.89275837 -0.014921807 4278190080
0.022413118 -0.89783925 -0.015009069 4278190080
0.019171672 -0.89291394 -0.014921807 4278190080
0.016210519 -0.89297259 -0.014921807 4278190080
0.013093293 -0.89302373 -0.014921807 4278190080
0.0099760266 -0.89306402 -0.014921807 4278190080
0.006897029 -0.89809251 -0.015009069 4278190080
0.0037619874 -0.8981111 -0.015009069 4278190080
0.00062701962 -0.89811873 -0.015009069 4278190080
-0.0025080754 -0.89811546 -0.015009069 4278190080
-0.0056430204 -0.89810127 -0.015009069 4278190080
-0.0087778969 -0.89807606 -0.015009069 4278190080
-0.011979097 -0.9030388 -0.015096332 4278190080
-0.01505642 -0.90799266 -0.015183594 4278190080
-0.017021872 -0.84795582 -0.014136449 4278190080
-0.019628298 -0.8328976 -0.013874662 4278190080
-0.025747858 -0.84273416 -0.014049187 4278190080
-0.033975612 -0.70733237 -0.011693112 4278190080
-0.036833879 -0.71720123 -0.011867637 4278190080
-0.040980142 -0.74701864 -0.012391208 4278190080
-0.040092312 -0.6869821 -0.011344064 4278190080
-0.042490136 -0.68683791 -0.011344064 4278190080
-0.044235162 -0.67670828 -0.01116954 4278190080
-0.044192553 -0.64163774 -0.010558705 4278190080
-0.044879824 -0.62154269 -0.010209657 4278190080
-0.050446212 -0.66624695 -0.010995016 4278190080
-0.059878718 -0.75577199 -0.012565732 4278190080
-0.07076133 -0.85520262 -0.014310973 4278190080
-0.074175701 -0.85993117 -0.014398235 4278190080
-0.078517951 -0.87460464 -0.014660021 4278190080
-0.081570484 -0.87432522 -0.014660021 4278190080
-0.085103668 -0.87901109 -0.014747282 4278190080
-0.088171534 -0.87870866 -0.014747282 4278190080
-0.091754705 -0.88336807 -0.014834545 4278190080
-0.094837628 -0.8830424 -0.014834545 4278190080
-0.097919516 -0.88270593 -0.014834545 4278190080
-0.10100009 -0.88235879 -0.014834545 4278190080
-0.10407955 -0.88200086 -0.014834545 4278190080
-0.10760605 -0.88661367 -0.014921807 4278190080
-0.11070032 -0.88623267 -0.014921807 4278190080
-0.11379313 -0.88584083 -0.014921807 4278190080
-0.11688455 -0.88543826 -0.014921807 4278190080
-0.11997467 -0.88502485 -0.014921807 4278190080
-0.1230632 -0.88460064 -0.014921807 4278190080
-0.12599601 -0.8841877 -0.014921807 4278190080
-0.12908158 -0.88374251 -0.014921807 4278190080
-0.1321657 -0.88328654 -0.014921807 4278190080
-0.13524809 -0.88281983 -0.014921807 4278190080
-0.13832895 -0.88234234 -0.014921807 4278190080
-0.14140801 -0.88185412 -0.014921807 4278190080
-0.14448535 -0.88135511 -0.014921807 4278190080
-0.14756104 -0.88084537 -0.014921807 4278190080
-0.15063483 -0.88032496 -0.014921807 4278190080
-0.15370688 -0.87979376 -0.014921807 4278190080
-0.15662347 -0.87927926 -0.014921807 4278190080
-0.15969184 -0.87872714 -0.014921807 4278190080
-0.16275814 -0.87816435 -0.014921807 4278190080
-0.16582248 -0.87759089 -0.014921807 4278190080
-0.16983023 -0.88191575 -0.015009069 4278190080
-0.17290761 -0.88131756 -0.015009069 4278190080
-0.175983 -0.88070863 -0.015009069 4278190080
-0.17805944 -0.87519008 -0.014921807 4278190080
-0.18096073 -0.87459481 -0.014921807 4278190080
-0.18401249 -0.87395781 -0.014921807 4278190080
-0.18721445 -0.87327749 -0.014921807 4278190080
-0.19026169 -0.87261868 -0.014921807 4278190080
-0.19330649 -0.87194926 -0.014921807 4278190080
-0.19634894 -0.87126917 -0.014921807 4278190080
-0.19923712 -0.87061328 -0.014921807 4278190080
-0.20227487 -0.86991251 -0.014921807 4278190080
-0.20515853 -0.86923695 -0.014921807 4278190080
-0.20819156 -0.86851549 -0.014921807 4278190080
-0.21122193 -0.86778349 -0.014921807 4278190080
-0.21544899 -0.87189418 -0.015009069 4278190080
-0.21849123 -0.87113678 -0.015009069 4278190080
-0.22276381 -0.87521362 -0.015096332 4278190080
-0.22316657 -0.86478871 -0.014921807 4278190080
-0.22871599 -0.87367707 -0.015096332 4278190080
-0.23176436 -0.87287337 -0.015096332 4278190080
-0.23785238 -0.87123412 -0.015096332 4278190080
-0.20647274 -0.65644556 -0.011344064 4278190080
-0.22392905 -0.70335722 -0.012216684 4278190080
-0.22944927 -0.71208793 -0.012391208 4278190080
-0.21786842 -0.66854423 -0.011605849 4278190080
-0.21863514 -0.66303194 -0.011518587 4278190080
-0.20987318 -0.62906879 -0.010907754 4278190080
-0.21686389 -0.64254254 -0.01116954 4278190080
-0.21253584 -0.62289429 -0.010820492 4278190080
-0.21307801 -0.61742282 -0.01073323 4278190080
-0.31888443 -0.85562545 -0.015270855 4278190080
-0.32186913 -0.85450715 -0.015270855 4278190080
-0.3248499 -0.85337842 -0.015270855 4278190080
-0.32603201 -0.84757328 -0.015183594 4278190080
-0.33261076 -0.85574937 -0.015358117 4278190080
-0.33742329 -0.85923642 -0.01544538 4278190080
-0.34211347 -0.86276001 -0.015532642 4278190080
-0.34698203 -0.86620122 -0.015619904 4278190080
-0.35187864 -0.86961901 -0.015707165 4278190080
-0.3549121 -0.86838543 -0.015707165 4278190080
-0.35794112 -0.86714125 -0.015707165 4278190080
-0.36096579 -0.86588657 -0.015707165 4278190080
-0.36383522 -0.86468476 -0.015707165 4278190080
-0.36685127 -0.86340952 -0.015707165 4278190080
-0.36986297 -0.86212367 -0.015707165 4278190080
-0.37485707 -0.86541474 -0.015794428 4278190080
-0.37787572 -0.86410093 -0.015794428 4278190080
-0.38694668 -0.87649685 -0.016056214 4278190080
-0.38796887 -0.87057453 -0.01596895 4278190080
-0.39510724 -0.87833327 -0.016143475 4278190080
-1.0569246 -2.2852991 -0.043281969 4278190080
-1.0522091 -2.254415 -0.042758398 4278190080
-1.0660673 -2.2644825 -0.043020181 4278190080
-1.0718205 -2.2562318 -0.04293292 4278190080
-1.0818504 -2.2569847 -0.043020181 4278190080
-1.089722 -2.2531948 -0.043020181 4278190080
-1.099773 -2.25387 -0.043107443 4278190080
-1.1076337 -2.2500174 -0.043107443 4278190080
-1.1173117 -2.2508099 -0.043194704 4278190080
-1.1274002 -2.2513661 -0.043281969 4278190080
-1.1352522 -2.247417 -0.043281969 4278190080
-1.1453596 -2.247895 -0.04336923 4278190080
-1.1554843 -2.2483296 -0.043456491 4278190080
-1.1656263 -2.2487209 -0.043543752 4278190080
-1.1757847 -2.2490687 -0.043631017 4278190080
-1.1859599 -2.249373 -0.043718275 4278190080
-1.1938044 -2.2452195 -0.043718275 4278190080
-1.2039967 -2.2454448 -0.04380554 4278190080
-1.2142053 -2.2456257 -0.043892801 4278190080
-1.2244296 -2.2457631 -0.043980066 4278190080
-1.2342778 -2.2460713 -0.044067323 4278190080
-1.2469562 -2.250495 -0.044241849 4278190080
-1.2523664 -2.2417643 -0.044154588 4278190080
-1.2626373 -2.2417347 -0.044241849 4278190080
-1.2729231 -2.2416611 -0.044329111 4278190080
-1.2960384 -2.2457094 -0.044590894 4278190080
-0.42369723 -0.70570838 -0.013700139 4278190080
-0.4313345 -0.71277928 -0.013874662 4278190080
-1.4419587 -2.2564628 -0.046074349 4278190080
-1.4471197 -2.2472126 -0.045987092 4278190080
-1.4576765 -2.246341 -0.046074349 4278190080
-1.4651175 -2.2414949 -0.046074349 4278190080
-1.4784325 -2.2447171 -0.046248876 4278190080
-1.4890234 -2.2437084 -0.046336137 4278190080
-1.499625 -2.2426527 -0.046423398 4278190080
-1.5102378 -2.2415502 -0.046510663 4278190080
-1.5236686 -2.2445376 -0.046685185 4278190080
-1.5343165 -2.2433314 -0.046772446 4278190080
-1.5449744 -2.2420788 -0.046859711 4278190080
-1.5556424 -2.2407789 -0.046946973 4278190080
-1.5663201 -2.2394314 -0.047034234 4278190080
-1.5766166 -2.2383122 -0.047121499 4278190080
-1.5873132 -2.2368722 -0.04720876 4278190080
-1.6009262 -2.2394516 -0.047383282 4278190080
-1.6116554 -2.2379065 -0.047470547 4278190080
-1.6253284 -2.2403603 -0.04764507 4278190080
-1.6360887 -2.2387092 -0.047732331 4278190080
-1.6498208 -2.2410364 -0.047906853 4278190080
-1.6606113 -2.2392795 -0.047994118 4278190080
-1.6744016 -2.2414794 -0.048168641 4278190080
-1.6852213 -2.2396157 -0.048255902 4278190080
-1.6956581 -2.2379997 -0.048343167 4278190080
-1.7095256 -2.2400153 -0.048517689 4278190080
-1.7203811 -2.2379975 -0.04860495 4278190080
-1.7312434 -2.2359319 -0.048692212 4278190080
-1.7451863 -2.2377594 -0.048866738 4278190080
-1.7560749 -2.2355852 -0.048953999 4278190080
-1.7669703 -2.233362 -0.04904126 4278190080
-1.7747552 -2.2271807 -0.04904126 4278190080
-0.57109559 -0.6866678 -0.014921807 4278190080
-0.57336956 -0.68477017 -0.014921807 4278190080
-1.9610871 -2.2607496 -0.051571861 4278190080
-1.9558105 -2.2388306 -0.051222812 4278190080
-1.9735199 -2.2432504 -0.0514846 4278190080
-1.9743187 -2.2292085 -0.051310074 4278190080
-1.9920709 -2.233496 -0.051571861 4278190080
-2.0031958 -2.2302482 -0.051659122 4278190080
-2.0176761 -2.2306569 -0.051833648 4278190080
-2.0288165 -2.2272961 -0.051920906 4278190080
-2.0433376 -2.2275689 -0.052095432 4278190080
-2.0578849 -2.2277672 -0.052269954 4278190080
-2.0724587 -2.2278912 -0.05244448 4278190080
-2.0870588 -2.2279398 -0.052619003 4278190080
-2.1016839 -2.2279143 -0.052793525 4278190080
-2.1159456 -2.2281828 -0.052968051 4278190080
-2.1306205 -2.2280095 -0.053142574 4278190080
-2.1453202 -2.2277608 -0.0533171 4278190080
-2.1565638 -2.2238476 -0.053404361 4278190080
-2.1709108 -2.2238386 -0.053578887 4278190080
-2.1856694 -2.2233772 -0.05375341 4278190080
-2.2004516 -2.2228396 -0.053927936 4278190080
-2.2152562 -2.2222261 -0.054102458 4278190080
-2.230083 -2.2215366 -0.05427698 4278190080
-2.2449322 -2.2207704 -0.054451507 4278190080
-2.2598028 -2.2199273 -0.054626029 4278190080
-2.2675385 -2.2120252 -0.054626029 4278190080
-0.702241 -0.6664018 -0.016230738 4278190080
-0.72639269 -0.68451792 -0.016754311 4278190080
-2.4757037 -2.2535069 -0.057767466 4278190080
-2.4613023 -2.2247379 -0.057243891 4278190080
-2.4653325 -2.2127936 -0.05715663 4278190080
-2.4730415 -2.2041745 -0.05715663 4278190080
-2.6098816 -2.2298369 -0.059250921 4278190080
-2.6176493 -2.2207134 -0.059250921 4278190080
-2.6330318 -2.2180042 -0.059425443 4278190080
-2.6637659 -2.2280445 -0.059949014 4278190080
-2.6634493 -2.2128093 -0.059774492 4278190080
-2.7020085 -2.2289488 -0.060472585 4278190080
-2.6904347 -2.2036648 -0.060036276 4278190080
-2.7368968 -2.2258019 -0.060908899 4278190080
-3.0517352 -2.2938066 -0.065970093 4278190080
-3.0677369 -2.2891197 -0.066144623 4278190080
-3.0797255 -2.2813733 -0.066231877 4278190080
-3.0635052 -2.2528391 -0.065708309 4278190080
-3.0790339 -2.2485642 -0.065882832 4278190080
-3.0787687 -2.2319343 -0.065708309 4278190080
-3.0824831 -2.2182541 -0.065621048 4278190080
-3.0739362 -2.1958563 -0.065272003 4278190080
-3.1019726 -2.1995716 -0.065708309 4278190080
-3.125984 -2.2002401 -0.066057354 4278190080
-3.1500375 -2.2007678 -0.066406406 4278190080
-3.178241 -2.2040031 -0.066842712 4278190080
-3.1982696 -2.2013984 -0.067104504 4278190080
-3.218318 -2.1986811 -0.067366287 4278190080
-3.2584736 -2.1929073 -0.067889862 4278190080
-3.4912224 -2.2113264 -0.071467601 4278190080
-3.5023336 -2.1842532 -0.07138034 4278190080
-3.5311923 -2.185168 -0.071816646 4278190080
-3.5515795 -2.1806765 -0.072078444 4278190080
-3.5805161 -2.1812704 -0.072514743 4278190080
-3.6180582 -2.1868603 -0.073125586 4278190080
-3.6342442 -2.1793597 -0.073300101 4278190080
-3.6676078 -2.1819973 -0.073823683 4278190080
-3.6838121 -2.174264 -0.073998198 4278190080
-2.9435425 -1.6155508 -0.057941988 4278190080
-2.9184272 -1.5885359 -0.057331152 4278190080
-2.9107568 -1.5712153 -0.057069369 4278190080
-2.7839987 -1.4902658 -0.054451507 4278190080
-2.7450266 -1.4570997 -0.053578887 4278190080
-2.7191293 -1.4312088 -0.052968051 4278190080
-2.7285407 -1.4240218 -0.053055316 4278190080
-2.7246149 -1.4098939 -0.05288079 4278190080
-1.2928802 -0.64094758 -0.02452063 4278190080
-1.250242 -0.61438233 -0.023648011 4278190080
-2.808239 -1.2958049 -0.0533171 4278190080
-2.8079746 -1.2844057 -0.053229839 4278190080
-2.816994 -1.27666 -0.0533171 4278190080
-2.8259943 -1.2688662 -0.053404361 4278190080
-3.0497992 -1.3438503 -0.057505675 4278190080
-1.4713933 -0.63611925 -0.027313014 4278190080
-1.4322441 -0.61326867 -0.026527658 4278190080
-3.1178358 -1.2464137 -0.057941988 4278190080
-3.1035736 -1.2281649 -0.05759294 4278190080
-1.6111575 -0.62460345 -0.029494565 4278190080
-1.585323 -0.60823125 -0.028970994 4278190080
-2.1089985 -0.79230028 -0.03865708 4278190080
-2.1117513 -0.78493375 -0.03865708 4278190080
-3.1883342 -1.1598289 -0.058552824 4278190080
-3.1829557 -1.1453066 -0.058378302 4278190080
-1.7666283 -0.62212777 -0.032025166 4278190080
-1.7404621 -0.60609293 -0.031501591 4278190080
-3.6936545 -1.2287149 -0.067279026 4278190080
-3.6838846 -1.2104874 -0.067017242 4278190080
-1.9023082 -0.61076444 -0.034206714 4278190080
-1.8853676 -0.59807408 -0.033857666 4278190080
-3.7479291 -1.1745294 -0.067889862 4278190080
-3.7185767 -1.1510916 -0.067279026 4278190080
-3.693887 -1.1293346 -0.066755451 4278190080
-3.6738775 -1.1092092 -0.066319145 4278190080
-2.0509462 -0.60362607 -0.03665005 4278190080
-2.0290372 -0.5894897 -0.036213744 4278190080
-3.7466731 -1.0743413 -0.067366287 4278190080
-3.6974864 -1.0462834 -0.066406406 4278190080
-3.6674106 -1.0239599 -0.065795571 4278190080
-2.1354017 -0.5805763 -0.037958983 4278190080
-3.7646763 -1.0094459 -0.067366287 4278190080
-3.7101791 -0.98096424 -0.066319145 4278190080
-2.2925081 -0.57243669 -0.040576845 4278190080
-3.6610789 -0.84657311 -0.064922951 4278190080
-3.6640117 -0.83378863 -0.064922951 4278190080
-3.6815352 -0.82426971 -0.065184735 4278190080
-3.6697433 -0.80818832 -0.064922951 4278190080
-3.6725421 -0.7953738 -0.064922951 4278190080
-3.6655166 -0.78046727 -0.064748421 4278190080
-3.6633255 -0.7666437 -0.064661168 4278190080
-3.6610825 -0.75284386 -0.064573899 4278190080
-3.6538875 -0.73808026 -0.064399377 4278190080
-3.6515381 -0.72434878 -0.064312115 4278190080
-3.649137 -0.7106427 -0.064224854 4278190080
-3.6515954 -0.69790065 -0.064224854 4278190080
-3.649096 -0.68422788 -0.064137593 4278190080
-3.6514621 -0.6714862 -0.064137593 4278190080
-3.6537838 -0.65873629 -0.064137593 4278190080
-3.6511378 -0.64510858 -0.064050332 4278190080
-3.6532569 -0.63299727 -0.064050332 4278190080
-3.6505156 -0.61940509 -0.063963071 4278190080
-3.6477237 -0.60583872 -0.063875802 4278190080
-3.6498163 -0.59310228 -0.063875802 4278190080
-3.6469271 -0.57957405 -0.063788548 4278190080
-3.6489279 -0.56684053 -0.063788548 4278190080
-3.6508844 -0.55410016 -0.063788548 4278190080
-3.6527965 -0.54135203 -0.063788548 4278190080
-3.6546638 -0.52859831 -0.063788548 4278190080
-3.6515362 -0.51513976 -0.063701279 4278190080
-3.6533122 -0.50239056 -0.063701279 4278190080
-3.6500888 -0.48897147 -0.063614018 4278190080
-3.6517735 -0.47622654 -0.063614018 4278190080
-3.648454 -0.46284759 -0.063526757 4278190080
-3.6450858 -0.44949764 -0.063439496 4278190080
-3.6416688 -0.43617684 -0.063352235 4278190080
-3.6382034 -0.42288539 -0.063264973 4278190080
-3.6396575 -0.41018233 -0.063264973 4278190080
-3.6360972 -0.39693272 -0.063177712 4278190080
-3.6374607 -0.38423815 -0.063177712 4278190080
-3.6337416 -0.37166497 -0.063090451 4278190080
-3.6350169 -0.35897878 -0.063090451 4278190080
-3.6362476 -0.3462882 -0.063090451 4278190080
-3.6374342 -0.3335934 -0.063090451 4278190080
-3.6336524 -0.31982055 -0.063003182 4278190080
-3.6297653 -0.30671406 -0.062915929 4278190080
-3.6308138 -0.29404214 -0.062915929 4278190080
-3.6268339 -0.28097951 -0.06282866 4278190080
-3.6227601 -0.26858217 -0.062741399 4278190080
-3.6236756 -0.25593397 -0.062741399 4278190080
-3.624547 -0.2432836 -0.062741399 4278190080
-3.6203847 -0.23031288 -0.062654138 4278190080
-3.6211667 -0.21767418 -0.062654138 4278190080
-3.6219044 -0.20503281 -0.062654138 4278190080
-3.6225982 -0.19238798 -0.062654138 4278190080
-3.6232476 -0.17974178 -0.062654138 4278190080
-3.623853 -0.16709338 -0.062654138 4278190080
-3.624414 -0.15444295 -0.062654138 4278190080
-3.6249311 -0.14179064 -0.062654138 4278190080
-3.6254039 -0.12913562 -0.062654138 4278190080
-3.620836 -0.1163195 -0.062566876 4278190080
-3.6212201 -0.10367991 -0.062566876 4278190080
-3.6165621 -0.090913415 -0.062479615 4278190080
-3.6168575 -0.078288898 -0.062479615 4278190080
-3.6171088 -0.065662466 -0.062479615 4278190080
-3.617316 -0.053036191 -0.062479615 4278190080
-3.6174791 -0.040409271 -0.062479615 4278190080
-3.6125989 -0.027743466 -0.06239235 4278190080
-3.6126735 -0.015133167 -0.06239235 4278190080
-3.6127045 -0.0025217205 -0.06239235 4278190080
-3.6126912 0.010088794 -0.06239235 4278190080
-3.6126339 0.022699187 -0.06239235 4278190080
-3.6125329 0.0353093 -0.06239235 4278190080
-3.6123874 0.047918987 -0.06239235 4278190080
-3.6122088 0.059897985 -0.06239235 4278190080
-3.6119776 0.072506391 -0.06239235 4278190080
-3.6066899 0.085626237 -0.062305089 4278190080
-3.606369 0.098215222 -0.062305089 4278190080
-3.6060042 0.11080301 -0.062305089 4278190080
-3.6055956 0.12339041 -0.062305089 4278190080
-3.6051428 0.13597533 -0.062305089 4278190080
-3.6046462 0.14855862 -0.062305089 4278190080
-3.6041057 0.16114008 -0.062305089 4278190080
-3.5985277 0.17347886 -0.062217824 4278190080
-3.5979002 0.18603976 -0.062217824 4278190080
-3.597229 0.19859746 -0.062217824 4278190080
-3.5965505 0.21052536 -0.062217824 4278190080
-3.5957937 0.22307819 -0.062217824 4278190080
-3.5949931 0.23562831 -0.062217824 4278190080
-3.5941489 0.24817555 -0.062217824 4278190080
-3.5932605 0.26071975 -0.062217824 4278190080
-3.5923285 0.27326176 -0.062217824 4278190080
-3.5963364 0.28619605 -0.062305089 4278190080
-3.5953155 0.29874769 -0.062305089 4278190080
-3.5992312 0.31172702 -0.06239235 4278190080
-3.5981212 0.32428861 -0.06239235 4278190080
-3.6019449 0.33731329 -0.062479615 4278190080
-3.6007454 0.34988418 -0.062479615 4278190080
-3.5995023 0.36245081 -0.062479615 4278190080
-3.5982151 0.37501302 -0.062479615 4278190080
-3.5919137 0.38703507 -0.06239235 4278190080
-3.5905406 0.3995716 -0.06239235 4278190080
-3.589124 0.41210231 -0.06239235 4278190080
-3.5926285 0.4252156 -0.062479615 4278190080
-3.5911222 0.43775341 -0.062479615 4278190080
-3.5895724 0.45028591 -0.062479615 4278190080
-3.5880594 0.46218705 -0.062479615 4278190080
-3.5864241 0.47470871 -0.062479615 4278190080
-3.5847452 0.48722553 -0.062479615 4278190080
-3.5830226 0.49973547 -0.062479615 4278190080
-3.5862055 0.5129472 -0.062566876 4278190080
-3.584393 0.52546209 -0.062566876 4278190080
-3.5825372 0.53797054 -0.062566876 4278190080
-3.5806372 0.55047339 -0.062566876 4278190080
-3.5786941 0.56296861 -0.062566876 4278190080
-3.5767071 0.57545698 -0.062566876 4278190080
-3.5746765 0.58793831 -0.062566876 4278190080
-3.5726025 0.60041249 -0.062566876 4278190080
-3.575412 0.61372608 -0.062654138 4278190080
-3.5732479 0.62620264 -0.062654138 4278190080
-3.5710404 0.63867158 -0.062654138 4278190080
-3.5737073 0.65203011 -0.062741399 4278190080
-3.5714097 0.66450053 -0.062741399 4278190080
-3.5690682 0.67696375 -0.062741399 4278190080
-3.5715916 0.69036657 -0.06282866 4278190080
-3.5691602 0.70282936 -0.06282866 4278190080
-3.5715868 0.71626657 -0.062915929 4278190080
-3.5690649 0.72872919 -0.062915929 4278190080
-3.5664992 0.74118388 -0.062915929 4278190080
-3.5687814 0.75466281 -0.063003182 4278190080
-3.5661254 0.76711541 -0.063003182 4278190080
-3.5634258 0.77955866 -0.063003182 4278190080
-3.5655632 0.79307789 -0.063090451 4278190080
-3.562773 0.80551994 -0.063090451 4278190080
-3.5648117 0.8190707 -0.063177712 4278190080
-3.5667994 0.83264554 -0.063264973 4278190080
-3.5687354 0.84624416 -0.063352235 4278190080
-3.5608995 0.85752559 -0.063264973 4278190080
-3.5578845 0.86995101 -0.063264973 4278190080
-3.51601 0.87273008 -0.062566876 4278190080
-3.4887033 0.87889135 -0.062130567 4278190080
-3.4274926 0.87620544 -0.061083421 4278190080
-3.346987 0.86808264 -0.059687227 4278190080
-3.247242 0.85432184 -0.057941988 4278190080
-3.2297494 0.86178488 -0.057680201 4278190080
-3.1977673 0.86521924 -0.05715663 4278190080
-3.1561587 0.86579585 -0.056458533 4278190080
-3.1145854 0.86609268 -0.055760436 4278190080
-3.0682368 0.86475456 -0.054975078 4278190080
-3.0267437 0.86447573 -0.05427698 4278190080
-2.9804878 0.86252815 -0.053491622 4278190080
-2.9390805 0.86167485 -0.052793525 4278190080
-2.8977158 0.86054307 -0.052095432 4278190080
-2.856395 0.85913396 -0.051397335 4278190080
-2.8151202 0.85744625 -0.050699241 4278190080
-2.7786696 0.85695428 -0.050088406 4278190080
-2.7374852 0.85472846 -0.049390309 4278190080
-2.701117 0.85373229 -0.048779473 4278190080
-2.6647899 0.85249352 -0.048168641 4278190080
-2.6285048 0.85101092 -0.047557805 4278190080
-2.5970135 0.85084206 -0.047034234 4278190080
-2.5608106 0.84889072 -0.046423398 4278190080
-2.5293932 0.84828675 -0.045899827 4278190080
-2.4932771 0.84586853 -0.045288995 4278190080
-2.4619379 0.84483057 -0.044765424 4278190080
-2.4353595 0.84522331 -0.044329111 4278190080
-2.4042387 0.84336597 -0.04380554 4278190080
-2.377722 0.84339684 -0.04336923 4278190080
-2.3510876 0.84366375 -0.04293292 4278190080
-2.3246305 0.84334069 -0.04249661 4278190080
-2.2980578 0.84324414 -0.042060297 4278190080
-2.2763512 0.84430724 -0.041711248 4278190080
-2.2501321 0.84308058 -0.041274942 4278190080
-2.2284741 0.84384888 -0.040925894 4278190080
-2.2068388 0.84447575 -0.040576845 4278190080
-2.1852264 0.84496194 -0.040227797 4278190080
-2.1636376 0.84530753 -0.039878745 4278190080
-2.1374235 0.84367746 -0.039442439 4278190080
-2.1160381 0.84335732 -0.03909339 4278190080
-2.0898938 0.84140295 -0.03865708 4278190080
-2.0637891 0.83927715 -0.038220771 4278190080
-2.0423493 0.83887815 -0.037871718 4278190080
-2.0163205 0.83642441 -0.037435412 4278190080
-1.9949447 0.83573085 -0.037086364 4278190080
-1.9735985 0.83489841 -0.036737315 4278190080
-1.9522824 0.83392769 -0.036388267 4278190080
-1.9309977 0.83281791 -0.036039222 4278190080
-1.9097445 0.83156973 -0.03569017 4278190080
-1.8883789 0.83051342 -0.035341121 4278190080
-1.8717611 0.83101422 -0.035079338 4278190080
-1.8506007 0.82936466 -0.034730289 4278190080
-1.8340297 0.82963794 -0.034468502 4278190080
-1.812932 0.82772946 -0.034119453 4278190080
-1.7964103 0.82777655 -0.033857666 4278190080
-1.7799107 0.82771796 -0.033595882 4278190080
-1.7634337 0.8275544 -0.033334095 4278190080
-1.7469796 0.82728595 -0.033072311 4278190080
-1.7350597 0.82906818 -0.032897785 4278190080
-1.7186455 0.82860667 -0.032636002 4278190080
-1.7022558 0.82804018 -0.032374211 4278190080
-1.6858914 0.82736957 -0.032112427 4278190080
-1.6695524 0.82659489 -0.03185064 4278190080
-1.6532397 0.82571626 -0.031588856 4278190080
-1.6369534 0.82473439 -0.031327069 4278190080
-1.6206944 0.82364845 -0.031065283 4278190080
-1.6044631 0.82245922 -0.030803498 4278190080
-1.5882601 0.82116675 -0.030541711 4278190080
-1.5765185 0.82208276 -0.030367188 4278190080
-1.5603651 0.82060027 -0.030105399 4278190080
-1.5486581 0.82135713 -0.029930875 4278190080
-1.5325567 0.81968451 -0.029669089 4278190080
-1.5208861 0.82028276 -0.029494565 4278190080
-1.5048382 0.81842107 -0.02923278 4278190080
-1.4932053 0.81886166 -0.029058255 4278190080
-1.477213 0.81681156 -0.02879647 4278190080
-1.4656199 0.81709427 -0.028621946 4278190080
-1.4496849 0.81485641 -0.02836016 4278190080
-1.438133 0.81498218 -0.028185636 4278190080
-1.4265977 0.81503767 -0.028011113 4278190080
-1.4150797 0.81502211 -0.027836587 4278190080
-1.4035796 0.81493628 -0.027662063 4278190080
-1.3964118 0.81730539 -0.0275748 4278190080
-1.384939 0.81709409 -0.027400278 4278190080
-1.3734846 0.81681311 -0.027225753 4278190080
-1.3620492 0.8164618 -0.027051229 4278190080
-1.3506333 0.81604064 -0.026876705 4278190080
-1.339237 0.81554985 -0.026702181 4278190080
-1.3278606 0.81498951 -0.026527658 4278190080
-1.3165044 0.81436002 -0.026353134 4278190080
-1.305169 0.81366098 -0.02617861 4278190080
-1.2938547 0.81289274 -0.026004085 4278190080
-1.2825617 0.81205553 -0.025829561 4278190080
-1.2755049 0.81383848 -0.0257423 4278190080
-1.264246 0.81287861 -0.025567774 4278190080
-1.2572052 0.81456822 -0.025480513 4278190080
-1.2501682 0.81621867 -0.025393249 4278190080
-1.2431351 0.81782991 -0.025305988 4278190080
-1.2402728 0.82216424 -0.025305988 4278190080
-1.233238 0.82371211 -0.025218727 4278190080
-1.2262077 0.82522064 -0.025131464 4278190080
-1.2150443 0.82388455 -0.02495694 4278190080
-1.2080332 0.82530063 -0.024869679 4278190080
-1.201027 0.82667792 -0.024782415 4278190080
-1.1940258 0.82801664 -0.024695154 4278190080
-1.1829319 0.82645315 -0.02452063 4278190080
-1.1718637 0.82482243 -0.024346106 4278190080
-1.1608213 0.82312447 -0.024171583 4278190080
-1.1538732 0.82426554 -0.02408432 4278190080
-1.1427298 0.82264769 -0.023909796 4278190080
-1.1358042 0.82369655 -0.023822535 4278190080
-1.1288853 0.82470709 -0.023735274 4278190080
-1.1179466 0.82271659 -0.023560749 4278190080
-1.1110519 0.82363671 -0.023473486 4278190080
-1.1001588 0.82152754 -0.023298962 4278190080
-1.0892941 0.81935251 -0.023124438 4278190080
-1.0824428 0.82013077 -0.023037175 4278190080
-1.071625 0.81783849 -0.022862652 4278190080
-1.0648003 0.81852734 -0.022775389 4278190080
-1.0619366 0.82223916 -0.022775389 4278190080
-1.0551178 0.82286656 -0.022688128 4278190080
-1.0483078 0.82345635 -0.022600865 4278190080
-1.0415062 0.824009 -0.022513604 4278190080
-1.0308042 0.82140845 -0.02233908 4278190080
-1.0240319 0.82187241 -0.022251818 4278190080
-1.013381 0.81915647 -0.022077294 4278190080
-1.0066386 0.81953251 -0.021990033 4278190080
-0.99990577 0.81987172 -0.02190277 4278190080
-0.99318308 0.82017374 -0.021815509 4278190080
-0.98647052 0.82043886 -0.021728246 4278190080
-0.97593582 0.81745702 -0.021553721 4278190080
-0.9730764 0.82085866 -0.021553721 4278190080
-0.95496517 0.81130332 -0.021204673 4278190080
-0.96732193 0.82763207 -0.021553721 4278190080
-0.94927806 0.81795031 -0.021204673 4278190080
-0.96907222 0.84091794 -0.021728246 4278190080
-0.77724224 0.83817083 -0.01928491 4278190080
-0.78149259 0.85464454 -0.019546695 4278190080
-0.78522599 0.8647694 -0.019721219 4278190080
-0.76211601 0.84522837 -0.019197648 4278190080
-0.759161 0.84788346 -0.019197648 4278190080
-0.74955326 0.84305602 -0.019023124 4278190080
-0.74329722 0.84191948 -0.018935859 4278190080
-0.73705828 0.84074974 -0.018848598 4278190080
-0.73083645 0.83954686 -0.018761335 4278190080
-0.7246322 0.83831072 -0.018674074 4278190080
-0.71518958 0.83324802 -0.018499549 4278190080
-0.70579118 0.82812965 -0.018325025 4278190080
-0.69629347 0.82307762 -0.018150503 4278190080
-0.68698531 0.81784719 -0.017975979 4278190080
-0.6809243 0.81640106 -0.017888715 4278190080
-0.67488176 0.81492263 -0.017801454 4278190080
-0.66885769 0.81341213 -0.017714193 4278190080
-0.66601431 0.8157419 -0.017714193 4278190080
-0.66001469 0.81417823 -0.01762693 4278190080
-0.65716869 0.81647712 -0.01762693 4278190080
-0.6543147 0.81876606 -0.01762693 4278190080
-0.64834517 0.81712896 -0.017539669 4278190080
-0.64548898 0.81938708 -0.017539669 4278190080
-0.63954496 0.81769741 -0.017452406 4278190080
-0.63362068 0.81597626 -0.017365145 4278190080
-0.62771624 0.81422371 -0.017277882 4278190080
-0.6216898 0.81254858 -0.01719062 4278190080
-0.61582583 0.81073272 -0.017103357 4278190080
-0.61299217 0.81287742 -0.017103357 4278190080
-0.60715491 0.81101018 -0.017016096 4278190080
-0.60432011 0.81312472 -0.017016096 4278190080
-0.6014781 0.81522918 -0.017016096 4278190080
-0.59567481 0.8132906 -0.016928833 4278190080
-0.59283233 0.8153649 -0.016928833 4278190080
-0.58705688 0.81337559 -0.016841572 4278190080
-0.58130229 0.81135613 -0.016754311 4278190080
-0.57556927 0.80930626 -0.016667048 4278190080
-0.56985766 0.8072263 -0.016579786 4278190080
-0.56416762 0.80511642 -0.016492523 4278190080
-0.5613538 0.80708081 -0.016492523 4278190080
-0.55569279 0.80492145 -0.016405262 4278190080
-0.55287975 0.80685622 -0.016405262 4278190080
-0.55005997 0.80878121 -0.016405262 4278190080
-0.54443651 0.80655271 -0.016318001 4278190080
-0.54161781 0.8084482 -0.016318001 4278190080
-0.53602433 0.806171 -0.016230738 4278190080
-0.53320706 0.80803716 -0.016230738 4278190080
-0.5276444 0.80571115 -0.016143475 4278190080
-0.52210456 0.80335629 -0.016056214 4278190080
-0.51929718 0.80517387 -0.016056214 4278190080
-0.51378834 0.80277103 -0.01596895 4278190080
-0.51098305 0.80455959 -0.01596895 4278190080
-0.5055061 0.80210894 -0.015881689 4278190080
-0.50270319 0.80386859 -0.015881689 4278190080
-0.49989414 0.80561841 -0.015881689 4278190080
-0.49707878 0.80735856 -0.015881689 4278190080
-0.49165145 0.80482256 -0.015794428 4278190080
-0.4862479 0.80225855 -0.015707165 4278190080
-0.48344457 0.80395097 -0.015707165 4278190080
-0.47807404 0.80134034 -0.015619904 4278190080
-0.47513369 0.80308723 -0.015619904 4278190080
-0.47232753 0.80474085 -0.015619904 4278190080
-0.46700016 0.80206436 -0.015532642 4278190080
-0.46419743 0.80368972 -0.015532642 4278190080
-0.46138924 0.80530512 -0.015532642 4278190080
-0.45610532 0.80256438 -0.01544538 4278190080
-0.45330113 0.80415159 -0.01544538 4278190080
-0.44805172 0.80136544 -0.015358117 4278190080
-0.44525152 0.80292463 -0.015358117 4278190080
-0.44244611 0.80447394 -0.015358117 4278190080
-0.43963534 0.80601346 -0.015358117 4278190080
-0.43444064 0.803146 -0.015270855 4278190080
-0.43163455 0.80465758 -0.015270855 4278190080
-0.4264752 0.80174577 -0.015183594 4278190080
-0.42134169 0.79880774 -0.015096332 4278190080
-0.41855079 0.8002736 -0.015096332 4278190080
-0.41345337 0.79729164 -0.015009069 4278190080
-0.41066784 0.79873002 -0.015009069 4278190080
-0.40773749 0.80022985 -0.015009069 4278190080
-0.40268767 0.79718602 -0.014921807 4278190080
-0.39976305 0.79865658 -0.014921807 4278190080
-0.39697281 0.80004716 -0.014921807 4278190080
-0.39211035 0.79687357 -0.014834545 4278190080
-0.38932639 0.79823744 -0.014834545 4278190080
-0.38436189 0.79509062 -0.014747282 4278190080
-0.3815842 0.79642743 -0.014747282 4278190080
-0.37880164 0.79775465 -0.014747282 4278190080
-0.37601471 0.79907203 -0.014747282 4278190080
-0.37308356 0.80044478 -0.014747282 4278190080
-0.36819088 0.79720372 -0.014660021 4278190080
-0.36540592 0.79848409 -0.014660021 4278190080
-0.36261651 0.79975468 -0.014660021 4278190080
-0.3599624 0.80095279 -0.014660021 4278190080
-0.35513103 0.79763734 -0.014572759 4278190080
-0.35234463 0.79887211 -0.014572759 4278190080
-0.34955394 0.80009717 -0.014572759 4278190080
-0.34477335 0.79672444 -0.014485497 4278190080
-0.3419902 0.79792309 -0.014485497 4278190080
-0.33724955 0.79451013 -0.014398235 4278190080
-0.33447418 0.79568249 -0.014398235 4278190080
-0.33155552 0.79690313 -0.014398235 4278190080
-0.33067608 0.80267793 -0.014485497 4278190080
-0.32787225 0.80382729 -0.014485497 4278190080
-0.32506439 0.80496687 -0.014485497 4278190080
-0.32225239 0.80609673 -0.014485497 4278190080
-0.31759715 0.8025682 -0.014398235 4278190080
-0.31479377 0.8036719 -0.014398235 4278190080
-0.3101795 0.80010462 -0.014310973 4278190080
-0.30724481 0.80123609 -0.014310973 4278190080
-0.30267251 0.79762965 -0.014223712 4278190080
-0.29988647 0.79868132 -0.014223712 4278190080
-0.29709676 0.79972327 -0.014223712 4278190080
-0.2944431 0.80070406 -0.014223712 4278190080
-0.29164639 0.801727 -0.014223712 4278190080
-0.2888459 0.80274016 -0.014223712 4278190080
-0.28436589 0.7990337 -0.014136449 4278190080
-0.2797766 0.79535455 -0.014049187 4278190080
-0.27699843 0.7963264 -0.014049187 4278190080
-0.27259111 0.79256094 -0.013961924 4278190080
-0.26982296 0.79350758 -0.013961924 4278190080
-0.26545858 0.78970593 -0.013874662 4278190080
-0.26270044 0.79062772 -0.013874662 4278190080
-0.25837907 0.78679031 -0.0137874 4278190080
-0.25563115 0.78768736 -0.0137874 4278190080
-0.25288007 0.78857487 -0.0137874 4278190080
-0.25012594 0.78945279 -0.0137874 4278190080
-0.24573819 0.78559303 -0.013700139 4278190080
-0.24299452 0.78644603 -0.013700139 4278190080
-0.24011053 0.78733134 -0.013700139 4278190080
-0.2373606 0.78816473 -0.013700139 4278190080
-0.23474583 0.78894746 -0.013700139 4278190080
-0.23199028 0.78976208 -0.013700139 4278190080
-0.22923213 0.7905671 -0.013700139 4278190080
-0.22784664 0.79616868 -0.0137874 4278190080
-0.22506614 0.79695916 -0.0137874 4278190080
-0.22228292 0.79773992 -0.0137874 4278190080
-0.21949676 0.79851103 -0.0137874 4278190080
-0.21670814 0.79927236 -0.0137874 4278190080
-0.2126255 0.79519433 -0.013700139 4278190080
-0.20984851 0.7959317 -0.013700139 4278190080
-0.20692977 0.79669553 -0.013700139 4278190080
-0.20290768 0.79256994 -0.013612877 4278190080
-0.20013991 0.79327339 -0.013612877 4278190080
-0.19857551 0.79881877 -0.013700139 4278190080
-0.19578616 0.79950702 -0.013700139 4278190080
-0.19416614 0.80504549 -0.0137874 4278190080
-0.19250982 0.81058234 -0.013874662 4278190080
-0.19081762 0.81611723 -0.013961924 4278190080
-0.1890887 0.82165033 -0.014049187 4278190080
-0.18621972 0.82230532 -0.014049187 4278190080
-0.18334803 0.82295036 -0.014049187 4278190080
-0.1804741 0.82358539 -0.014049187 4278190080
-0.17759842 0.82421029 -0.014049187 4278190080
-0.17472012 0.82482523 -0.014049187 4278190080
-0.17169595 0.82546008 -0.014049187 4278190080
-0.16881332 0.82605439 -0.014049187 4278190080
-0.16592909 0.82663858 -0.014049187 4278190080
-0.1630424 0.82721281 -0.014049187 4278190080
-0.16015416 0.82777679 -0.014049187 4278190080
-0.158196 0.83324236 -0.014136449 4278190080
-0.1552863 0.83378953 -0.014136449 4278190080
-0.15237516 0.83432645 -0.014136449 4278190080
-0.1494617 0.83485329 -0.014136449 4278190080
-0.14568307 0.83044583 -0.014049187 4278190080
-0.14278321 0.83094931 -0.014049187 4278190080
-0.13988161 0.83144271 -0.014049187 4278190080
-0.13697875 0.83192587 -0.014049187 4278190080
-0.13327879 0.82746327 -0.013961924 4278190080
-0.13024521 0.82794619 -0.013961924 4278190080
-0.12735416 0.82839584 -0.013961924 4278190080
-0.12446201 0.82883531 -0.013961924 4278190080
-0.1215679 0.8292647 -0.013961924 4278190080
-0.1179649 0.82473511 -0.013874662 4278190080
-0.11508514 0.82514191 -0.013874662 4278190080
-0.1120602 0.82555813 -0.013874662 4278190080
-0.1091776 0.8259443 -0.013874662 4278190080
-0.10614976 0.82633889 -0.013874662 4278190080
-0.10326447 0.82670438 -0.013874662 4278190080
-0.10052241 0.82704228 -0.013874662 4278190080
-0.09763515 0.82738811 -0.013874662 4278190080
-0.094746254 0.82772392 -0.013874662 4278190080
-0.091856204 0.8280496 -0.013874662 4278190080
-0.088965483 0.82836515 -0.013874662 4278190080
-0.085556738 0.82369822 -0.0137874 4278190080
-0.082681239 0.82399184 -0.0137874 4278190080
-0.079322532 0.81929946 -0.013700139 4278190080
-0.076461986 0.81957138 -0.013700139 4278190080
-0.073153928 0.81485403 -0.013612877 4278190080
-0.070166975 0.8151167 -0.013612877 4278190080
-0.067321084 0.81535667 -0.013612877 4278190080
-0.064332321 0.81559789 -0.013612877 4278190080
-0.061484788 0.81581753 -0.013612877 4278190080
-0.058636505 0.81602716 -0.013612877 4278190080
-0.05578794 0.8162269 -0.013612877 4278190080
-0.052938264 0.81641668 -0.013612877 4278190080
-0.050088376 0.81659645 -0.013612877 4278190080
-0.047237445 0.81676632 -0.013612877 4278190080
-0.044385936 0.81692624 -0.013612877 4278190080
-0.041391574 0.81708342 -0.013612877 4278190080
-0.038539428 0.81722295 -0.013612877 4278190080
-0.035326395 0.81236422 -0.013525615 4278190080
-0.03249076 0.81248254 -0.013525615 4278190080
-0.029796256 0.81258583 -0.013525615 4278190080
-0.026959447 0.81268489 -0.013525615 4278190080
-0.024122743 0.81277406 -0.013525615 4278190080
-0.021285312 0.81285328 -0.013525615 4278190080
-0.018589642 0.81291944 -0.013525615 4278190080
-0.015751738 0.81297934 -0.013525615 4278190080
-0.012772035 0.81303161 -0.013525615 4278190080
-0.0099342065 0.81307125 -0.013525615 4278190080
-0.0070958249 0.81310099 -0.013525615 4278190080
-0.0042573563 0.81312078 -0.013525615 4278190080
-0.0014192689 0.81313068 -0.013525615 4278190080
0.0014192689 0.81313068 -0.013525615 4278190080
0.0042573563 0.81312078 -0.013525615 4278190080
0.0070958249 0.81310099 -0.013525615 4278190080
0.0099342065 0.81307125 -0.013525615 4278190080
0.012772035 0.81303161 -0.013525615 4278190080
0.015514167 0.80798376 -0.013438352 4278190080
0.018334204 0.80792469 -0.013438352 4278190080
0.021154448 0.80785578 -0.013438352 4278190080
0.023974434 0.80777699 -0.013438352 4278190080
0.026934803 0.80768371 -0.013438352 4278190080
0.029753724 0.80758476 -0.013438352 4278190080
0.032713778 0.80747032 -0.013438352 4278190080
0.035751726 0.81234562 -0.013525615 4278190080
0.038209032 0.80722892 -0.013438352 4278190080
0.041280523 0.81208342 -0.013525615 4278190080
0.044114713 0.81193441 -0.013525615 4278190080
0.046948798 0.81177545 -0.013525615 4278190080
0.04978231 0.81160659 -0.013525615 4278190080
0.052614782 0.81142789 -0.013525615 4278190080
0.055588771 0.81122959 -0.013525615 4278190080
0.058419894 0.81103063 -0.013525615 4278190080
0.061250735 0.81082177 -0.013525615 4278190080
0.064080402 0.81060302 -0.013525615 4278190080
0.066909716 0.81037438 -0.013525615 4278190080
0.069738217 0.8101359 -0.013525615 4278190080
0.072565429 0.80988753 -0.013525615 4278190080
0.075392194 0.80962926 -0.013525615 4278190080
0.078217611 0.80936122 -0.013525615 4278190080
0.081042506 0.80908322 -0.013525615 4278190080
0.08386641 0.80879539 -0.013525615 4278190080
0.087221839 0.81346846 -0.013612877 4278190080
0.090061016 0.81315905 -0.013612877 4278190080
0.092898659 0.81283975 -0.013612877 4278190080
0.095877558 0.81249374 -0.013612877 4278190080
0.098712847 0.81215417 -0.013612877 4278190080
0.10168919 0.81178689 -0.013612877 4278190080
0.10452197 0.811427 -0.013612877 4278190080
0.10735392 0.81105721 -0.013612877 4278190080
0.11018413 0.81067753 -0.013612877 4278190080
0.11301342 0.81028795 -0.013612877 4278190080
0.11584134 0.80988848 -0.013612877 4278190080
0.11925025 0.81444645 -0.013700139 4278190080
0.12209264 0.81402522 -0.013700139 4278190080
0.12507525 0.81357229 -0.013700139 4278190080
0.12791456 0.81313068 -0.013700139 4278190080
0.13154642 0.81761497 -0.0137874 4278190080
0.13439937 0.81715083 -0.0137874 4278190080
0.13725112 0.81667668 -0.0137874 4278190080
0.14010075 0.81619269 -0.0137874 4278190080
0.14381208 0.8206228 -0.013874662 4278190080
0.14667588 0.8201158 -0.013874662 4278190080
0.14968064 0.81957269 -0.013874662 4278190080
0.15254031 0.81904531 -0.013874662 4278190080
0.15539856 0.81850779 -0.013874662 4278190080
0.15825491 0.81796032 -0.013874662 4278190080
0.1611089 0.81740296 -0.013874662 4278190080
0.16396137 0.81683558 -0.013874662 4278190080
0.16681139 0.81625837 -0.013874662 4278190080
0.16864178 0.81077659 -0.0137874 4278190080
0.17147106 0.81018293 -0.0137874 4278190080
0.17429781 0.80957949 -0.0137874 4278190080
0.17712289 0.8089661 -0.0137874 4278190080
0.17994536 0.80834299 -0.0137874 4278190080
0.18276609 0.80770987 -0.0137874 4278190080
0.18558457 0.80706698 -0.0137874 4278190080
0.18840039 0.80641431 -0.0137874 4278190080
0.19236863 0.81061584 -0.013874662 4278190080
0.19533828 0.80990535 -0.013874662 4278190080
0.19816436 0.80921853 -0.013874662 4278190080
0.20098759 0.80852193 -0.013874662 4278190080
0.2038088 0.80781537 -0.013874662 4278190080
0.20662712 0.8070991 -0.013874662 4278190080
0.20944332 0.80637288 -0.013874662 4278190080
0.21239731 0.80559987 -0.013874662 4278190080
0.21520825 0.8048535 -0.013874662 4278190080
0.21801656 0.80409729 -0.013874662 4278190080
0.22082181 0.80333149 -0.013874662 4278190080
0.22362478 0.80255574 -0.013874662 4278190080
0.2264246 0.80177033 -0.013874662 4278190080
0.23059756 0.8057813 -0.013961924 4278190080
0.23340903 0.8049714 -0.013961924 4278190080
0.23762622 0.80894846 -0.014049187 4278190080
0.24187441 0.81290561 -0.014136449 4278190080
0.24471025 0.81205648 -0.014136449 4278190080
0.24754354 0.81119728 -0.014136449 4278190080
0.25037381 0.81032819 -0.014136449 4278190080
0.25469309 0.81422061 -0.014223712 4278190080
0.2576755 0.81328166 -0.014223712 4278190080
0.26051301 0.81237721 -0.014223712 4278190080
0.2633473 0.81146282 -0.014223712 4278190080
0.26617798 0.81053871 -0.014223712 4278190080
0.26900584 0.80960459 -0.014223712 4278190080
0.2734229 0.81339943 -0.014310973 4278190080
0.27626067 0.81243998 -0.014310973 4278190080
0.27909511 0.81147063 -0.014310973 4278190080
0.28371057 0.81516373 -0.014398235 4278190080
0.28655446 0.81416839 -0.014398235 4278190080
0.28939444 0.81316328 -0.014398235 4278190080
0.29223132 0.81214803 -0.014398235 4278190080
0.29677323 0.81582117 -0.014485497 4278190080
0.29961935 0.81478024 -0.014485497 4278190080
0.3024618 0.81372929 -0.014485497 4278190080
0.30530015 0.81266868 -0.014485497 4278190080
0.30813521 0.81159794 -0.014485497 4278190080
0.31096607 0.81051749 -0.014485497 4278190080
0.31393498 0.80937219 -0.014485497 4278190080
0.31675804 0.80827153 -0.014485497 4278190080
0.32155943 0.81175303 -0.014572759 4278190080
0.32439119 0.81062555 -0.014572759 4278190080
0.32707757 0.80954534 -0.014572759 4278190080
0.32990158 0.80839866 -0.014572759 4278190080
0.33272114 0.80724227 -0.014572759 4278190080
0.33553711 0.80607587 -0.014572759 4278190080
0.33834854 0.80489981 -0.014572759 4278190080
0.34115624 0.8037138 -0.014572759 4278190080
0.34395984 0.80251795 -0.014572759 4278190080
0.34874424 0.80590057 -0.014660021 4278190080
0.35155541 0.80467826 -0.014660021 4278190080
0.35436183 0.80344635 -0.014660021 4278190080
0.35716441 0.80220437 -0.014660021 4278190080
0.35996261 0.80095267 -0.014660021 4278190080
0.36289573 0.79962802 -0.014660021 4278190080
0.36776635 0.80290169 -0.014747282 4278190080
0.37056693 0.80161297 -0.014747282 4278190080
0.37547657 0.80484492 -0.014834545 4278190080
0.37828344 0.8035295 -0.014834545 4278190080
0.38323128 0.80671966 -0.014921807 4278190080
0.38604468 0.80537719 -0.014921807 4278190080
0.38885379 0.80402464 -0.014921807 4278190080
0.39385048 0.80715519 -0.015009069 4278190080
0.3966653 0.80577558 -0.015009069 4278190080
0.40169939 0.80886352 -0.015096332 4278190080
0.40452012 0.80745655 -0.015096332 4278190080
0.4074772 0.80596834 -0.015096332 4278190080
0.41028783 0.80454117 -0.015096332 4278190080
0.41309386 0.80310404 -0.015096332 4278190080
0.41589487 0.80165708 -0.015096332 4278190080
0.42100805 0.8046301 -0.015183594 4278190080
0.42381436 0.80315554 -0.015183594 4278190080
0.42661506 0.80167139 -0.015183594 4278190080
0.42941096 0.80017722 -0.015183594 4278190080
0.43472081 0.80299437 -0.015270855 4278190080
0.43752131 0.80147195 -0.015270855 4278190080
0.44272676 0.80431956 -0.015358117 4278190080
0.44553182 0.80276918 -0.015358117 4278190080
0.45077267 0.80557162 -0.01544538 4278190080
0.45358163 0.8039934 -0.01544538 4278190080
0.45885712 0.8067506 -0.015532642 4278190080
0.46167016 0.80514413 -0.015532642 4278190080
0.46447799 0.80352759 -0.015532642 4278190080
0.46728018 0.80190128 -0.015532642 4278190080
0.47021604 0.8001833 -0.015532642 4278190080
0.47555432 0.80283821 -0.015619904 4278190080
0.47835359 0.80117351 -0.015619904 4278190080
0.48114747 0.79949874 -0.015619904 4278190080
0.48393506 0.79781449 -0.015619904 4278190080
0.48932478 0.80038559 -0.015707165 4278190080
0.49211586 0.79867256 -0.015707165 4278190080
0.49753782 0.80119699 -0.015794428 4278190080
0.50047088 0.79936814 -0.015794428 4278190080
0.50592601 0.80184418 -0.015881689 4278190080
0.50872201 0.80007315 -0.015881689 4278190080
0.51420856 0.80250192 -0.01596895 4278190080
0.51700687 0.80070204 -0.01596895 4278190080
0.51979846 0.79889262 -0.01596895 4278190080
0.52258408 0.79707319 -0.01596895 4278190080
0.52536339 0.7952441 -0.01596895 4278190080
0.53090602 0.79756707 -0.016056214 4278190080
0.53647166 0.79986078 -0.016143475 4278190080
0.54205936 0.80212557 -0.016230738 4278190080
0.54766977 0.80436075 -0.016318001 4278190080
0.55061406 0.80234814 -0.016318001 4278190080
0.5534116 0.80042112 -0.016318001 4278190080
0.55620199 0.79848468 -0.016318001 4278190080
0.55898601 0.79653817 -0.016318001 4278190080
0.56176317 0.79458195 -0.016318001 4278190080
0.56743336 0.79668838 -0.016405262 4278190080
0.57021105 0.79470271 -0.016405262 4278190080
0.57298136 0.79270762 -0.016405262 4278190080
0.57868779 0.79474396 -0.016492523 4278190080
0.58145863 0.79271901 -0.016492523 4278190080
0.58733159 0.79460287 -0.016579786 4278190080
0.59308743 0.79655755 -0.016667048 4278190080
0.5988636 0.798482 -0.016754311 4278190080
0.60164738 0.7963866 -0.016754311 4278190080
0.60745072 0.79826009 -0.016841572 4278190080
0.61327493 0.80010247 -0.016928833 4278190080
0.61606425 0.79795676 -0.016928833 4278190080
0.62191451 0.79974806 -0.017016096 4278190080
0.62778521 0.80150783 -0.017103357 4278190080
0.63057888 0.79931176 -0.017103357 4278190080
0.63647538 0.80101973 -0.01719062 4278190080
